-1.885352830313735240e+00 -7.914217180855321665e+00 3.170000000000000000e+02
-6.357310339129575993e-01 -7.252065109228197137e+00 3.170000000000000000e+02
6.138907624878209290e-01 -6.589913037601071721e+00 3.170000000000000000e+02
1.863512558888598791e+00 -5.927760965973947194e+00 3.170000000000000000e+02
3.113134355289376654e+00 -5.265608894346822666e+00 3.170000000000000000e+02
4.362756151690154738e+00 -4.603456822719698138e+00 3.170000000000000000e+02
5.612377948090932378e+00 -3.941304751092573166e+00 3.170000000000000000e+02
6.861999744491710018e+00 -3.279152679465449083e+00 3.170000000000000000e+02
-2.179087692700561796e+00 -8.870104114869272749e+00 3.180000000000000000e+02
-9.294658962997841556e-01 -8.207952043242148221e+00 3.180000000000000000e+02
3.201559001009943728e-01 -7.545799971615023694e+00 3.180000000000000000e+02
1.569777696501772235e+00 -6.883647899987898278e+00 3.180000000000000000e+02
2.819399492902550097e+00 -6.221495828360773750e+00 3.180000000000000000e+02
4.069021289303328182e+00 -5.559343756733649222e+00 3.180000000000000000e+02
5.318643085704105822e+00 -4.897191685106523806e+00 3.180000000000000000e+02
6.568264882104884350e+00 -4.235039613479400167e+00 3.180000000000000000e+02
-2.179087692700561796e+00 -8.870104114869272749e+00 3.190000000000000000e+02
-9.294658962997841556e-01 -8.207952043242148221e+00 3.190000000000000000e+02
3.201559001009943728e-01 -7.545799971615023694e+00 3.190000000000000000e+02
1.569777696501772235e+00 -6.883647899987898278e+00 3.190000000000000000e+02
2.819399492902550097e+00 -6.221495828360773750e+00 3.190000000000000000e+02
4.069021289303328182e+00 -5.559343756733649222e+00 3.190000000000000000e+02
5.318643085704105822e+00 -4.897191685106523806e+00 3.190000000000000000e+02
6.568264882104884350e+00 -4.235039613479400167e+00 3.190000000000000000e+02
-2.179087692700561796e+00 -8.870104114869272749e+00 3.200000000000000000e+02
-9.294658962997841556e-01 -8.207952043242148221e+00 3.200000000000000000e+02
3.201559001009943728e-01 -7.545799971615023694e+00 3.200000000000000000e+02
1.569777696501772235e+00 -6.883647899987898278e+00 3.200000000000000000e+02
2.819399492902550097e+00 -6.221495828360773750e+00 3.200000000000000000e+02
4.069021289303328182e+00 -5.559343756733649222e+00 3.200000000000000000e+02
5.318643085704105822e+00 -4.897191685106523806e+00 3.200000000000000000e+02
6.568264882104884350e+00 -4.235039613479400167e+00 3.200000000000000000e+02
-2.179087692700561796e+00 -8.870104114869272749e+00 3.210000000000000000e+02
-9.294658962997841556e-01 -8.207952043242148221e+00 3.210000000000000000e+02
3.201559001009943728e-01 -7.545799971615023694e+00 3.210000000000000000e+02
1.569777696501772235e+00 -6.883647899987898278e+00 3.210000000000000000e+02
2.819399492902550097e+00 -6.221495828360773750e+00 3.210000000000000000e+02
4.069021289303328182e+00 -5.559343756733649222e+00 3.210000000000000000e+02
5.318643085704105822e+00 -4.897191685106523806e+00 3.210000000000000000e+02
6.568264882104884350e+00 -4.235039613479400167e+00 3.210000000000000000e+02
-2.179087692700561796e+00 -8.870104114869272749e+00 3.220000000000000000e+02
-9.294658962997841556e-01 -8.207952043242148221e+00 3.220000000000000000e+02
3.201559001009943728e-01 -7.545799971615023694e+00 3.220000000000000000e+02
1.569777696501772235e+00 -6.883647899987898278e+00 3.220000000000000000e+02
2.819399492902550097e+00 -6.221495828360773750e+00 3.220000000000000000e+02
4.069021289303328182e+00 -5.559343756733649222e+00 3.220000000000000000e+02
5.318643085704105822e+00 -4.897191685106523806e+00 3.220000000000000000e+02
6.568264882104884350e+00 -4.235039613479400167e+00 3.220000000000000000e+02
-2.179087692700561796e+00 -8.870104114869272749e+00 3.230000000000000000e+02
-9.294658962997841556e-01 -8.207952043242148221e+00 3.230000000000000000e+02
3.201559001009943728e-01 -7.545799971615023694e+00 3.230000000000000000e+02
1.569777696501772235e+00 -6.883647899987898278e+00 3.230000000000000000e+02
2.819399492902550097e+00 -6.221495828360773750e+00 3.230000000000000000e+02
4.069021289303328182e+00 -5.559343756733649222e+00 3.230000000000000000e+02
5.318643085704105822e+00 -4.897191685106523806e+00 3.230000000000000000e+02
6.568264882104884350e+00 -4.235039613479400167e+00 3.230000000000000000e+02
-2.179087692700561796e+00 -8.870104114869272749e+00 3.240000000000000000e+02
-9.294658962997841556e-01 -8.207952043242148221e+00 3.240000000000000000e+02
3.201559001009943728e-01 -7.545799971615023694e+00 3.240000000000000000e+02
1.569777696501772235e+00 -6.883647899987898278e+00 3.240000000000000000e+02
2.819399492902550097e+00 -6.221495828360773750e+00 3.240000000000000000e+02
4.069021289303328182e+00 -5.559343756733649222e+00 3.240000000000000000e+02
5.318643085704105822e+00 -4.897191685106523806e+00 3.240000000000000000e+02
6.568264882104884350e+00 -4.235039613479400167e+00 3.240000000000000000e+02
-2.179087692700561796e+00 -8.870104114869272749e+00 3.250000000000000000e+02
-9.294658962997841556e-01 -8.207952043242148221e+00 3.250000000000000000e+02
3.201559001009943728e-01 -7.545799971615023694e+00 3.250000000000000000e+02
1.569777696501772235e+00 -6.883647899987898278e+00 3.250000000000000000e+02
2.819399492902550097e+00 -6.221495828360773750e+00 3.250000000000000000e+02
4.069021289303328182e+00 -5.559343756733649222e+00 3.250000000000000000e+02
5.318643085704105822e+00 -4.897191685106523806e+00 3.250000000000000000e+02
6.568264882104884350e+00 -4.235039613479400167e+00 3.250000000000000000e+02
-2.179087692700561796e+00 -8.870104114869272749e+00 3.260000000000000000e+02
-9.294658962997841556e-01 -8.207952043242148221e+00 3.260000000000000000e+02
3.201559001009943728e-01 -7.545799971615023694e+00 3.260000000000000000e+02
1.569777696501772235e+00 -6.883647899987898278e+00 3.260000000000000000e+02
2.819399492902550097e+00 -6.221495828360773750e+00 3.260000000000000000e+02
4.069021289303328182e+00 -5.559343756733649222e+00 3.260000000000000000e+02
5.318643085704105822e+00 -4.897191685106523806e+00 3.260000000000000000e+02
6.568264882104884350e+00 -4.235039613479400167e+00 3.260000000000000000e+02
-2.179087692700561796e+00 -8.870104114869272749e+00 3.270000000000000000e+02
-9.294658962997841556e-01 -8.207952043242148221e+00 3.270000000000000000e+02
3.201559001009943728e-01 -7.545799971615023694e+00 3.270000000000000000e+02
1.569777696501772235e+00 -6.883647899987898278e+00 3.270000000000000000e+02
2.819399492902550097e+00 -6.221495828360773750e+00 3.270000000000000000e+02
4.069021289303328182e+00 -5.559343756733649222e+00 3.270000000000000000e+02
5.318643085704105822e+00 -4.897191685106523806e+00 3.270000000000000000e+02
6.568264882104884350e+00 -4.235039613479400167e+00 3.270000000000000000e+02
-2.179087692700561796e+00 -8.870104114869272749e+00 3.280000000000000000e+02
-9.294658962997841556e-01 -8.207952043242148221e+00 3.280000000000000000e+02
3.201559001009943728e-01 -7.545799971615023694e+00 3.280000000000000000e+02
1.569777696501772235e+00 -6.883647899987898278e+00 3.280000000000000000e+02
2.819399492902550097e+00 -6.221495828360773750e+00 3.280000000000000000e+02
4.069021289303328182e+00 -5.559343756733649222e+00 3.280000000000000000e+02
5.318643085704105822e+00 -4.897191685106523806e+00 3.280000000000000000e+02
6.568264882104884350e+00 -4.235039613479400167e+00 3.280000000000000000e+02
-2.179087692700561796e+00 -8.870104114869272749e+00 3.290000000000000000e+02
-9.294658962997841556e-01 -8.207952043242148221e+00 3.290000000000000000e+02
3.201559001009943728e-01 -7.545799971615023694e+00 3.290000000000000000e+02
1.569777696501772235e+00 -6.883647899987898278e+00 3.290000000000000000e+02
2.819399492902550097e+00 -6.221495828360773750e+00 3.290000000000000000e+02
4.069021289303328182e+00 -5.559343756733649222e+00 3.290000000000000000e+02
5.318643085704105822e+00 -4.897191685106523806e+00 3.290000000000000000e+02
6.568264882104884350e+00 -4.235039613479400167e+00 3.290000000000000000e+02
-2.179087692700561796e+00 -8.870104114869272749e+00 3.300000000000000000e+02
-9.294658962997841556e-01 -8.207952043242148221e+00 3.300000000000000000e+02
3.201559001009943728e-01 -7.545799971615023694e+00 3.300000000000000000e+02
1.569777696501772235e+00 -6.883647899987898278e+00 3.300000000000000000e+02
2.819399492902550097e+00 -6.221495828360773750e+00 3.300000000000000000e+02
4.069021289303328182e+00 -5.559343756733649222e+00 3.300000000000000000e+02
5.318643085704105822e+00 -4.897191685106523806e+00 3.300000000000000000e+02
6.568264882104884350e+00 -4.235039613479400167e+00 3.300000000000000000e+02
-2.179087692700561796e+00 -8.870104114869272749e+00 3.310000000000000000e+02
-9.294658962997841556e-01 -8.207952043242148221e+00 3.310000000000000000e+02
3.201559001009943728e-01 -7.545799971615023694e+00 3.310000000000000000e+02
1.569777696501772235e+00 -6.883647899987898278e+00 3.310000000000000000e+02
2.819399492902550097e+00 -6.221495828360773750e+00 3.310000000000000000e+02
4.069021289303328182e+00 -5.559343756733649222e+00 3.310000000000000000e+02
5.318643085704105822e+00 -4.897191685106523806e+00 3.310000000000000000e+02
6.568264882104884350e+00 -4.235039613479400167e+00 3.310000000000000000e+02
-2.179087692700561796e+00 -8.870104114869272749e+00 3.320000000000000000e+02
-9.294658962997841556e-01 -8.207952043242148221e+00 3.320000000000000000e+02
3.201559001009943728e-01 -7.545799971615023694e+00 3.320000000000000000e+02
1.569777696501772235e+00 -6.883647899987898278e+00 3.320000000000000000e+02
2.819399492902550097e+00 -6.221495828360773750e+00 3.320000000000000000e+02
4.069021289303328182e+00 -5.559343756733649222e+00 3.320000000000000000e+02
5.318643085704105822e+00 -4.897191685106523806e+00 3.320000000000000000e+02
6.568264882104884350e+00 -4.235039613479400167e+00 3.320000000000000000e+02
7.817886678505661990e+00 -3.572887541852275639e+00 3.320000000000000000e+02
-2.179087692700561796e+00 -8.870104114869272749e+00 3.330000000000000000e+02
-9.294658962997841556e-01 -8.207952043242148221e+00 3.330000000000000000e+02
3.201559001009943728e-01 -7.545799971615023694e+00 3.330000000000000000e+02
1.569777696501772235e+00 -6.883647899987898278e+00 3.330000000000000000e+02
2.819399492902550097e+00 -6.221495828360773750e+00 3.330000000000000000e+02
4.069021289303328182e+00 -5.559343756733649222e+00 3.330000000000000000e+02
5.318643085704105822e+00 -4.897191685106523806e+00 3.330000000000000000e+02
6.568264882104884350e+00 -4.235039613479400167e+00 3.330000000000000000e+02
7.817886678505661990e+00 -3.572887541852275639e+00 3.330000000000000000e+02
-2.179087692700561796e+00 -8.870104114869272749e+00 3.340000000000000000e+02
-9.294658962997841556e-01 -8.207952043242148221e+00 3.340000000000000000e+02
3.201559001009943728e-01 -7.545799971615023694e+00 3.340000000000000000e+02
1.569777696501772235e+00 -6.883647899987898278e+00 3.340000000000000000e+02
2.819399492902550097e+00 -6.221495828360773750e+00 3.340000000000000000e+02
4.069021289303328182e+00 -5.559343756733649222e+00 3.340000000000000000e+02
5.318643085704105822e+00 -4.897191685106523806e+00 3.340000000000000000e+02
6.568264882104884350e+00 -4.235039613479400167e+00 3.340000000000000000e+02
-2.179087692700561796e+00 -8.870104114869272749e+00 3.350000000000000000e+02
-9.294658962997841556e-01 -8.207952043242148221e+00 3.350000000000000000e+02
3.201559001009943728e-01 -7.545799971615023694e+00 3.350000000000000000e+02
1.569777696501772235e+00 -6.883647899987898278e+00 3.350000000000000000e+02
2.819399492902550097e+00 -6.221495828360773750e+00 3.350000000000000000e+02
4.069021289303328182e+00 -5.559343756733649222e+00 3.350000000000000000e+02
5.318643085704105822e+00 -4.897191685106523806e+00 3.350000000000000000e+02
6.568264882104884350e+00 -4.235039613479400167e+00 3.350000000000000000e+02
-2.179087692700561796e+00 -8.870104114869272749e+00 3.360000000000000000e+02
-9.294658962997841556e-01 -8.207952043242148221e+00 3.360000000000000000e+02
3.201559001009943728e-01 -7.545799971615023694e+00 3.360000000000000000e+02
1.569777696501772235e+00 -6.883647899987898278e+00 3.360000000000000000e+02
2.819399492902550097e+00 -6.221495828360773750e+00 3.360000000000000000e+02
4.069021289303328182e+00 -5.559343756733649222e+00 3.360000000000000000e+02
5.318643085704105822e+00 -4.897191685106523806e+00 3.360000000000000000e+02
6.568264882104884350e+00 -4.235039613479400167e+00 3.360000000000000000e+02
-1.223200758686610712e+00 -9.163838977256098417e+00 3.370000000000000000e+02
2.642103771416781655e-02 -8.501686905628975666e+00 3.370000000000000000e+02
1.276042834114945457e+00 -7.839534834001850250e+00 3.370000000000000000e+02
2.525664630515723097e+00 -7.177382762374724834e+00 3.370000000000000000e+02
3.775286426916501181e+00 -6.515230690747600306e+00 3.370000000000000000e+02
5.024908223317279266e+00 -5.853078619120475778e+00 3.370000000000000000e+02
6.274530019718056906e+00 -5.190926547493351251e+00 3.370000000000000000e+02
7.524151816118835434e+00 -4.528774475866226723e+00 3.370000000000000000e+02
-1.223200758686610712e+00 -9.163838977256098417e+00 3.380000000000000000e+02
2.642103771416781655e-02 -8.501686905628975666e+00 3.380000000000000000e+02
1.276042834114945457e+00 -7.839534834001850250e+00 3.380000000000000000e+02
2.525664630515723097e+00 -7.177382762374724834e+00 3.380000000000000000e+02
3.775286426916501181e+00 -6.515230690747600306e+00 3.380000000000000000e+02
5.024908223317279266e+00 -5.853078619120475778e+00 3.380000000000000000e+02
6.274530019718056906e+00 -5.190926547493351251e+00 3.380000000000000000e+02
-2.673138246726587397e-01 -9.457573839642925861e+00 3.390000000000000000e+02
9.823079717281189005e-01 -8.795421768015801334e+00 3.390000000000000000e+02
2.231929768128896541e+00 -8.133269696388676806e+00 3.390000000000000000e+02
3.481551564529674625e+00 -7.471117624761552278e+00 3.390000000000000000e+02
4.731173360930452709e+00 -6.808965553134426862e+00 3.390000000000000000e+02
5.980795157331231238e+00 -6.146813481507302335e+00 3.390000000000000000e+02
1.097928234293434357e+01 -3.498205194998803336e+00 3.390000000000000000e+02
1.222890413933511944e+01 -2.836053123371678808e+00 3.390000000000000000e+02
1.347852593573589886e+01 -2.173901051744555168e+00 3.390000000000000000e+02
-2.673138246726587397e-01 -9.457573839642925861e+00 3.400000000000000000e+02
9.823079717281189005e-01 -8.795421768015801334e+00 3.400000000000000000e+02
2.231929768128896541e+00 -8.133269696388676806e+00 3.400000000000000000e+02
3.481551564529674625e+00 -7.471117624761552278e+00 3.400000000000000000e+02
4.731173360930452709e+00 -6.808965553134426862e+00 3.400000000000000000e+02
5.980795157331231238e+00 -6.146813481507302335e+00 3.400000000000000000e+02
9.729660546533564158e+00 -4.160357266625928752e+00 3.400000000000000000e+02
1.097928234293434357e+01 -3.498205194998803336e+00 3.400000000000000000e+02
1.222890413933511944e+01 -2.836053123371678808e+00 3.400000000000000000e+02
1.347852593573589886e+01 -2.173901051744555168e+00 3.400000000000000000e+02
1.644460043355243428e+00 -1.004504356441657897e+01 3.410000000000000000e+02
9.142190821759911046e+00 -6.072131134653830919e+00 3.410000000000000000e+02
1.039181261816068869e+01 -5.409979063026706392e+00 3.410000000000000000e+02
1.164143441456146633e+01 -4.747826991399581864e+00 3.410000000000000000e+02
1.289105621096224574e+01 -4.085674919772456448e+00 3.410000000000000000e+02
1.414067800736302338e+01 -3.423522848145332365e+00 3.410000000000000000e+02
6.423894713424999736e+00 -1.151371787635071087e+01 3.420000000000000000e+02
7.673516509825777376e+00 -1.085156580472358812e+01 3.420000000000000000e+02
8.923138306226555017e+00 -1.018941373309646181e+01 3.420000000000000000e+02
1.017276010262733266e+01 -9.527261661469339060e+00 3.420000000000000000e+02
1.142238189902811385e+01 -8.865109589842212756e+00 3.420000000000000000e+02
1.267200369542888971e+01 -8.202957518215090005e+00 3.420000000000000000e+02
1.392162549182966913e+01 -7.540805446587963701e+00 3.420000000000000000e+02
6.423894713424999736e+00 -1.151371787635071087e+01 3.430000000000000000e+02
7.673516509825777376e+00 -1.085156580472358812e+01 3.430000000000000000e+02
8.923138306226555017e+00 -1.018941373309646181e+01 3.430000000000000000e+02
1.017276010262733266e+01 -9.527261661469339060e+00 3.430000000000000000e+02
1.142238189902811385e+01 -8.865109589842212756e+00 3.430000000000000000e+02
1.267200369542888971e+01 -8.202957518215090005e+00 3.430000000000000000e+02
1.392162549182966913e+01 -7.540805446587963701e+00 3.430000000000000000e+02
6.423894713424999736e+00 -1.151371787635071087e+01 3.440000000000000000e+02
7.673516509825777376e+00 -1.085156580472358812e+01 3.440000000000000000e+02
8.923138306226555017e+00 -1.018941373309646181e+01 3.440000000000000000e+02
1.017276010262733266e+01 -9.527261661469339060e+00 3.440000000000000000e+02
1.142238189902811385e+01 -8.865109589842212756e+00 3.440000000000000000e+02
1.267200369542888971e+01 -8.202957518215090005e+00 3.440000000000000000e+02
1.392162549182966913e+01 -7.540805446587963701e+00 3.440000000000000000e+02
6.423894713424999736e+00 -1.151371787635071087e+01 3.450000000000000000e+02
7.673516509825777376e+00 -1.085156580472358812e+01 3.450000000000000000e+02
8.923138306226555017e+00 -1.018941373309646181e+01 3.450000000000000000e+02
1.017276010262733266e+01 -9.527261661469339060e+00 3.450000000000000000e+02
1.142238189902811385e+01 -8.865109589842212756e+00 3.450000000000000000e+02
1.267200369542888971e+01 -8.202957518215090005e+00 3.450000000000000000e+02
1.392162549182966913e+01 -7.540805446587963701e+00 3.450000000000000000e+02
1.517124728823044499e+01 -6.878653374960839173e+00 3.450000000000000000e+02
6.423894713424999736e+00 -1.151371787635071087e+01 3.460000000000000000e+02
7.673516509825777376e+00 -1.085156580472358812e+01 3.460000000000000000e+02
8.923138306226555017e+00 -1.018941373309646181e+01 3.460000000000000000e+02
1.017276010262733266e+01 -9.527261661469339060e+00 3.460000000000000000e+02
1.142238189902811385e+01 -8.865109589842212756e+00 3.460000000000000000e+02
1.267200369542888971e+01 -8.202957518215090005e+00 3.460000000000000000e+02
1.392162549182966913e+01 -7.540805446587963701e+00 3.460000000000000000e+02
6.423894713424999736e+00 -1.151371787635071087e+01 3.470000000000000000e+02
7.673516509825777376e+00 -1.085156580472358812e+01 3.470000000000000000e+02
8.923138306226555017e+00 -1.018941373309646181e+01 3.470000000000000000e+02
1.017276010262733266e+01 -9.527261661469339060e+00 3.470000000000000000e+02
1.142238189902811385e+01 -8.865109589842212756e+00 3.470000000000000000e+02
1.267200369542888971e+01 -8.202957518215090005e+00 3.470000000000000000e+02
1.392162549182966913e+01 -7.540805446587963701e+00 3.470000000000000000e+02
6.423894713424999736e+00 -1.151371787635071087e+01 3.480000000000000000e+02
7.673516509825777376e+00 -1.085156580472358812e+01 3.480000000000000000e+02
8.923138306226555017e+00 -1.018941373309646181e+01 3.480000000000000000e+02
1.017276010262733266e+01 -9.527261661469339060e+00 3.480000000000000000e+02
1.142238189902811385e+01 -8.865109589842212756e+00 3.480000000000000000e+02
1.267200369542888971e+01 -8.202957518215090005e+00 3.480000000000000000e+02
1.392162549182966913e+01 -7.540805446587963701e+00 3.480000000000000000e+02
6.423894713424999736e+00 -1.151371787635071087e+01 3.490000000000000000e+02
7.673516509825777376e+00 -1.085156580472358812e+01 3.490000000000000000e+02
8.923138306226555017e+00 -1.018941373309646181e+01 3.490000000000000000e+02
1.017276010262733266e+01 -9.527261661469339060e+00 3.490000000000000000e+02
1.142238189902811385e+01 -8.865109589842212756e+00 3.490000000000000000e+02
1.267200369542888971e+01 -8.202957518215090005e+00 3.490000000000000000e+02
1.392162549182966913e+01 -7.540805446587963701e+00 3.490000000000000000e+02
5.468007779411048652e+00 -1.121998301396388520e+01 3.500000000000000000e+02
6.717629575811827181e+00 -1.055783094233676067e+01 3.500000000000000000e+02
7.967251372212603933e+00 -9.895678870709636143e+00 3.500000000000000000e+02
9.216873168613382461e+00 -9.233526799082511616e+00 3.500000000000000000e+02
1.046649496501416010e+01 -8.571374727455387088e+00 3.500000000000000000e+02
1.171611676141493952e+01 -7.909222655828262560e+00 3.500000000000000000e+02
1.296573855781571716e+01 -7.247070584201138033e+00 3.500000000000000000e+02
1.421536035421649480e+01 -6.584918512574013505e+00 3.500000000000000000e+02
5.468007779411048652e+00 -1.121998301396388520e+01 3.510000000000000000e+02
6.717629575811827181e+00 -1.055783094233676067e+01 3.510000000000000000e+02
7.967251372212603933e+00 -9.895678870709636143e+00 3.510000000000000000e+02
9.216873168613382461e+00 -9.233526799082511616e+00 3.510000000000000000e+02
1.046649496501416010e+01 -8.571374727455387088e+00 3.510000000000000000e+02
1.171611676141493952e+01 -7.909222655828262560e+00 3.510000000000000000e+02
1.296573855781571716e+01 -7.247070584201138033e+00 3.510000000000000000e+02
1.421536035421649480e+01 -6.584918512574013505e+00 3.510000000000000000e+02
5.468007779411048652e+00 -1.121998301396388520e+01 3.520000000000000000e+02
6.717629575811827181e+00 -1.055783094233676067e+01 3.520000000000000000e+02
7.967251372212603933e+00 -9.895678870709636143e+00 3.520000000000000000e+02
9.216873168613382461e+00 -9.233526799082511616e+00 3.520000000000000000e+02
1.046649496501416010e+01 -8.571374727455387088e+00 3.520000000000000000e+02
1.171611676141493952e+01 -7.909222655828262560e+00 3.520000000000000000e+02
1.296573855781571716e+01 -7.247070584201138033e+00 3.520000000000000000e+02
1.421536035421649480e+01 -6.584918512574013505e+00 3.520000000000000000e+02
5.468007779411048652e+00 -1.121998301396388520e+01 3.530000000000000000e+02
6.717629575811827181e+00 -1.055783094233676067e+01 3.530000000000000000e+02
7.967251372212603933e+00 -9.895678870709636143e+00 3.530000000000000000e+02
9.216873168613382461e+00 -9.233526799082511616e+00 3.530000000000000000e+02
1.046649496501416010e+01 -8.571374727455387088e+00 3.530000000000000000e+02
1.171611676141493952e+01 -7.909222655828262560e+00 3.530000000000000000e+02
1.296573855781571716e+01 -7.247070584201138033e+00 3.530000000000000000e+02
1.421536035421649480e+01 -6.584918512574013505e+00 3.530000000000000000e+02
6.423894713424999736e+00 -1.151371787635071087e+01 3.540000000000000000e+02
7.673516509825777376e+00 -1.085156580472358812e+01 3.540000000000000000e+02
8.923138306226555017e+00 -1.018941373309646181e+01 3.540000000000000000e+02
1.017276010262733266e+01 -9.527261661469339060e+00 3.540000000000000000e+02
1.142238189902811385e+01 -8.865109589842212756e+00 3.540000000000000000e+02
1.267200369542888971e+01 -8.202957518215090005e+00 3.540000000000000000e+02
1.392162549182966913e+01 -7.540805446587963701e+00 3.540000000000000000e+02
6.423894713424999736e+00 -1.151371787635071087e+01 3.550000000000000000e+02
7.673516509825777376e+00 -1.085156580472358812e+01 3.550000000000000000e+02
8.923138306226555017e+00 -1.018941373309646181e+01 3.550000000000000000e+02
1.017276010262733266e+01 -9.527261661469339060e+00 3.550000000000000000e+02
1.142238189902811385e+01 -8.865109589842212756e+00 3.550000000000000000e+02
1.267200369542888971e+01 -8.202957518215090005e+00 3.550000000000000000e+02
1.392162549182966913e+01 -7.540805446587963701e+00 3.550000000000000000e+02
5.468007779411048652e+00 -1.121998301396388520e+01 3.560000000000000000e+02
6.717629575811827181e+00 -1.055783094233676067e+01 3.560000000000000000e+02
7.967251372212603933e+00 -9.895678870709636143e+00 3.560000000000000000e+02
9.216873168613382461e+00 -9.233526799082511616e+00 3.560000000000000000e+02
1.046649496501416010e+01 -8.571374727455387088e+00 3.560000000000000000e+02
1.171611676141493952e+01 -7.909222655828262560e+00 3.560000000000000000e+02
1.296573855781571716e+01 -7.247070584201138033e+00 3.560000000000000000e+02
1.421536035421649480e+01 -6.584918512574013505e+00 3.560000000000000000e+02
5.468007779411048652e+00 -1.121998301396388520e+01 3.570000000000000000e+02
6.717629575811827181e+00 -1.055783094233676067e+01 3.570000000000000000e+02
7.967251372212603933e+00 -9.895678870709636143e+00 3.570000000000000000e+02
9.216873168613382461e+00 -9.233526799082511616e+00 3.570000000000000000e+02
1.046649496501416010e+01 -8.571374727455387088e+00 3.570000000000000000e+02
1.171611676141493952e+01 -7.909222655828262560e+00 3.570000000000000000e+02
1.296573855781571716e+01 -7.247070584201138033e+00 3.570000000000000000e+02
1.421536035421649480e+01 -6.584918512574013505e+00 3.570000000000000000e+02
5.468007779411048652e+00 -1.121998301396388520e+01 3.580000000000000000e+02
6.717629575811827181e+00 -1.055783094233676067e+01 3.580000000000000000e+02
7.967251372212603933e+00 -9.895678870709636143e+00 3.580000000000000000e+02
9.216873168613382461e+00 -9.233526799082511616e+00 3.580000000000000000e+02
1.046649496501416010e+01 -8.571374727455387088e+00 3.580000000000000000e+02
1.171611676141493952e+01 -7.909222655828262560e+00 3.580000000000000000e+02
1.296573855781571716e+01 -7.247070584201138033e+00 3.580000000000000000e+02
1.421536035421649480e+01 -6.584918512574013505e+00 3.580000000000000000e+02
5.468007779411048652e+00 -1.121998301396388520e+01 3.590000000000000000e+02
6.717629575811827181e+00 -1.055783094233676067e+01 3.590000000000000000e+02
7.967251372212603933e+00 -9.895678870709636143e+00 3.590000000000000000e+02
9.216873168613382461e+00 -9.233526799082511616e+00 3.590000000000000000e+02
1.046649496501416010e+01 -8.571374727455387088e+00 3.590000000000000000e+02
1.171611676141493952e+01 -7.909222655828262560e+00 3.590000000000000000e+02
1.296573855781571716e+01 -7.247070584201138033e+00 3.590000000000000000e+02
1.421536035421649480e+01 -6.584918512574013505e+00 3.590000000000000000e+02
1.546498215061727244e+01 -5.922766440946888977e+00 3.590000000000000000e+02
5.468007779411048652e+00 -1.121998301396388520e+01 3.600000000000000000e+02
6.717629575811827181e+00 -1.055783094233676067e+01 3.600000000000000000e+02
7.967251372212603933e+00 -9.895678870709636143e+00 3.600000000000000000e+02
9.216873168613382461e+00 -9.233526799082511616e+00 3.600000000000000000e+02
1.046649496501416010e+01 -8.571374727455387088e+00 3.600000000000000000e+02
1.171611676141493952e+01 -7.909222655828262560e+00 3.600000000000000000e+02
1.296573855781571716e+01 -7.247070584201138033e+00 3.600000000000000000e+02
1.421536035421649480e+01 -6.584918512574013505e+00 3.600000000000000000e+02
5.468007779411048652e+00 -1.121998301396388520e+01 3.610000000000000000e+02
6.717629575811827181e+00 -1.055783094233676067e+01 3.610000000000000000e+02
7.967251372212603933e+00 -9.895678870709636143e+00 3.610000000000000000e+02
9.216873168613382461e+00 -9.233526799082511616e+00 3.610000000000000000e+02
1.046649496501416010e+01 -8.571374727455387088e+00 3.610000000000000000e+02
1.171611676141493952e+01 -7.909222655828262560e+00 3.610000000000000000e+02
1.296573855781571716e+01 -7.247070584201138033e+00 3.610000000000000000e+02
1.421536035421649480e+01 -6.584918512574013505e+00 3.610000000000000000e+02
5.468007779411048652e+00 -1.121998301396388520e+01 3.620000000000000000e+02
6.717629575811827181e+00 -1.055783094233676067e+01 3.620000000000000000e+02
7.967251372212603933e+00 -9.895678870709636143e+00 3.620000000000000000e+02
9.216873168613382461e+00 -9.233526799082511616e+00 3.620000000000000000e+02
1.046649496501416010e+01 -8.571374727455387088e+00 3.620000000000000000e+02
1.171611676141493952e+01 -7.909222655828262560e+00 3.620000000000000000e+02
1.296573855781571716e+01 -7.247070584201138033e+00 3.620000000000000000e+02
1.421536035421649480e+01 -6.584918512574013505e+00 3.620000000000000000e+02
5.468007779411048652e+00 -1.121998301396388520e+01 3.630000000000000000e+02
6.717629575811827181e+00 -1.055783094233676067e+01 3.630000000000000000e+02
7.967251372212603933e+00 -9.895678870709636143e+00 3.630000000000000000e+02
9.216873168613382461e+00 -9.233526799082511616e+00 3.630000000000000000e+02
1.046649496501416010e+01 -8.571374727455387088e+00 3.630000000000000000e+02
1.171611676141493952e+01 -7.909222655828262560e+00 3.630000000000000000e+02
1.296573855781571716e+01 -7.247070584201138033e+00 3.630000000000000000e+02
1.421536035421649480e+01 -6.584918512574013505e+00 3.630000000000000000e+02
5.468007779411048652e+00 -1.121998301396388520e+01 3.640000000000000000e+02
6.717629575811827181e+00 -1.055783094233676067e+01 3.640000000000000000e+02
7.967251372212603933e+00 -9.895678870709636143e+00 3.640000000000000000e+02
9.216873168613382461e+00 -9.233526799082511616e+00 3.640000000000000000e+02
1.046649496501416010e+01 -8.571374727455387088e+00 3.640000000000000000e+02
1.171611676141493952e+01 -7.909222655828262560e+00 3.640000000000000000e+02
1.296573855781571716e+01 -7.247070584201138033e+00 3.640000000000000000e+02
5.468007779411048652e+00 -1.121998301396388520e+01 3.650000000000000000e+02
6.717629575811827181e+00 -1.055783094233676067e+01 3.650000000000000000e+02
7.967251372212603933e+00 -9.895678870709636143e+00 3.650000000000000000e+02
9.216873168613382461e+00 -9.233526799082511616e+00 3.650000000000000000e+02
1.046649496501416010e+01 -8.571374727455387088e+00 3.650000000000000000e+02
1.171611676141493952e+01 -7.909222655828262560e+00 3.650000000000000000e+02
1.296573855781571716e+01 -7.247070584201138033e+00 3.650000000000000000e+02
7.379781647438950820e+00 -1.180745273873753831e+01 3.660000000000000000e+02
8.629403443839729348e+00 -1.114530066711041556e+01 3.660000000000000000e+02
9.879025240240506989e+00 -1.048314859548328926e+01 3.660000000000000000e+02
1.112864703664128641e+01 -9.820996523856164728e+00 3.660000000000000000e+02
6.885731093412923443e-01 -9.751308702029753306e+00 3.670000000000000000e+02
1.938194905742070207e+00 -9.089156630402627002e+00 3.670000000000000000e+02
3.187816702142848069e+00 -8.427004558775504250e+00 3.670000000000000000e+02
4.437438498543626153e+00 -7.764852487148377946e+00 3.670000000000000000e+02
-2.673138246726587397e-01 -9.457573839642925861e+00 3.680000000000000000e+02
9.823079717281189005e-01 -8.795421768015801334e+00 3.680000000000000000e+02
2.231929768128896541e+00 -8.133269696388676806e+00 3.680000000000000000e+02
3.481551564529674625e+00 -7.471117624761552278e+00 3.680000000000000000e+02
4.731173360930452709e+00 -6.808965553134426862e+00 3.680000000000000000e+02
5.980795157331231238e+00 -6.146813481507302335e+00 3.680000000000000000e+02
-2.673138246726587397e-01 -9.457573839642925861e+00 3.690000000000000000e+02
9.823079717281189005e-01 -8.795421768015801334e+00 3.690000000000000000e+02
2.231929768128896541e+00 -8.133269696388676806e+00 3.690000000000000000e+02
3.481551564529674625e+00 -7.471117624761552278e+00 3.690000000000000000e+02
4.731173360930452709e+00 -6.808965553134426862e+00 3.690000000000000000e+02
5.980795157331231238e+00 -6.146813481507302335e+00 3.690000000000000000e+02
7.230416953732008878e+00 -5.484661409880177807e+00 3.690000000000000000e+02
-2.673138246726587397e-01 -9.457573839642925861e+00 3.700000000000000000e+02
9.823079717281189005e-01 -8.795421768015801334e+00 3.700000000000000000e+02
2.231929768128896541e+00 -8.133269696388676806e+00 3.700000000000000000e+02
3.481551564529674625e+00 -7.471117624761552278e+00 3.700000000000000000e+02
4.731173360930452709e+00 -6.808965553134426862e+00 3.700000000000000000e+02
5.980795157331231238e+00 -6.146813481507302335e+00 3.700000000000000000e+02
7.230416953732008878e+00 -5.484661409880177807e+00 3.700000000000000000e+02
-1.223200758686610712e+00 -9.163838977256098417e+00 3.710000000000000000e+02
2.642103771416781655e-02 -8.501686905628975666e+00 3.710000000000000000e+02
1.276042834114945457e+00 -7.839534834001850250e+00 3.710000000000000000e+02
2.525664630515723097e+00 -7.177382762374724834e+00 3.710000000000000000e+02
3.775286426916501181e+00 -6.515230690747600306e+00 3.710000000000000000e+02
5.024908223317279266e+00 -5.853078619120475778e+00 3.710000000000000000e+02
6.274530019718056906e+00 -5.190926547493351251e+00 3.710000000000000000e+02
7.524151816118835434e+00 -4.528774475866226723e+00 3.710000000000000000e+02
-1.223200758686610712e+00 -9.163838977256098417e+00 3.720000000000000000e+02
2.642103771416781655e-02 -8.501686905628975666e+00 3.720000000000000000e+02
1.276042834114945457e+00 -7.839534834001850250e+00 3.720000000000000000e+02
2.525664630515723097e+00 -7.177382762374724834e+00 3.720000000000000000e+02
3.775286426916501181e+00 -6.515230690747600306e+00 3.720000000000000000e+02
5.024908223317279266e+00 -5.853078619120475778e+00 3.720000000000000000e+02
6.274530019718056906e+00 -5.190926547493351251e+00 3.720000000000000000e+02
7.524151816118835434e+00 -4.528774475866226723e+00 3.720000000000000000e+02
-1.223200758686610712e+00 -9.163838977256098417e+00 3.730000000000000000e+02
2.642103771416781655e-02 -8.501686905628975666e+00 3.730000000000000000e+02
1.276042834114945457e+00 -7.839534834001850250e+00 3.730000000000000000e+02
2.525664630515723097e+00 -7.177382762374724834e+00 3.730000000000000000e+02
3.775286426916501181e+00 -6.515230690747600306e+00 3.730000000000000000e+02
5.024908223317279266e+00 -5.853078619120475778e+00 3.730000000000000000e+02
6.274530019718056906e+00 -5.190926547493351251e+00 3.730000000000000000e+02
7.524151816118835434e+00 -4.528774475866226723e+00 3.730000000000000000e+02
-1.223200758686610712e+00 -9.163838977256098417e+00 3.740000000000000000e+02
2.642103771416781655e-02 -8.501686905628975666e+00 3.740000000000000000e+02
1.276042834114945457e+00 -7.839534834001850250e+00 3.740000000000000000e+02
2.525664630515723097e+00 -7.177382762374724834e+00 3.740000000000000000e+02
3.775286426916501181e+00 -6.515230690747600306e+00 3.740000000000000000e+02
5.024908223317279266e+00 -5.853078619120475778e+00 3.740000000000000000e+02
6.274530019718056906e+00 -5.190926547493351251e+00 3.740000000000000000e+02
7.524151816118835434e+00 -4.528774475866226723e+00 3.740000000000000000e+02
-1.223200758686610712e+00 -9.163838977256098417e+00 3.750000000000000000e+02
2.642103771416781655e-02 -8.501686905628975666e+00 3.750000000000000000e+02
1.276042834114945457e+00 -7.839534834001850250e+00 3.750000000000000000e+02
2.525664630515723097e+00 -7.177382762374724834e+00 3.750000000000000000e+02
3.775286426916501181e+00 -6.515230690747600306e+00 3.750000000000000000e+02
5.024908223317279266e+00 -5.853078619120475778e+00 3.750000000000000000e+02
6.274530019718056906e+00 -5.190926547493351251e+00 3.750000000000000000e+02
7.524151816118835434e+00 -4.528774475866226723e+00 3.750000000000000000e+02
-1.223200758686610712e+00 -9.163838977256098417e+00 3.760000000000000000e+02
2.642103771416781655e-02 -8.501686905628975666e+00 3.760000000000000000e+02
1.276042834114945457e+00 -7.839534834001850250e+00 3.760000000000000000e+02
2.525664630515723097e+00 -7.177382762374724834e+00 3.760000000000000000e+02
3.775286426916501181e+00 -6.515230690747600306e+00 3.760000000000000000e+02
5.024908223317279266e+00 -5.853078619120475778e+00 3.760000000000000000e+02
6.274530019718056906e+00 -5.190926547493351251e+00 3.760000000000000000e+02
7.524151816118835434e+00 -4.528774475866226723e+00 3.760000000000000000e+02
-1.223200758686610712e+00 -9.163838977256098417e+00 3.770000000000000000e+02
2.642103771416781655e-02 -8.501686905628975666e+00 3.770000000000000000e+02
1.276042834114945457e+00 -7.839534834001850250e+00 3.770000000000000000e+02
2.525664630515723097e+00 -7.177382762374724834e+00 3.770000000000000000e+02
3.775286426916501181e+00 -6.515230690747600306e+00 3.770000000000000000e+02
5.024908223317279266e+00 -5.853078619120475778e+00 3.770000000000000000e+02
6.274530019718056906e+00 -5.190926547493351251e+00 3.770000000000000000e+02
7.524151816118835434e+00 -4.528774475866226723e+00 3.770000000000000000e+02
-2.179087692700561796e+00 -8.870104114869272749e+00 3.780000000000000000e+02
-9.294658962997841556e-01 -8.207952043242148221e+00 3.780000000000000000e+02
3.201559001009943728e-01 -7.545799971615023694e+00 3.780000000000000000e+02
1.569777696501772235e+00 -6.883647899987898278e+00 3.780000000000000000e+02
2.819399492902550097e+00 -6.221495828360773750e+00 3.780000000000000000e+02
4.069021289303328182e+00 -5.559343756733649222e+00 3.780000000000000000e+02
5.318643085704105822e+00 -4.897191685106523806e+00 3.780000000000000000e+02
6.568264882104884350e+00 -4.235039613479400167e+00 3.780000000000000000e+02
-2.179087692700561796e+00 -8.870104114869272749e+00 3.790000000000000000e+02
-9.294658962997841556e-01 -8.207952043242148221e+00 3.790000000000000000e+02
3.201559001009943728e-01 -7.545799971615023694e+00 3.790000000000000000e+02
1.569777696501772235e+00 -6.883647899987898278e+00 3.790000000000000000e+02
2.819399492902550097e+00 -6.221495828360773750e+00 3.790000000000000000e+02
4.069021289303328182e+00 -5.559343756733649222e+00 3.790000000000000000e+02
5.318643085704105822e+00 -4.897191685106523806e+00 3.790000000000000000e+02
6.568264882104884350e+00 -4.235039613479400167e+00 3.790000000000000000e+02
-2.179087692700561796e+00 -8.870104114869272749e+00 3.800000000000000000e+02
-9.294658962997841556e-01 -8.207952043242148221e+00 3.800000000000000000e+02
3.201559001009943728e-01 -7.545799971615023694e+00 3.800000000000000000e+02
1.569777696501772235e+00 -6.883647899987898278e+00 3.800000000000000000e+02
2.819399492902550097e+00 -6.221495828360773750e+00 3.800000000000000000e+02
4.069021289303328182e+00 -5.559343756733649222e+00 3.800000000000000000e+02
5.318643085704105822e+00 -4.897191685106523806e+00 3.800000000000000000e+02
6.568264882104884350e+00 -4.235039613479400167e+00 3.800000000000000000e+02
7.817886678505661990e+00 -3.572887541852275639e+00 3.800000000000000000e+02
-1.223200758686610712e+00 -9.163838977256098417e+00 3.810000000000000000e+02
2.642103771416781655e-02 -8.501686905628975666e+00 3.810000000000000000e+02
1.276042834114945457e+00 -7.839534834001850250e+00 3.810000000000000000e+02
2.525664630515723097e+00 -7.177382762374724834e+00 3.810000000000000000e+02
3.775286426916501181e+00 -6.515230690747600306e+00 3.810000000000000000e+02
5.024908223317279266e+00 -5.853078619120475778e+00 3.810000000000000000e+02
6.274530019718056906e+00 -5.190926547493351251e+00 3.810000000000000000e+02
7.524151816118835434e+00 -4.528774475866226723e+00 3.810000000000000000e+02
-1.223200758686610712e+00 -9.163838977256098417e+00 3.820000000000000000e+02
2.642103771416781655e-02 -8.501686905628975666e+00 3.820000000000000000e+02
1.276042834114945457e+00 -7.839534834001850250e+00 3.820000000000000000e+02
2.525664630515723097e+00 -7.177382762374724834e+00 3.820000000000000000e+02
3.775286426916501181e+00 -6.515230690747600306e+00 3.820000000000000000e+02
5.024908223317279266e+00 -5.853078619120475778e+00 3.820000000000000000e+02
6.274530019718056906e+00 -5.190926547493351251e+00 3.820000000000000000e+02
7.524151816118835434e+00 -4.528774475866226723e+00 3.820000000000000000e+02
-1.223200758686610712e+00 -9.163838977256098417e+00 3.830000000000000000e+02
2.642103771416781655e-02 -8.501686905628975666e+00 3.830000000000000000e+02
1.276042834114945457e+00 -7.839534834001850250e+00 3.830000000000000000e+02
2.525664630515723097e+00 -7.177382762374724834e+00 3.830000000000000000e+02
3.775286426916501181e+00 -6.515230690747600306e+00 3.830000000000000000e+02
5.024908223317279266e+00 -5.853078619120475778e+00 3.830000000000000000e+02
6.274530019718056906e+00 -5.190926547493351251e+00 3.830000000000000000e+02
-1.223200758686610712e+00 -9.163838977256098417e+00 3.840000000000000000e+02
2.642103771416781655e-02 -8.501686905628975666e+00 3.840000000000000000e+02
1.276042834114945457e+00 -7.839534834001850250e+00 3.840000000000000000e+02
2.525664630515723097e+00 -7.177382762374724834e+00 3.840000000000000000e+02
3.775286426916501181e+00 -6.515230690747600306e+00 3.840000000000000000e+02
5.024908223317279266e+00 -5.853078619120475778e+00 3.840000000000000000e+02
6.274530019718056906e+00 -5.190926547493351251e+00 3.840000000000000000e+02
-2.179087692700561796e+00 -8.870104114869272749e+00 3.850000000000000000e+02
-9.294658962997841556e-01 -8.207952043242148221e+00 3.850000000000000000e+02
3.201559001009943728e-01 -7.545799971615023694e+00 3.850000000000000000e+02
1.569777696501772235e+00 -6.883647899987898278e+00 3.850000000000000000e+02
2.819399492902550097e+00 -6.221495828360773750e+00 3.850000000000000000e+02
4.069021289303328182e+00 -5.559343756733649222e+00 3.850000000000000000e+02
5.318643085704105822e+00 -4.897191685106523806e+00 3.850000000000000000e+02
6.568264882104884350e+00 -4.235039613479400167e+00 3.850000000000000000e+02
-2.179087692700561796e+00 -8.870104114869272749e+00 3.860000000000000000e+02
-9.294658962997841556e-01 -8.207952043242148221e+00 3.860000000000000000e+02
3.201559001009943728e-01 -7.545799971615023694e+00 3.860000000000000000e+02
1.569777696501772235e+00 -6.883647899987898278e+00 3.860000000000000000e+02
2.819399492902550097e+00 -6.221495828360773750e+00 3.860000000000000000e+02
4.069021289303328182e+00 -5.559343756733649222e+00 3.860000000000000000e+02
5.318643085704105822e+00 -4.897191685106523806e+00 3.860000000000000000e+02
6.568264882104884350e+00 -4.235039613479400167e+00 3.860000000000000000e+02
-2.179087692700561796e+00 -8.870104114869272749e+00 3.870000000000000000e+02
-9.294658962997841556e-01 -8.207952043242148221e+00 3.870000000000000000e+02
3.201559001009943728e-01 -7.545799971615023694e+00 3.870000000000000000e+02
1.569777696501772235e+00 -6.883647899987898278e+00 3.870000000000000000e+02
2.819399492902550097e+00 -6.221495828360773750e+00 3.870000000000000000e+02
4.069021289303328182e+00 -5.559343756733649222e+00 3.870000000000000000e+02
5.318643085704105822e+00 -4.897191685106523806e+00 3.870000000000000000e+02
6.568264882104884350e+00 -4.235039613479400167e+00 3.870000000000000000e+02
-2.179087692700561796e+00 -8.870104114869272749e+00 3.880000000000000000e+02
-9.294658962997841556e-01 -8.207952043242148221e+00 3.880000000000000000e+02
3.201559001009943728e-01 -7.545799971615023694e+00 3.880000000000000000e+02
1.569777696501772235e+00 -6.883647899987898278e+00 3.880000000000000000e+02
2.819399492902550097e+00 -6.221495828360773750e+00 3.880000000000000000e+02
4.069021289303328182e+00 -5.559343756733649222e+00 3.880000000000000000e+02
5.318643085704105822e+00 -4.897191685106523806e+00 3.880000000000000000e+02
6.568264882104884350e+00 -4.235039613479400167e+00 3.880000000000000000e+02
-2.179087692700561796e+00 -8.870104114869272749e+00 3.890000000000000000e+02
-9.294658962997841556e-01 -8.207952043242148221e+00 3.890000000000000000e+02
3.201559001009943728e-01 -7.545799971615023694e+00 3.890000000000000000e+02
1.569777696501772235e+00 -6.883647899987898278e+00 3.890000000000000000e+02
2.819399492902550097e+00 -6.221495828360773750e+00 3.890000000000000000e+02
4.069021289303328182e+00 -5.559343756733649222e+00 3.890000000000000000e+02
5.318643085704105822e+00 -4.897191685106523806e+00 3.890000000000000000e+02
6.568264882104884350e+00 -4.235039613479400167e+00 3.890000000000000000e+02
-2.179087692700561796e+00 -8.870104114869272749e+00 3.900000000000000000e+02
-9.294658962997841556e-01 -8.207952043242148221e+00 3.900000000000000000e+02
3.201559001009943728e-01 -7.545799971615023694e+00 3.900000000000000000e+02
1.569777696501772235e+00 -6.883647899987898278e+00 3.900000000000000000e+02
2.819399492902550097e+00 -6.221495828360773750e+00 3.900000000000000000e+02
4.069021289303328182e+00 -5.559343756733649222e+00 3.900000000000000000e+02
5.318643085704105822e+00 -4.897191685106523806e+00 3.900000000000000000e+02
6.568264882104884350e+00 -4.235039613479400167e+00 3.900000000000000000e+02
-1.223200758686610712e+00 -9.163838977256098417e+00 3.910000000000000000e+02
2.642103771416781655e-02 -8.501686905628975666e+00 3.910000000000000000e+02
1.276042834114945457e+00 -7.839534834001850250e+00 3.910000000000000000e+02
2.525664630515723097e+00 -7.177382762374724834e+00 3.910000000000000000e+02
3.775286426916501181e+00 -6.515230690747600306e+00 3.910000000000000000e+02
5.024908223317279266e+00 -5.853078619120475778e+00 3.910000000000000000e+02
6.274530019718056906e+00 -5.190926547493351251e+00 3.910000000000000000e+02
-1.223200758686610712e+00 -9.163838977256098417e+00 3.920000000000000000e+02
2.642103771416781655e-02 -8.501686905628975666e+00 3.920000000000000000e+02
1.276042834114945457e+00 -7.839534834001850250e+00 3.920000000000000000e+02
2.525664630515723097e+00 -7.177382762374724834e+00 3.920000000000000000e+02
3.775286426916501181e+00 -6.515230690747600306e+00 3.920000000000000000e+02
5.024908223317279266e+00 -5.853078619120475778e+00 3.920000000000000000e+02
6.274530019718056906e+00 -5.190926547493351251e+00 3.920000000000000000e+02
-2.179087692700561796e+00 -8.870104114869272749e+00 3.930000000000000000e+02
-9.294658962997841556e-01 -8.207952043242148221e+00 3.930000000000000000e+02
3.201559001009943728e-01 -7.545799971615023694e+00 3.930000000000000000e+02
1.569777696501772235e+00 -6.883647899987898278e+00 3.930000000000000000e+02
2.819399492902550097e+00 -6.221495828360773750e+00 3.930000000000000000e+02
4.069021289303328182e+00 -5.559343756733649222e+00 3.930000000000000000e+02
5.318643085704105822e+00 -4.897191685106523806e+00 3.930000000000000000e+02
6.568264882104884350e+00 -4.235039613479400167e+00 3.930000000000000000e+02
-2.179087692700561796e+00 -8.870104114869272749e+00 3.940000000000000000e+02
-9.294658962997841556e-01 -8.207952043242148221e+00 3.940000000000000000e+02
3.201559001009943728e-01 -7.545799971615023694e+00 3.940000000000000000e+02
1.569777696501772235e+00 -6.883647899987898278e+00 3.940000000000000000e+02
2.819399492902550097e+00 -6.221495828360773750e+00 3.940000000000000000e+02
4.069021289303328182e+00 -5.559343756733649222e+00 3.940000000000000000e+02
5.318643085704105822e+00 -4.897191685106523806e+00 3.940000000000000000e+02
6.568264882104884350e+00 -4.235039613479400167e+00 3.940000000000000000e+02
-2.179087692700561796e+00 -8.870104114869272749e+00 3.950000000000000000e+02
-9.294658962997841556e-01 -8.207952043242148221e+00 3.950000000000000000e+02
3.201559001009943728e-01 -7.545799971615023694e+00 3.950000000000000000e+02
1.569777696501772235e+00 -6.883647899987898278e+00 3.950000000000000000e+02
2.819399492902550097e+00 -6.221495828360773750e+00 3.950000000000000000e+02
4.069021289303328182e+00 -5.559343756733649222e+00 3.950000000000000000e+02
5.318643085704105822e+00 -4.897191685106523806e+00 3.950000000000000000e+02
6.568264882104884350e+00 -4.235039613479400167e+00 3.950000000000000000e+02
-2.179087692700561796e+00 -8.870104114869272749e+00 3.960000000000000000e+02
-9.294658962997841556e-01 -8.207952043242148221e+00 3.960000000000000000e+02
3.201559001009943728e-01 -7.545799971615023694e+00 3.960000000000000000e+02
1.569777696501772235e+00 -6.883647899987898278e+00 3.960000000000000000e+02
2.819399492902550097e+00 -6.221495828360773750e+00 3.960000000000000000e+02
4.069021289303328182e+00 -5.559343756733649222e+00 3.960000000000000000e+02
5.318643085704105822e+00 -4.897191685106523806e+00 3.960000000000000000e+02
6.568264882104884350e+00 -4.235039613479400167e+00 3.960000000000000000e+02
-2.179087692700561796e+00 -8.870104114869272749e+00 3.970000000000000000e+02
-9.294658962997841556e-01 -8.207952043242148221e+00 3.970000000000000000e+02
3.201559001009943728e-01 -7.545799971615023694e+00 3.970000000000000000e+02
1.569777696501772235e+00 -6.883647899987898278e+00 3.970000000000000000e+02
2.819399492902550097e+00 -6.221495828360773750e+00 3.970000000000000000e+02
4.069021289303328182e+00 -5.559343756733649222e+00 3.970000000000000000e+02
5.318643085704105822e+00 -4.897191685106523806e+00 3.970000000000000000e+02
6.568264882104884350e+00 -4.235039613479400167e+00 3.970000000000000000e+02
-2.179087692700561796e+00 -8.870104114869272749e+00 3.980000000000000000e+02
-9.294658962997841556e-01 -8.207952043242148221e+00 3.980000000000000000e+02
3.201559001009943728e-01 -7.545799971615023694e+00 3.980000000000000000e+02
1.569777696501772235e+00 -6.883647899987898278e+00 3.980000000000000000e+02
2.819399492902550097e+00 -6.221495828360773750e+00 3.980000000000000000e+02
