-4.872127946428328471e-01 4.364842533945393122e+00 3.400000000000000000e+02
-1.763286577744325401e+00 3.755223226441894546e+00 3.400000000000000000e+02
-3.039360360845817954e+00 3.145603918938395971e+00 3.400000000000000000e+02
-4.315434143947310730e+00 2.535984611434897840e+00 3.400000000000000000e+02
-5.591507927048803062e+00 1.926365303931399486e+00 3.400000000000000000e+02
-6.867581710150295393e+00 1.316745996427901133e+00 3.400000000000000000e+02
-8.143655493251788613e+00 7.071266889244027798e-01 3.400000000000000000e+02
-9.419729276353280056e+00 9.750738142090442651e-02 3.400000000000000000e+02
7.888609884586594845e-01 4.974461841448890809e+00 3.410000000000000000e+02
-4.872127946428328471e-01 4.364842533945393122e+00 3.410000000000000000e+02
-1.763286577744325401e+00 3.755223226441894546e+00 3.410000000000000000e+02
-3.039360360845817954e+00 3.145603918938395971e+00 3.410000000000000000e+02
-4.315434143947310730e+00 2.535984611434897840e+00 3.410000000000000000e+02
-5.591507927048803062e+00 1.926365303931399486e+00 3.410000000000000000e+02
-6.867581710150295393e+00 1.316745996427901133e+00 3.410000000000000000e+02
-8.143655493251788613e+00 7.071266889244027798e-01 3.410000000000000000e+02
-9.419729276353280056e+00 9.750738142090442651e-02 3.410000000000000000e+02
7.888609884586594845e-01 4.974461841448890809e+00 3.420000000000000000e+02
-4.872127946428328471e-01 4.364842533945393122e+00 3.420000000000000000e+02
-1.763286577744325401e+00 3.755223226441894546e+00 3.420000000000000000e+02
-3.039360360845817954e+00 3.145603918938395971e+00 3.420000000000000000e+02
-4.315434143947310730e+00 2.535984611434897840e+00 3.420000000000000000e+02
-5.591507927048803062e+00 1.926365303931399486e+00 3.420000000000000000e+02
-6.867581710150295393e+00 1.316745996427901133e+00 3.420000000000000000e+02
-8.143655493251788613e+00 7.071266889244027798e-01 3.420000000000000000e+02
-9.419729276353280056e+00 9.750738142090442651e-02 3.420000000000000000e+02
7.888609884586594845e-01 4.974461841448890809e+00 3.430000000000000000e+02
-4.872127946428328471e-01 4.364842533945393122e+00 3.430000000000000000e+02
-1.763286577744325401e+00 3.755223226441894546e+00 3.430000000000000000e+02
-3.039360360845817954e+00 3.145603918938395971e+00 3.430000000000000000e+02
-4.315434143947310730e+00 2.535984611434897840e+00 3.430000000000000000e+02
-5.591507927048803062e+00 1.926365303931399486e+00 3.430000000000000000e+02
-6.867581710150295393e+00 1.316745996427901133e+00 3.430000000000000000e+02
-8.143655493251788613e+00 7.071266889244027798e-01 3.430000000000000000e+02
-9.419729276353280056e+00 9.750738142090442651e-02 3.430000000000000000e+02
7.888609884586594845e-01 4.974461841448890809e+00 3.440000000000000000e+02
-4.872127946428328471e-01 4.364842533945393122e+00 3.440000000000000000e+02
-1.763286577744325401e+00 3.755223226441894546e+00 3.440000000000000000e+02
-3.039360360845817954e+00 3.145603918938395971e+00 3.440000000000000000e+02
-4.315434143947310730e+00 2.535984611434897840e+00 3.440000000000000000e+02
-5.591507927048803062e+00 1.926365303931399486e+00 3.440000000000000000e+02
-6.867581710150295393e+00 1.316745996427901133e+00 3.440000000000000000e+02
-8.143655493251788613e+00 7.071266889244027798e-01 3.440000000000000000e+02
-9.419729276353280056e+00 9.750738142090442651e-02 3.440000000000000000e+02
7.888609884586594845e-01 4.974461841448890809e+00 3.450000000000000000e+02
-4.872127946428328471e-01 4.364842533945393122e+00 3.450000000000000000e+02
-1.763286577744325401e+00 3.755223226441894546e+00 3.450000000000000000e+02
-3.039360360845817954e+00 3.145603918938395971e+00 3.450000000000000000e+02
-4.315434143947310730e+00 2.535984611434897840e+00 3.450000000000000000e+02
-5.591507927048803062e+00 1.926365303931399486e+00 3.450000000000000000e+02
-6.867581710150295393e+00 1.316745996427901133e+00 3.450000000000000000e+02
-8.143655493251788613e+00 7.071266889244027798e-01 3.450000000000000000e+02
-9.419729276353280056e+00 9.750738142090442651e-02 3.450000000000000000e+02
7.888609884586594845e-01 4.974461841448890809e+00 3.460000000000000000e+02
-4.872127946428328471e-01 4.364842533945393122e+00 3.460000000000000000e+02
-1.763286577744325401e+00 3.755223226441894546e+00 3.460000000000000000e+02
-3.039360360845817954e+00 3.145603918938395971e+00 3.460000000000000000e+02
-4.315434143947310730e+00 2.535984611434897840e+00 3.460000000000000000e+02
-5.591507927048803062e+00 1.926365303931399486e+00 3.460000000000000000e+02
-6.867581710150295393e+00 1.316745996427901133e+00 3.460000000000000000e+02
-8.143655493251788613e+00 7.071266889244027798e-01 3.460000000000000000e+02
-9.419729276353280056e+00 9.750738142090442651e-02 3.460000000000000000e+02
7.888609884586594845e-01 4.974461841448890809e+00 3.470000000000000000e+02
-4.872127946428328471e-01 4.364842533945393122e+00 3.470000000000000000e+02
-1.763286577744325401e+00 3.755223226441894546e+00 3.470000000000000000e+02
-3.039360360845817954e+00 3.145603918938395971e+00 3.470000000000000000e+02
-4.315434143947310730e+00 2.535984611434897840e+00 3.470000000000000000e+02
-5.591507927048803062e+00 1.926365303931399486e+00 3.470000000000000000e+02
-6.867581710150295393e+00 1.316745996427901133e+00 3.470000000000000000e+02
-8.143655493251788613e+00 7.071266889244027798e-01 3.470000000000000000e+02
-9.419729276353280056e+00 9.750738142090442651e-02 3.470000000000000000e+02
7.888609884586594845e-01 4.974461841448890809e+00 3.480000000000000000e+02
-4.872127946428328471e-01 4.364842533945393122e+00 3.480000000000000000e+02
-1.763286577744325401e+00 3.755223226441894546e+00 3.480000000000000000e+02
-3.039360360845817954e+00 3.145603918938395971e+00 3.480000000000000000e+02
-4.315434143947310730e+00 2.535984611434897840e+00 3.480000000000000000e+02
-5.591507927048803062e+00 1.926365303931399486e+00 3.480000000000000000e+02
-6.867581710150295393e+00 1.316745996427901133e+00 3.480000000000000000e+02
-8.143655493251788613e+00 7.071266889244027798e-01 3.480000000000000000e+02
-9.419729276353280056e+00 9.750738142090442651e-02 3.480000000000000000e+02
7.888609884586594845e-01 4.974461841448890809e+00 3.490000000000000000e+02
-4.872127946428328471e-01 4.364842533945393122e+00 3.490000000000000000e+02
-1.763286577744325401e+00 3.755223226441894546e+00 3.490000000000000000e+02
-3.039360360845817954e+00 3.145603918938395971e+00 3.490000000000000000e+02
-4.315434143947310730e+00 2.535984611434897840e+00 3.490000000000000000e+02
-5.591507927048803062e+00 1.926365303931399486e+00 3.490000000000000000e+02
-6.867581710150295393e+00 1.316745996427901133e+00 3.490000000000000000e+02
-8.143655493251788613e+00 7.071266889244027798e-01 3.490000000000000000e+02
-9.419729276353280056e+00 9.750738142090442651e-02 3.490000000000000000e+02
7.888609884586594845e-01 4.974461841448890809e+00 3.500000000000000000e+02
-4.872127946428328471e-01 4.364842533945393122e+00 3.500000000000000000e+02
-1.763286577744325401e+00 3.755223226441894546e+00 3.500000000000000000e+02
-3.039360360845817954e+00 3.145603918938395971e+00 3.500000000000000000e+02
-4.315434143947310730e+00 2.535984611434897840e+00 3.500000000000000000e+02
-5.591507927048803062e+00 1.926365303931399486e+00 3.500000000000000000e+02
-6.867581710150295393e+00 1.316745996427901133e+00 3.500000000000000000e+02
-8.143655493251788613e+00 7.071266889244027798e-01 3.500000000000000000e+02
-9.419729276353280056e+00 9.750738142090442651e-02 3.500000000000000000e+02
7.888609884586594845e-01 4.974461841448890809e+00 3.510000000000000000e+02
-4.872127946428328471e-01 4.364842533945393122e+00 3.510000000000000000e+02
-1.763286577744325401e+00 3.755223226441894546e+00 3.510000000000000000e+02
-3.039360360845817954e+00 3.145603918938395971e+00 3.510000000000000000e+02
-4.315434143947310730e+00 2.535984611434897840e+00 3.510000000000000000e+02
-5.591507927048803062e+00 1.926365303931399486e+00 3.510000000000000000e+02
-6.867581710150295393e+00 1.316745996427901133e+00 3.510000000000000000e+02
-8.143655493251788613e+00 7.071266889244027798e-01 3.510000000000000000e+02
-9.419729276353280056e+00 9.750738142090442651e-02 3.510000000000000000e+02
7.888609884586594845e-01 4.974461841448890809e+00 3.520000000000000000e+02
-4.872127946428328471e-01 4.364842533945393122e+00 3.520000000000000000e+02
-1.763286577744325401e+00 3.755223226441894546e+00 3.520000000000000000e+02
-3.039360360845817954e+00 3.145603918938395971e+00 3.520000000000000000e+02
-4.315434143947310730e+00 2.535984611434897840e+00 3.520000000000000000e+02
-5.591507927048803062e+00 1.926365303931399486e+00 3.520000000000000000e+02
-6.867581710150295393e+00 1.316745996427901133e+00 3.520000000000000000e+02
-8.143655493251788613e+00 7.071266889244027798e-01 3.520000000000000000e+02
-9.419729276353280056e+00 9.750738142090442651e-02 3.520000000000000000e+02
7.888609884586594845e-01 4.974461841448890809e+00 3.530000000000000000e+02
-4.872127946428328471e-01 4.364842533945393122e+00 3.530000000000000000e+02
-1.763286577744325401e+00 3.755223226441894546e+00 3.530000000000000000e+02
-3.039360360845817954e+00 3.145603918938395971e+00 3.530000000000000000e+02
-4.315434143947310730e+00 2.535984611434897840e+00 3.530000000000000000e+02
-5.591507927048803062e+00 1.926365303931399486e+00 3.530000000000000000e+02
-6.867581710150295393e+00 1.316745996427901133e+00 3.530000000000000000e+02
-8.143655493251788613e+00 7.071266889244027798e-01 3.530000000000000000e+02
-9.419729276353280056e+00 9.750738142090442651e-02 3.530000000000000000e+02
-1.539855568438355249e-01 5.307689079247888131e+00 3.540000000000000000e+02
-1.430059339945328301e+00 4.698069771744389556e+00 3.540000000000000000e+02
-2.706133123046821076e+00 4.088450464240891868e+00 3.540000000000000000e+02
-3.982206906148313408e+00 3.478831156737393293e+00 3.540000000000000000e+02
-5.258280689249806628e+00 2.869211849233894718e+00 3.540000000000000000e+02
-6.534354472351298071e+00 2.259592541730396587e+00 3.540000000000000000e+02
-7.810428255452791291e+00 1.649973234226898233e+00 3.540000000000000000e+02
-9.086502038554282734e+00 1.040353926723399880e+00 3.540000000000000000e+02
-1.539855568438355249e-01 5.307689079247888131e+00 3.550000000000000000e+02
-1.430059339945328301e+00 4.698069771744389556e+00 3.550000000000000000e+02
-2.706133123046821076e+00 4.088450464240891868e+00 3.550000000000000000e+02
-3.982206906148313408e+00 3.478831156737393293e+00 3.550000000000000000e+02
-5.258280689249806628e+00 2.869211849233894718e+00 3.550000000000000000e+02
-6.534354472351298071e+00 2.259592541730396587e+00 3.550000000000000000e+02
-7.810428255452791291e+00 1.649973234226898233e+00 3.550000000000000000e+02
-9.086502038554282734e+00 1.040353926723399880e+00 3.550000000000000000e+02
-1.539855568438355249e-01 5.307689079247888131e+00 3.560000000000000000e+02
-1.430059339945328301e+00 4.698069771744389556e+00 3.560000000000000000e+02
-2.706133123046821076e+00 4.088450464240891868e+00 3.560000000000000000e+02
-3.982206906148313408e+00 3.478831156737393293e+00 3.560000000000000000e+02
-5.258280689249806628e+00 2.869211849233894718e+00 3.560000000000000000e+02
-6.534354472351298071e+00 2.259592541730396587e+00 3.560000000000000000e+02
-7.810428255452791291e+00 1.649973234226898233e+00 3.560000000000000000e+02
-9.086502038554282734e+00 1.040353926723399880e+00 3.560000000000000000e+02
7.888609884586594845e-01 4.974461841448890809e+00 3.570000000000000000e+02
-4.872127946428328471e-01 4.364842533945393122e+00 3.570000000000000000e+02
-1.763286577744325401e+00 3.755223226441894546e+00 3.570000000000000000e+02
-3.039360360845817954e+00 3.145603918938395971e+00 3.570000000000000000e+02
-4.315434143947310730e+00 2.535984611434897840e+00 3.570000000000000000e+02
-5.591507927048803062e+00 1.926365303931399486e+00 3.570000000000000000e+02
-6.867581710150295393e+00 1.316745996427901133e+00 3.570000000000000000e+02
-8.143655493251788613e+00 7.071266889244027798e-01 3.570000000000000000e+02
-9.419729276353280056e+00 9.750738142090442651e-02 3.570000000000000000e+02
7.888609884586594845e-01 4.974461841448890809e+00 3.580000000000000000e+02
-4.872127946428328471e-01 4.364842533945393122e+00 3.580000000000000000e+02
-1.763286577744325401e+00 3.755223226441894546e+00 3.580000000000000000e+02
-3.039360360845817954e+00 3.145603918938395971e+00 3.580000000000000000e+02
-4.315434143947310730e+00 2.535984611434897840e+00 3.580000000000000000e+02
-5.591507927048803062e+00 1.926365303931399486e+00 3.580000000000000000e+02
-6.867581710150295393e+00 1.316745996427901133e+00 3.580000000000000000e+02
-8.143655493251788613e+00 7.071266889244027798e-01 3.580000000000000000e+02
-9.419729276353280056e+00 9.750738142090442651e-02 3.580000000000000000e+02
1.731707533761155382e+00 4.641234603649894375e+00 3.590000000000000000e+02
4.556337506596626064e-01 4.031615296146395799e+00 3.590000000000000000e+02
-8.204400324418301693e-01 3.421995988642897224e+00 3.590000000000000000e+02
-2.096513815543322501e+00 2.812376681139399093e+00 3.590000000000000000e+02
-3.372587598644815277e+00 2.202757373635900517e+00 3.590000000000000000e+02
-4.648661381746308052e+00 1.593138066132402386e+00 3.590000000000000000e+02
-5.924735164847800384e+00 9.835187586289040329e-01 3.590000000000000000e+02
-7.200808947949292715e+00 3.738994511254056796e-01 3.590000000000000000e+02
-8.476882731050785935e+00 -2.357198563780924516e-01 3.590000000000000000e+02
-9.752956514152277379e+00 -8.453391638815914710e-01 3.590000000000000000e+02
7.888609884586594845e-01 4.974461841448890809e+00 3.600000000000000000e+02
-4.872127946428328471e-01 4.364842533945393122e+00 3.600000000000000000e+02
-1.763286577744325401e+00 3.755223226441894546e+00 3.600000000000000000e+02
-3.039360360845817954e+00 3.145603918938395971e+00 3.600000000000000000e+02
-4.315434143947310730e+00 2.535984611434897840e+00 3.600000000000000000e+02
-5.591507927048803062e+00 1.926365303931399486e+00 3.600000000000000000e+02
-6.867581710150295393e+00 1.316745996427901133e+00 3.600000000000000000e+02
-8.143655493251788613e+00 7.071266889244027798e-01 3.600000000000000000e+02
-9.419729276353280056e+00 9.750738142090442651e-02 3.600000000000000000e+02
7.888609884586594845e-01 4.974461841448890809e+00 3.610000000000000000e+02
-4.872127946428328471e-01 4.364842533945393122e+00 3.610000000000000000e+02
-1.763286577744325401e+00 3.755223226441894546e+00 3.610000000000000000e+02
-3.039360360845817954e+00 3.145603918938395971e+00 3.610000000000000000e+02
-4.315434143947310730e+00 2.535984611434897840e+00 3.610000000000000000e+02
-5.591507927048803062e+00 1.926365303931399486e+00 3.610000000000000000e+02
-6.867581710150295393e+00 1.316745996427901133e+00 3.610000000000000000e+02
-8.143655493251788613e+00 7.071266889244027798e-01 3.610000000000000000e+02
-9.419729276353280056e+00 9.750738142090442651e-02 3.610000000000000000e+02
7.888609884586594845e-01 4.974461841448890809e+00 3.620000000000000000e+02
-4.872127946428328471e-01 4.364842533945393122e+00 3.620000000000000000e+02
-1.763286577744325401e+00 3.755223226441894546e+00 3.620000000000000000e+02
-3.039360360845817954e+00 3.145603918938395971e+00 3.620000000000000000e+02
-4.315434143947310730e+00 2.535984611434897840e+00 3.620000000000000000e+02
-5.591507927048803062e+00 1.926365303931399486e+00 3.620000000000000000e+02
-6.867581710150295393e+00 1.316745996427901133e+00 3.620000000000000000e+02
-8.143655493251788613e+00 7.071266889244027798e-01 3.620000000000000000e+02
-9.419729276353280056e+00 9.750738142090442651e-02 3.620000000000000000e+02
7.888609884586594845e-01 4.974461841448890809e+00 3.630000000000000000e+02
-4.872127946428328471e-01 4.364842533945393122e+00 3.630000000000000000e+02
-1.763286577744325401e+00 3.755223226441894546e+00 3.630000000000000000e+02
-3.039360360845817954e+00 3.145603918938395971e+00 3.630000000000000000e+02
-4.315434143947310730e+00 2.535984611434897840e+00 3.630000000000000000e+02
-5.591507927048803062e+00 1.926365303931399486e+00 3.630000000000000000e+02
-6.867581710150295393e+00 1.316745996427901133e+00 3.630000000000000000e+02
-8.143655493251788613e+00 7.071266889244027798e-01 3.630000000000000000e+02
-9.419729276353280056e+00 9.750738142090442651e-02 3.630000000000000000e+02
7.888609884586594845e-01 4.974461841448890809e+00 3.640000000000000000e+02
-4.872127946428328471e-01 4.364842533945393122e+00 3.640000000000000000e+02
-1.763286577744325401e+00 3.755223226441894546e+00 3.640000000000000000e+02
-3.039360360845817954e+00 3.145603918938395971e+00 3.640000000000000000e+02
-4.315434143947310730e+00 2.535984611434897840e+00 3.640000000000000000e+02
-5.591507927048803062e+00 1.926365303931399486e+00 3.640000000000000000e+02
-6.867581710150295393e+00 1.316745996427901133e+00 3.640000000000000000e+02
-8.143655493251788613e+00 7.071266889244027798e-01 3.640000000000000000e+02
-9.419729276353280056e+00 9.750738142090442651e-02 3.640000000000000000e+02
7.888609884586594845e-01 4.974461841448890809e+00 3.650000000000000000e+02
-4.872127946428328471e-01 4.364842533945393122e+00 3.650000000000000000e+02
-1.763286577744325401e+00 3.755223226441894546e+00 3.650000000000000000e+02
-3.039360360845817954e+00 3.145603918938395971e+00 3.650000000000000000e+02
-4.315434143947310730e+00 2.535984611434897840e+00 3.650000000000000000e+02
-5.591507927048803062e+00 1.926365303931399486e+00 3.650000000000000000e+02
-6.867581710150295393e+00 1.316745996427901133e+00 3.650000000000000000e+02
-8.143655493251788613e+00 7.071266889244027798e-01 3.650000000000000000e+02
-9.419729276353280056e+00 9.750738142090442651e-02 3.650000000000000000e+02
7.888609884586594845e-01 4.974461841448890809e+00 3.660000000000000000e+02
-4.872127946428328471e-01 4.364842533945393122e+00 3.660000000000000000e+02
-1.763286577744325401e+00 3.755223226441894546e+00 3.660000000000000000e+02
-3.039360360845817954e+00 3.145603918938395971e+00 3.660000000000000000e+02
-4.315434143947310730e+00 2.535984611434897840e+00 3.660000000000000000e+02
-5.591507927048803062e+00 1.926365303931399486e+00 3.660000000000000000e+02
-6.867581710150295393e+00 1.316745996427901133e+00 3.660000000000000000e+02
-8.143655493251788613e+00 7.071266889244027798e-01 3.660000000000000000e+02
-9.419729276353280056e+00 9.750738142090442651e-02 3.660000000000000000e+02
-1.539855568438355249e-01 5.307689079247888131e+00 3.670000000000000000e+02
-1.430059339945328301e+00 4.698069771744389556e+00 3.670000000000000000e+02
-2.706133123046821076e+00 4.088450464240891868e+00 3.670000000000000000e+02
-3.982206906148313408e+00 3.478831156737393293e+00 3.670000000000000000e+02
-5.258280689249806628e+00 2.869211849233894718e+00 3.670000000000000000e+02
-6.534354472351298071e+00 2.259592541730396587e+00 3.670000000000000000e+02
-7.810428255452791291e+00 1.649973234226898233e+00 3.670000000000000000e+02
-9.086502038554282734e+00 1.040353926723399880e+00 3.670000000000000000e+02
-1.539855568438355249e-01 5.307689079247888131e+00 3.680000000000000000e+02
-1.430059339945328301e+00 4.698069771744389556e+00 3.680000000000000000e+02
-2.706133123046821076e+00 4.088450464240891868e+00 3.680000000000000000e+02
-3.982206906148313408e+00 3.478831156737393293e+00 3.680000000000000000e+02
-5.258280689249806628e+00 2.869211849233894718e+00 3.680000000000000000e+02
-6.534354472351298071e+00 2.259592541730396587e+00 3.680000000000000000e+02
-7.810428255452791291e+00 1.649973234226898233e+00 3.680000000000000000e+02
-9.086502038554282734e+00 1.040353926723399880e+00 3.680000000000000000e+02
-1.539855568438355249e-01 5.307689079247888131e+00 3.690000000000000000e+02
-1.430059339945328301e+00 4.698069771744389556e+00 3.690000000000000000e+02
-2.706133123046821076e+00 4.088450464240891868e+00 3.690000000000000000e+02
-3.982206906148313408e+00 3.478831156737393293e+00 3.690000000000000000e+02
-5.258280689249806628e+00 2.869211849233894718e+00 3.690000000000000000e+02
-6.534354472351298071e+00 2.259592541730396587e+00 3.690000000000000000e+02
-7.810428255452791291e+00 1.649973234226898233e+00 3.690000000000000000e+02
-9.086502038554282734e+00 1.040353926723399880e+00 3.690000000000000000e+02
-1.539855568438355249e-01 5.307689079247888131e+00 3.700000000000000000e+02
-1.430059339945328301e+00 4.698069771744389556e+00 3.700000000000000000e+02
-2.706133123046821076e+00 4.088450464240891868e+00 3.700000000000000000e+02
-3.982206906148313408e+00 3.478831156737393293e+00 3.700000000000000000e+02
-5.258280689249806628e+00 2.869211849233894718e+00 3.700000000000000000e+02
-6.534354472351298071e+00 2.259592541730396587e+00 3.700000000000000000e+02
-7.810428255452791291e+00 1.649973234226898233e+00 3.700000000000000000e+02
-9.086502038554282734e+00 1.040353926723399880e+00 3.700000000000000000e+02
7.888609884586594845e-01 4.974461841448890809e+00 3.710000000000000000e+02
-4.872127946428328471e-01 4.364842533945393122e+00 3.710000000000000000e+02
-1.763286577744325401e+00 3.755223226441894546e+00 3.710000000000000000e+02
-3.039360360845817954e+00 3.145603918938395971e+00 3.710000000000000000e+02
-4.315434143947310730e+00 2.535984611434897840e+00 3.710000000000000000e+02
-5.591507927048803062e+00 1.926365303931399486e+00 3.710000000000000000e+02
-6.867581710150295393e+00 1.316745996427901133e+00 3.710000000000000000e+02
-8.143655493251788613e+00 7.071266889244027798e-01 3.710000000000000000e+02
-9.419729276353280056e+00 9.750738142090442651e-02 3.710000000000000000e+02
7.888609884586594845e-01 4.974461841448890809e+00 3.720000000000000000e+02
-4.872127946428328471e-01 4.364842533945393122e+00 3.720000000000000000e+02
-1.763286577744325401e+00 3.755223226441894546e+00 3.720000000000000000e+02
-3.039360360845817954e+00 3.145603918938395971e+00 3.720000000000000000e+02
-4.315434143947310730e+00 2.535984611434897840e+00 3.720000000000000000e+02
-5.591507927048803062e+00 1.926365303931399486e+00 3.720000000000000000e+02
-6.867581710150295393e+00 1.316745996427901133e+00 3.720000000000000000e+02
-8.143655493251788613e+00 7.071266889244027798e-01 3.720000000000000000e+02
-9.419729276353280056e+00 9.750738142090442651e-02 3.720000000000000000e+02
7.888609884586594845e-01 4.974461841448890809e+00 3.730000000000000000e+02
-4.872127946428328471e-01 4.364842533945393122e+00 3.730000000000000000e+02
-1.763286577744325401e+00 3.755223226441894546e+00 3.730000000000000000e+02
-3.039360360845817954e+00 3.145603918938395971e+00 3.730000000000000000e+02
-4.315434143947310730e+00 2.535984611434897840e+00 3.730000000000000000e+02
-5.591507927048803062e+00 1.926365303931399486e+00 3.730000000000000000e+02
-6.867581710150295393e+00 1.316745996427901133e+00 3.730000000000000000e+02
-8.143655493251788613e+00 7.071266889244027798e-01 3.730000000000000000e+02
-9.419729276353280056e+00 9.750738142090442651e-02 3.730000000000000000e+02
7.888609884586594845e-01 4.974461841448890809e+00 3.740000000000000000e+02
-4.872127946428328471e-01 4.364842533945393122e+00 3.740000000000000000e+02
-1.763286577744325401e+00 3.755223226441894546e+00 3.740000000000000000e+02
-3.039360360845817954e+00 3.145603918938395971e+00 3.740000000000000000e+02
-4.315434143947310730e+00 2.535984611434897840e+00 3.740000000000000000e+02
-5.591507927048803062e+00 1.926365303931399486e+00 3.740000000000000000e+02
-6.867581710150295393e+00 1.316745996427901133e+00 3.740000000000000000e+02
-8.143655493251788613e+00 7.071266889244027798e-01 3.740000000000000000e+02
-9.419729276353280056e+00 9.750738142090442651e-02 3.740000000000000000e+02
7.888609884586594845e-01 4.974461841448890809e+00 3.750000000000000000e+02
-4.872127946428328471e-01 4.364842533945393122e+00 3.750000000000000000e+02
-1.763286577744325401e+00 3.755223226441894546e+00 3.750000000000000000e+02
-3.039360360845817954e+00 3.145603918938395971e+00 3.750000000000000000e+02
-4.315434143947310730e+00 2.535984611434897840e+00 3.750000000000000000e+02
-5.591507927048803062e+00 1.926365303931399486e+00 3.750000000000000000e+02
-6.867581710150295393e+00 1.316745996427901133e+00 3.750000000000000000e+02
-8.143655493251788613e+00 7.071266889244027798e-01 3.750000000000000000e+02
-9.419729276353280056e+00 9.750738142090442651e-02 3.750000000000000000e+02
7.888609884586594845e-01 4.974461841448890809e+00 3.760000000000000000e+02
-4.872127946428328471e-01 4.364842533945393122e+00 3.760000000000000000e+02
-1.763286577744325401e+00 3.755223226441894546e+00 3.760000000000000000e+02
-3.039360360845817954e+00 3.145603918938395971e+00 3.760000000000000000e+02
-4.315434143947310730e+00 2.535984611434897840e+00 3.760000000000000000e+02
-5.591507927048803062e+00 1.926365303931399486e+00 3.760000000000000000e+02
-6.867581710150295393e+00 1.316745996427901133e+00 3.760000000000000000e+02
-8.143655493251788613e+00 7.071266889244027798e-01 3.760000000000000000e+02
-9.419729276353280056e+00 9.750738142090442651e-02 3.760000000000000000e+02
7.888609884586594845e-01 4.974461841448890809e+00 3.770000000000000000e+02
-4.872127946428328471e-01 4.364842533945393122e+00 3.770000000000000000e+02
-1.763286577744325401e+00 3.755223226441894546e+00 3.770000000000000000e+02
-3.039360360845817954e+00 3.145603918938395971e+00 3.770000000000000000e+02
-4.315434143947310730e+00 2.535984611434897840e+00 3.770000000000000000e+02
-5.591507927048803062e+00 1.926365303931399486e+00 3.770000000000000000e+02
-6.867581710150295393e+00 1.316745996427901133e+00 3.770000000000000000e+02
-8.143655493251788613e+00 7.071266889244027798e-01 3.770000000000000000e+02
-9.419729276353280056e+00 9.750738142090442651e-02 3.770000000000000000e+02
7.888609884586594845e-01 4.974461841448890809e+00 3.780000000000000000e+02
-4.872127946428328471e-01 4.364842533945393122e+00 3.780000000000000000e+02
-1.763286577744325401e+00 3.755223226441894546e+00 3.780000000000000000e+02
-3.039360360845817954e+00 3.145603918938395971e+00 3.780000000000000000e+02
-4.315434143947310730e+00 2.535984611434897840e+00 3.780000000000000000e+02
-5.591507927048803062e+00 1.926365303931399486e+00 3.780000000000000000e+02
-6.867581710150295393e+00 1.316745996427901133e+00 3.780000000000000000e+02
-8.143655493251788613e+00 7.071266889244027798e-01 3.780000000000000000e+02
-9.419729276353280056e+00 9.750738142090442651e-02 3.780000000000000000e+02
7.888609884586594845e-01 4.974461841448890809e+00 3.790000000000000000e+02
-4.872127946428328471e-01 4.364842533945393122e+00 3.790000000000000000e+02
-1.763286577744325401e+00 3.755223226441894546e+00 3.790000000000000000e+02
-3.039360360845817954e+00 3.145603918938395971e+00 3.790000000000000000e+02
-4.315434143947310730e+00 2.535984611434897840e+00 3.790000000000000000e+02
-5.591507927048803062e+00 1.926365303931399486e+00 3.790000000000000000e+02
-6.867581710150295393e+00 1.316745996427901133e+00 3.790000000000000000e+02
-8.143655493251788613e+00 7.071266889244027798e-01 3.790000000000000000e+02
-9.419729276353280056e+00 9.750738142090442651e-02 3.790000000000000000e+02
7.888609884586594845e-01 4.974461841448890809e+00 3.800000000000000000e+02
-4.872127946428328471e-01 4.364842533945393122e+00 3.800000000000000000e+02
-1.763286577744325401e+00 3.755223226441894546e+00 3.800000000000000000e+02
-3.039360360845817954e+00 3.145603918938395971e+00 3.800000000000000000e+02
-4.315434143947310730e+00 2.535984611434897840e+00 3.800000000000000000e+02
-5.591507927048803062e+00 1.926365303931399486e+00 3.800000000000000000e+02
-6.867581710150295393e+00 1.316745996427901133e+00 3.800000000000000000e+02
-8.143655493251788613e+00 7.071266889244027798e-01 3.800000000000000000e+02
-9.419729276353280056e+00 9.750738142090442651e-02 3.800000000000000000e+02
7.888609884586594845e-01 4.974461841448890809e+00 3.810000000000000000e+02
-4.872127946428328471e-01 4.364842533945393122e+00 3.810000000000000000e+02
-1.763286577744325401e+00 3.755223226441894546e+00 3.810000000000000000e+02
-3.039360360845817954e+00 3.145603918938395971e+00 3.810000000000000000e+02
-4.315434143947310730e+00 2.535984611434897840e+00 3.810000000000000000e+02
-5.591507927048803062e+00 1.926365303931399486e+00 3.810000000000000000e+02
-6.867581710150295393e+00 1.316745996427901133e+00 3.810000000000000000e+02
-8.143655493251788613e+00 7.071266889244027798e-01 3.810000000000000000e+02
-9.419729276353280056e+00 9.750738142090442651e-02 3.810000000000000000e+02
7.888609884586594845e-01 4.974461841448890809e+00 3.820000000000000000e+02
-4.872127946428328471e-01 4.364842533945393122e+00 3.820000000000000000e+02
-1.763286577744325401e+00 3.755223226441894546e+00 3.820000000000000000e+02
-3.039360360845817954e+00 3.145603918938395971e+00 3.820000000000000000e+02
-4.315434143947310730e+00 2.535984611434897840e+00 3.820000000000000000e+02
-5.591507927048803062e+00 1.926365303931399486e+00 3.820000000000000000e+02
-6.867581710150295393e+00 1.316745996427901133e+00 3.820000000000000000e+02
-8.143655493251788613e+00 7.071266889244027798e-01 3.820000000000000000e+02
-9.419729276353280056e+00 9.750738142090442651e-02 3.820000000000000000e+02
7.888609884586594845e-01 4.974461841448890809e+00 3.830000000000000000e+02
-4.872127946428328471e-01 4.364842533945393122e+00 3.830000000000000000e+02
-1.763286577744325401e+00 3.755223226441894546e+00 3.830000000000000000e+02
-3.039360360845817954e+00 3.145603918938395971e+00 3.830000000000000000e+02
-4.315434143947310730e+00 2.535984611434897840e+00 3.830000000000000000e+02
-5.591507927048803062e+00 1.926365303931399486e+00 3.830000000000000000e+02
-6.867581710150295393e+00 1.316745996427901133e+00 3.830000000000000000e+02
-8.143655493251788613e+00 7.071266889244027798e-01 3.830000000000000000e+02
-9.419729276353280056e+00 9.750738142090442651e-02 3.830000000000000000e+02
7.888609884586594845e-01 4.974461841448890809e+00 3.840000000000000000e+02
-4.872127946428328471e-01 4.364842533945393122e+00 3.840000000000000000e+02
-1.763286577744325401e+00 3.755223226441894546e+00 3.840000000000000000e+02
-3.039360360845817954e+00 3.145603918938395971e+00 3.840000000000000000e+02
-4.315434143947310730e+00 2.535984611434897840e+00 3.840000000000000000e+02
-5.591507927048803062e+00 1.926365303931399486e+00 3.840000000000000000e+02
-6.867581710150295393e+00 1.316745996427901133e+00 3.840000000000000000e+02
-8.143655493251788613e+00 7.071266889244027798e-01 3.840000000000000000e+02
-9.419729276353280056e+00 9.750738142090442651e-02 3.840000000000000000e+02
7.888609884586594845e-01 4.974461841448890809e+00 3.850000000000000000e+02
-4.872127946428328471e-01 4.364842533945393122e+00 3.850000000000000000e+02
-1.763286577744325401e+00 3.755223226441894546e+00 3.850000000000000000e+02
-3.039360360845817954e+00 3.145603918938395971e+00 3.850000000000000000e+02
-4.315434143947310730e+00 2.535984611434897840e+00 3.850000000000000000e+02
-5.591507927048803062e+00 1.926365303931399486e+00 3.850000000000000000e+02
-6.867581710150295393e+00 1.316745996427901133e+00 3.850000000000000000e+02
-8.143655493251788613e+00 7.071266889244027798e-01 3.850000000000000000e+02
-9.419729276353280056e+00 9.750738142090442651e-02 3.850000000000000000e+02
7.888609884586594845e-01 4.974461841448890809e+00 3.860000000000000000e+02
-4.872127946428328471e-01 4.364842533945393122e+00 3.860000000000000000e+02
-1.763286577744325401e+00 3.755223226441894546e+00 3.860000000000000000e+02
-3.039360360845817954e+00 3.145603918938395971e+00 3.860000000000000000e+02
-4.315434143947310730e+00 2.535984611434897840e+00 3.860000000000000000e+02
-5.591507927048803062e+00 1.926365303931399486e+00 3.860000000000000000e+02
-6.867581710150295393e+00 1.316745996427901133e+00 3.860000000000000000e+02
-8.143655493251788613e+00 7.071266889244027798e-01 3.860000000000000000e+02
-9.419729276353280056e+00 9.750738142090442651e-02 3.860000000000000000e+02
7.888609884586594845e-01 4.974461841448890809e+00 3.870000000000000000e+02
-4.872127946428328471e-01 4.364842533945393122e+00 3.870000000000000000e+02
-1.763286577744325401e+00 3.755223226441894546e+00 3.870000000000000000e+02
-3.039360360845817954e+00 3.145603918938395971e+00 3.870000000000000000e+02
-4.315434143947310730e+00 2.535984611434897840e+00 3.870000000000000000e+02
-5.591507927048803062e+00 1.926365303931399486e+00 3.870000000000000000e+02
-6.867581710150295393e+00 1.316745996427901133e+00 3.870000000000000000e+02
-8.143655493251788613e+00 7.071266889244027798e-01 3.870000000000000000e+02
-9.419729276353280056e+00 9.750738142090442651e-02 3.870000000000000000e+02
7.888609884586594845e-01 4.974461841448890809e+00 3.880000000000000000e+02
-4.872127946428328471e-01 4.364842533945393122e+00 3.880000000000000000e+02
-1.763286577744325401e+00 3.755223226441894546e+00 3.880000000000000000e+02
-3.039360360845817954e+00 3.145603918938395971e+00 3.880000000000000000e+02
-4.315434143947310730e+00 2.535984611434897840e+00 3.880000000000000000e+02
-5.591507927048803062e+00 1.926365303931399486e+00 3.880000000000000000e+02
-6.867581710150295393e+00 1.316745996427901133e+00 3.880000000000000000e+02
-8.143655493251788613e+00 7.071266889244027798e-01 3.880000000000000000e+02
7.888609884586594845e-01 4.974461841448890809e+00 3.890000000000000000e+02
-4.872127946428328471e-01 4.364842533945393122e+00 3.890000000000000000e+02
-1.763286577744325401e+00 3.755223226441894546e+00 3.890000000000000000e+02
-3.039360360845817954e+00 3.145603918938395971e+00 3.890000000000000000e+02
-4.315434143947310730e+00 2.535984611434897840e+00 3.890000000000000000e+02
-5.591507927048803062e+00 1.926365303931399486e+00 3.890000000000000000e+02
-6.867581710150295393e+00 1.316745996427901133e+00 3.890000000000000000e+02
-8.143655493251788613e+00 7.071266889244027798e-01 3.890000000000000000e+02
7.888609884586594845e-01 4.974461841448890809e+00 3.900000000000000000e+02
-4.872127946428328471e-01 4.364842533945393122e+00 3.900000000000000000e+02
-1.763286577744325401e+00 3.755223226441894546e+00 3.900000000000000000e+02
-3.039360360845817954e+00 3.145603918938395971e+00 3.900000000000000000e+02
-4.315434143947310730e+00 2.535984611434897840e+00 3.900000000000000000e+02
-5.591507927048803062e+00 1.926365303931399486e+00 3.900000000000000000e+02
-6.867581710150295393e+00 1.316745996427901133e+00 3.900000000000000000e+02
-8.143655493251788613e+00 7.071266889244027798e-01 3.900000000000000000e+02
-9.419729276353280056e+00 9.750738142090442651e-02 3.900000000000000000e+02
7.888609884586594845e-01 4.974461841448890809e+00 3.910000000000000000e+02
-4.872127946428328471e-01 4.364842533945393122e+00 3.910000000000000000e+02
-1.763286577744325401e+00 3.755223226441894546e+00 3.910000000000000000e+02
-3.039360360845817954e+00 3.145603918938395971e+00 3.910000000000000000e+02
-4.315434143947310730e+00 2.535984611434897840e+00 3.910000000000000000e+02
-5.591507927048803062e+00 1.926365303931399486e+00 3.910000000000000000e+02
-6.867581710150295393e+00 1.316745996427901133e+00 3.910000000000000000e+02
-8.143655493251788613e+00 7.071266889244027798e-01 3.910000000000000000e+02
-9.419729276353280056e+00 9.750738142090442651e-02 3.910000000000000000e+02
-1.539855568438355249e-01 5.307689079247888131e+00 3.920000000000000000e+02
-1.430059339945328301e+00 4.698069771744389556e+00 3.920000000000000000e+02
-2.706133123046821076e+00 4.088450464240891868e+00 3.920000000000000000e+02
-3.982206906148313408e+00 3.478831156737393293e+00 3.920000000000000000e+02
-5.258280689249806628e+00 2.869211849233894718e+00 3.920000000000000000e+02
-6.534354472351298071e+00 2.259592541730396587e+00 3.920000000000000000e+02
-7.810428255452791291e+00 1.649973234226898233e+00 3.920000000000000000e+02
-9.086502038554282734e+00 1.040353926723399880e+00 3.920000000000000000e+02
-1.539855568438355249e-01 5.307689079247888131e+00 3.930000000000000000e+02
-1.430059339945328301e+00 4.698069771744389556e+00 3.930000000000000000e+02
-2.706133123046821076e+00 4.088450464240891868e+00 3.930000000000000000e+02
-3.982206906148313408e+00 3.478831156737393293e+00 3.930000000000000000e+02
-5.258280689249806628e+00 2.869211849233894718e+00 3.930000000000000000e+02
-6.534354472351298071e+00 2.259592541730396587e+00 3.930000000000000000e+02
-7.810428255452791291e+00 1.649973234226898233e+00 3.930000000000000000e+02
-9.086502038554282734e+00 1.040353926723399880e+00 3.930000000000000000e+02
-1.539855568438355249e-01 5.307689079247888131e+00 3.940000000000000000e+02
-1.430059339945328301e+00 4.698069771744389556e+00 3.940000000000000000e+02
-2.706133123046821076e+00 4.088450464240891868e+00 3.940000000000000000e+02
-3.982206906148313408e+00 3.478831156737393293e+00 3.940000000000000000e+02
-5.258280689249806628e+00 2.869211849233894718e+00 3.940000000000000000e+02
-6.534354472351298071e+00 2.259592541730396587e+00 3.940000000000000000e+02
-7.810428255452791291e+00 1.649973234226898233e+00 3.940000000000000000e+02
-9.086502038554282734e+00 1.040353926723399880e+00 3.940000000000000000e+02
7.888609884586594845e-01 4.974461841448890809e+00 3.950000000000000000e+02
-4.872127946428328471e-01 4.364842533945393122e+00 3.950000000000000000e+02
-1.763286577744325401e+00 3.755223226441894546e+00 3.950000000000000000e+02
-3.039360360845817954e+00 3.145603918938395971e+00 3.950000000000000000e+02
-4.315434143947310730e+00 2.535984611434897840e+00 3.950000000000000000e+02
-5.591507927048803062e+00 1.926365303931399486e+00 3.950000000000000000e+02
-6.867581710150295393e+00 1.316745996427901133e+00 3.950000000000000000e+02
-8.143655493251788613e+00 7.071266889244027798e-01 3.950000000000000000e+02
-9.419729276353280056e+00 9.750738142090442651e-02 3.950000000000000000e+02
7.888609884586594845e-01 4.974461841448890809e+00 3.960000000000000000e+02
-4.872127946428328471e-01 4.364842533945393122e+00 3.960000000000000000e+02
-1.763286577744325401e+00 3.755223226441894546e+00 3.960000000000000000e+02
-3.039360360845817954e+00 3.145603918938395971e+00 3.960000000000000000e+02
-4.315434143947310730e+00 2.535984611434897840e+00 3.960000000000000000e+02
-5.591507927048803062e+00 1.926365303931399486e+00 3.960000000000000000e+02
-6.867581710150295393e+00 1.316745996427901133e+00 3.960000000000000000e+02
-8.143655493251788613e+00 7.071266889244027798e-01 3.960000000000000000e+02
-9.419729276353280056e+00 9.750738142090442651e-02 3.960000000000000000e+02
7.888609884586594845e-01 4.974461841448890809e+00 3.970000000000000000e+02
-4.872127946428328471e-01 4.364842533945393122e+00 3.970000000000000000e+02
-1.763286577744325401e+00 3.755223226441894546e+00 3.970000000000000000e+02
-3.039360360845817954e+00 3.145603918938395971e+00 3.970000000000000000e+02
-4.315434143947310730e+00 2.535984611434897840e+00 3.970000000000000000e+02
-5.591507927048803062e+00 1.926365303931399486e+00 3.970000000000000000e+02
-6.867581710150295393e+00 1.316745996427901133e+00 3.970000000000000000e+02
-8.143655493251788613e+00 7.071266889244027798e-01 3.970000000000000000e+02
-9.419729276353280056e+00 9.750738142090442651e-02 3.970000000000000000e+02
7.888609884586594845e-01 4.974461841448890809e+00 3.980000000000000000e+02
-4.872127946428328471e-01 4.364842533945393122e+00 3.980000000000000000e+02
-1.763286577744325401e+00 3.755223226441894546e+00 3.980000000000000000e+02
-3.039360360845817954e+00 3.145603918938395971e+00 3.980000000000000000e+02
-4.315434143947310730e+00 2.535984611434897840e+00 3.980000000000000000e+02
-5.591507927048803062e+00 1.926365303931399486e+00 3.980000000000000000e+02
-6.867581710150295393e+00 1.316745996427901133e+00 3.980000000000000000e+02
-8.143655493251788613e+00 7.071266889244027798e-01 3.980000000000000000e+02
-9.419729276353280056e+00 9.750738142090442651e-02 3.980000000000000000e+02
1.731707533761155382e+00 4.641234603649894375e+00 3.990000000000000000e+02
4.556337506596626064e-01 4.031615296146395799e+00 3.990000000000000000e+02
-8.204400324418301693e-01 3.421995988642897224e+00 3.990000000000000000e+02
-2.096513815543322501e+00 2.812376681139399093e+00 3.990000000000000000e+02
-3.372587598644815277e+00 2.202757373635900517e+00 3.990000000000000000e+02
-4.648661381746308052e+00 1.593138066132402386e+00 3.990000000000000000e+02
-5.924735164847800384e+00 9.835187586289040329e-01 3.990000000000000000e+02
-7.200808947949292715e+00 3.738994511254056796e-01 3.990000000000000000e+02
-8.476882731050785935e+00 -2.357198563780924516e-01 3.990000000000000000e+02
7.888609884586594845e-01 4.974461841448890809e+00 4.000000000000000000e+02
-4.872127946428328471e-01 4.364842533945393122e+00 4.000000000000000000e+02
-1.763286577744325401e+00 3.755223226441894546e+00 4.000000000000000000e+02
-3.039360360845817954e+00 3.145603918938395971e+00 4.000000000000000000e+02
-4.315434143947310730e+00 2.535984611434897840e+00 4.000000000000000000e+02
-5.591507927048803062e+00 1.926365303931399486e+00 4.000000000000000000e+02
-6.867581710150295393e+00 1.316745996427901133e+00 4.000000000000000000e+02
-8.143655493251788613e+00 7.071266889244027798e-01 4.000000000000000000e+02
7.888609884586594845e-01 4.974461841448890809e+00 4.010000000000000000e+02
-4.872127946428328471e-01 4.364842533945393122e+00 4.010000000000000000e+02
-1.763286577744325401e+00 3.755223226441894546e+00 4.010000000000000000e+02
-3.039360360845817954e+00 3.145603918938395971e+00 4.010000000000000000e+02
-4.315434143947310730e+00 2.535984611434897840e+00 4.010000000000000000e+02
-5.591507927048803062e+00 1.926365303931399486e+00 4.010000000000000000e+02
-6.867581710150295393e+00 1.316745996427901133e+00 4.010000000000000000e+02
-8.143655493251788613e+00 7.071266889244027798e-01 4.010000000000000000e+02
7.888609884586594845e-01 4.974461841448890809e+00 4.020000000000000000e+02
-4.872127946428328471e-01 4.364842533945393122e+00 4.020000000000000000e+02
-1.763286577744325401e+00 3.755223226441894546e+00 4.020000000000000000e+02
-3.039360360845817954e+00 3.145603918938395971e+00 4.020000000000000000e+02
-4.315434143947310730e+00 2.535984611434897840e+00 4.020000000000000000e+02
-5.591507927048803062e+00 1.926365303931399486e+00 4.020000000000000000e+02
-6.867581710150295393e+00 1.316745996427901133e+00 4.020000000000000000e+02
-8.143655493251788613e+00 7.071266889244027798e-01 4.020000000000000000e+02
1.731707533761155382e+00 4.641234603649894375e+00 4.030000000000000000e+02
4.556337506596626064e-01 4.031615296146395799e+00 4.030000000000000000e+02
-8.204400324418301693e-01 3.421995988642897224e+00 4.030000000000000000e+02
-2.096513815543322501e+00 2.812376681139399093e+00 4.030000000000000000e+02
-3.372587598644815277e+00 2.202757373635900517e+00 4.030000000000000000e+02
-4.648661381746308052e+00 1.593138066132402386e+00 4.030000000000000000e+02
-5.924735164847800384e+00 9.835187586289040329e-01 4.030000000000000000e+02
-7.200808947949292715e+00 3.738994511254056796e-01 4.030000000000000000e+02
-8.476882731050785935e+00 -2.357198563780924516e-01 4.030000000000000000e+02
1.731707533761155382e+00 4.641234603649894375e+00 4.040000000000000000e+02
4.556337506596626064e-01 4.031615296146395799e+00 4.040000000000000000e+02
-8.204400324418301693e-01 3.421995988642897224e+00 4.040000000000000000e+02
-2.096513815543322501e+00 2.812376681139399093e+00 4.040000000000000000e+02
-3.372587598644815277e+00 2.202757373635900517e+00 4.040000000000000000e+02
-4.648661381746308052e+00 1.593138066132402386e+00 4.040000000000000000e+02
-5.924735164847800384e+00 9.835187586289040329e-01 4.040000000000000000e+02
-7.200808947949292715e+00 3.738994511254056796e-01 4.040000000000000000e+02
-8.476882731050785935e+00 -2.357198563780924516e-01 4.040000000000000000e+02
1.731707533761155382e+00 4.641234603649894375e+00 4.050000000000000000e+02
4.556337506596626064e-01 4.031615296146395799e+00 4.050000000000000000e+02
-8.204400324418301693e-01 3.421995988642897224e+00 4.050000000000000000e+02
-2.096513815543322501e+00 2.812376681139399093e+00 4.050000000000000000e+02
-3.372587598644815277e+00 2.202757373635900517e+00 4.050000000000000000e+02
-4.648661381746308052e+00 1.593138066132402386e+00 4.050000000000000000e+02
-5.924735164847800384e+00 9.835187586289040329e-01 4.050000000000000000e+02
-7.200808947949292715e+00 3.738994511254056796e-01 4.050000000000000000e+02
1.731707533761155382e+00 4.641234603649894375e+00 4.060000000000000000e+02
4.556337506596626064e-01 4.031615296146395799e+00 4.060000000000000000e+02
-8.204400324418301693e-01 3.421995988642897224e+00 4.060000000000000000e+02
-2.096513815543322501e+00 2.812376681139399093e+00 4.060000000000000000e+02
-3.372587598644815277e+00 2.202757373635900517e+00 4.060000000000000000e+02
-4.648661381746308052e+00 1.593138066132402386e+00 4.060000000000000000e+02
-5.924735164847800384e+00 9.835187586289040329e-01 4.060000000000000000e+02
-7.200808947949292715e+00 3.738994511254056796e-01 4.060000000000000000e+02
-8.476882731050785935e+00 -2.357198563780924516e-01 4.060000000000000000e+02
1.731707533761155382e+00 4.641234603649894375e+00 4.070000000000000000e+02
4.556337506596626064e-01 4.031615296146395799e+00 4.070000000000000000e+02
-8.204400324418301693e-01 3.421995988642897224e+00 4.070000000000000000e+02
-2.096513815543322501e+00 2.812376681139399093e+00 4.070000000000000000e+02
-3.372587598644815277e+00 2.202757373635900517e+00 4.070000000000000000e+02
-4.648661381746308052e+00 1.593138066132402386e+00 4.070000000000000000e+02
-5.924735164847800384e+00 9.835187586289040329e-01 4.070000000000000000e+02
-7.200808947949292715e+00 3.738994511254056796e-01 4.070000000000000000e+02
-8.476882731050785935e+00 -2.357198563780924516e-01 4.070000000000000000e+02
1.731707533761155382e+00 4.641234603649894375e+00 4.080000000000000000e+02
4.556337506596626064e-01 4.031615296146395799e+00 4.080000000000000000e+02
-8.204400324418301693e-01 3.421995988642897224e+00 4.080000000000000000e+02
-2.096513815543322501e+00 2.812376681139399093e+00 4.080000000000000000e+02
-3.372587598644815277e+00 2.202757373635900517e+00 4.080000000000000000e+02
-4.648661381746308052e+00 1.593138066132402386e+00 4.080000000000000000e+02
-5.924735164847800384e+00 9.835187586289040329e-01 4.080000000000000000e+02
-7.200808947949292715e+00 3.738994511254056796e-01 4.080000000000000000e+02
-8.476882731050785935e+00 -2.357198563780924516e-01 4.080000000000000000e+02
1.731707533761155382e+00 4.641234603649894375e+00 4.090000000000000000e+02
4.556337506596626064e-01 4.031615296146395799e+00 4.090000000000000000e+02
-8.204400324418301693e-01 3.421995988642897224e+00 4.090000000000000000e+02
-2.096513815543322501e+00 2.812376681139399093e+00 4.090000000000000000e+02
-3.372587598644815277e+00 2.202757373635900517e+00 4.090000000000000000e+02
-4.648661381746308052e+00 1.593138066132402386e+00 4.090000000000000000e+02
-5.924735164847800384e+00 9.835187586289040329e-01 4.090000000000000000e+02
-7.200808947949292715e+00 3.738994511254056796e-01 4.090000000000000000e+02
-8.476882731050785935e+00 -2.357198563780924516e-01 4.090000000000000000e+02
1.731707533761155382e+00 4.641234603649894375e+00 4.100000000000000000e+02
4.556337506596626064e-01 4.031615296146395799e+00 4.100000000000000000e+02
-8.204400324418301693e-01 3.421995988642897224e+00 4.100000000000000000e+02
-2.096513815543322501e+00 2.812376681139399093e+00 4.100000000000000000e+02
-3.372587598644815277e+00 2.202757373635900517e+00 4.100000000000000000e+02
-4.648661381746308052e+00 1.593138066132402386e+00 4.100000000000000000e+02
-5.924735164847800384e+00 9.835187586289040329e-01 4.100000000000000000e+02
-7.200808947949292715e+00 3.738994511254056796e-01 4.100000000000000000e+02
-8.476882731050785935e+00 -2.357198563780924516e-01 4.100000000000000000e+02
1.731707533761155382e+00 4.641234603649894375e+00 4.110000000000000000e+02
4.556337506596626064e-01 4.031615296146395799e+00 4.110000000000000000e+02
-8.204400324418301693e-01 3.421995988642897224e+00 4.110000000000000000e+02
-2.096513815543322501e+00 2.812376681139399093e+00 4.110000000000000000e+02
-3.372587598644815277e+00 2.202757373635900517e+00 4.110000000000000000e+02
-4.648661381746308052e+00 1.593138066132402386e+00 4.110000000000000000e+02
-5.924735164847800384e+00 9.835187586289040329e-01 4.110000000000000000e+02
-7.200808947949292715e+00 3.738994511254056796e-01 4.110000000000000000e+02
-8.476882731050785935e+00 -2.357198563780924516e-01 4.110000000000000000e+02
