-4.222600966494149954e-01 -4.531015854984726809e-02 3.300000000000000000e+02
-1.499958731863695549e+00 8.704221449413405143e-01 3.300000000000000000e+02
-2.577657367077976325e+00 1.786154448432528463e+00 3.300000000000000000e+02
-3.655356002292257322e+00 2.701886751923716190e+00 3.300000000000000000e+02
-4.733054637506537432e+00 3.617619055414903695e+00 3.300000000000000000e+02
-5.810753272720817542e+00 4.533351358906092088e+00 3.300000000000000000e+02
1.652154007917600032e+00 -8.800592961794886371e-01 3.310000000000000000e+02
5.744553727033199220e-01 3.567300731169920081e-02 3.310000000000000000e+02
-5.032432625109615199e-01 9.514053108028870387e-01 3.310000000000000000e+02
-1.580941897725242073e+00 1.867137614294074988e+00 3.310000000000000000e+02
-2.658640532939522849e+00 2.782869917785262714e+00 3.310000000000000000e+02
-3.736339168153803847e+00 3.698602221276450219e+00 3.310000000000000000e+02
1.652154007917600032e+00 -8.800592961794886371e-01 3.320000000000000000e+02
5.744553727033199220e-01 3.567300731169920081e-02 3.320000000000000000e+02
-5.032432625109615199e-01 9.514053108028870387e-01 3.320000000000000000e+02
-1.580941897725242073e+00 1.867137614294074988e+00 3.320000000000000000e+02
-2.658640532939522849e+00 2.782869917785262714e+00 3.320000000000000000e+02
-3.736339168153803847e+00 3.698602221276450219e+00 3.320000000000000000e+02
1.652154007917600032e+00 -8.800592961794886371e-01 3.330000000000000000e+02
5.744553727033199220e-01 3.567300731169920081e-02 3.330000000000000000e+02
-5.032432625109615199e-01 9.514053108028870387e-01 3.330000000000000000e+02
-1.580941897725242073e+00 1.867137614294074988e+00 3.330000000000000000e+02
-2.658640532939522849e+00 2.782869917785262714e+00 3.330000000000000000e+02
-3.736339168153803847e+00 3.698602221276450219e+00 3.330000000000000000e+02
1.733137173779146556e+00 -1.876774765532223110e+00 3.340000000000000000e+02
6.554385385648660023e-01 -9.610424620410349394e-01 3.340000000000000000e+02
-4.222600966494149954e-01 -4.531015854984726809e-02 3.340000000000000000e+02
-1.499958731863695549e+00 8.704221449413405143e-01 3.340000000000000000e+02
-2.577657367077976325e+00 1.786154448432528463e+00 3.340000000000000000e+02
-3.655356002292257322e+00 2.701886751923716190e+00 3.340000000000000000e+02
-4.733054637506537432e+00 3.617619055414903695e+00 3.340000000000000000e+02
-5.810753272720817542e+00 4.533351358906092088e+00 3.340000000000000000e+02
1.733137173779146556e+00 -1.876774765532223110e+00 3.350000000000000000e+02
6.554385385648660023e-01 -9.610424620410349394e-01 3.350000000000000000e+02
-4.222600966494149954e-01 -4.531015854984726809e-02 3.350000000000000000e+02
-1.499958731863695549e+00 8.704221449413405143e-01 3.350000000000000000e+02
-2.577657367077976325e+00 1.786154448432528463e+00 3.350000000000000000e+02
-3.655356002292257322e+00 2.701886751923716190e+00 3.350000000000000000e+02
-4.733054637506537432e+00 3.617619055414903695e+00 3.350000000000000000e+02
-5.810753272720817542e+00 4.533351358906092088e+00 3.350000000000000000e+02
1.733137173779146556e+00 -1.876774765532223110e+00 3.360000000000000000e+02
6.554385385648660023e-01 -9.610424620410349394e-01 3.360000000000000000e+02
-4.222600966494149954e-01 -4.531015854984726809e-02 3.360000000000000000e+02
-1.499958731863695549e+00 8.704221449413405143e-01 3.360000000000000000e+02
-2.577657367077976325e+00 1.786154448432528463e+00 3.360000000000000000e+02
-3.655356002292257322e+00 2.701886751923716190e+00 3.360000000000000000e+02
-4.733054637506537432e+00 3.617619055414903695e+00 3.360000000000000000e+02
-5.810753272720817542e+00 4.533351358906092088e+00 3.360000000000000000e+02
1.733137173779146556e+00 -1.876774765532223110e+00 3.370000000000000000e+02
6.554385385648660023e-01 -9.610424620410349394e-01 3.370000000000000000e+02
-4.222600966494149954e-01 -4.531015854984726809e-02 3.370000000000000000e+02
-1.499958731863695549e+00 8.704221449413405143e-01 3.370000000000000000e+02
-2.577657367077976325e+00 1.786154448432528463e+00 3.370000000000000000e+02
-3.655356002292257322e+00 2.701886751923716190e+00 3.370000000000000000e+02
-4.733054637506537432e+00 3.617619055414903695e+00 3.370000000000000000e+02
-5.810753272720817542e+00 4.533351358906092088e+00 3.370000000000000000e+02
1.733137173779146556e+00 -1.876774765532223110e+00 3.380000000000000000e+02
6.554385385648660023e-01 -9.610424620410349394e-01 3.380000000000000000e+02
-4.222600966494149954e-01 -4.531015854984726809e-02 3.380000000000000000e+02
-1.499958731863695549e+00 8.704221449413405143e-01 3.380000000000000000e+02
-2.577657367077976325e+00 1.786154448432528463e+00 3.380000000000000000e+02
-3.655356002292257322e+00 2.701886751923716190e+00 3.380000000000000000e+02
-4.733054637506537432e+00 3.617619055414903695e+00 3.380000000000000000e+02
-5.810753272720817542e+00 4.533351358906092088e+00 3.380000000000000000e+02
1.733137173779146556e+00 -1.876774765532223110e+00 3.390000000000000000e+02
6.554385385648660023e-01 -9.610424620410349394e-01 3.390000000000000000e+02
-4.222600966494149954e-01 -4.531015854984726809e-02 3.390000000000000000e+02
-1.499958731863695549e+00 8.704221449413405143e-01 3.390000000000000000e+02
-2.577657367077976325e+00 1.786154448432528463e+00 3.390000000000000000e+02
-3.655356002292257322e+00 2.701886751923716190e+00 3.390000000000000000e+02
-4.733054637506537432e+00 3.617619055414903695e+00 3.390000000000000000e+02
-5.810753272720817542e+00 4.533351358906092088e+00 3.390000000000000000e+02
1.733137173779146556e+00 -1.876774765532223110e+00 3.400000000000000000e+02
6.554385385648660023e-01 -9.610424620410349394e-01 3.400000000000000000e+02
-4.222600966494149954e-01 -4.531015854984726809e-02 3.400000000000000000e+02
-1.499958731863695549e+00 8.704221449413405143e-01 3.400000000000000000e+02
-2.577657367077976325e+00 1.786154448432528463e+00 3.400000000000000000e+02
-3.655356002292257322e+00 2.701886751923716190e+00 3.400000000000000000e+02
-4.733054637506537432e+00 3.617619055414903695e+00 3.400000000000000000e+02
-5.810753272720817542e+00 4.533351358906092088e+00 3.400000000000000000e+02
1.733137173779146556e+00 -1.876774765532223110e+00 3.410000000000000000e+02
6.554385385648660023e-01 -9.610424620410349394e-01 3.410000000000000000e+02
-4.222600966494149954e-01 -4.531015854984726809e-02 3.410000000000000000e+02
-1.499958731863695549e+00 8.704221449413405143e-01 3.410000000000000000e+02
-2.577657367077976325e+00 1.786154448432528463e+00 3.410000000000000000e+02
-3.655356002292257322e+00 2.701886751923716190e+00 3.410000000000000000e+02
-4.733054637506537432e+00 3.617619055414903695e+00 3.410000000000000000e+02
1.733137173779146556e+00 -1.876774765532223110e+00 3.420000000000000000e+02
6.554385385648660023e-01 -9.610424620410349394e-01 3.420000000000000000e+02
-4.222600966494149954e-01 -4.531015854984726809e-02 3.420000000000000000e+02
-1.499958731863695549e+00 8.704221449413405143e-01 3.420000000000000000e+02
-2.577657367077976325e+00 1.786154448432528463e+00 3.420000000000000000e+02
-3.655356002292257322e+00 2.701886751923716190e+00 3.420000000000000000e+02
-4.733054637506537432e+00 3.617619055414903695e+00 3.420000000000000000e+02
1.733137173779146556e+00 -1.876774765532223110e+00 3.430000000000000000e+02
6.554385385648660023e-01 -9.610424620410349394e-01 3.430000000000000000e+02
-4.222600966494149954e-01 -4.531015854984726809e-02 3.430000000000000000e+02
-1.499958731863695549e+00 8.704221449413405143e-01 3.430000000000000000e+02
-2.577657367077976325e+00 1.786154448432528463e+00 3.430000000000000000e+02
-3.655356002292257322e+00 2.701886751923716190e+00 3.430000000000000000e+02
-4.733054637506537432e+00 3.617619055414903695e+00 3.430000000000000000e+02
-5.810753272720817542e+00 4.533351358906092088e+00 3.430000000000000000e+02
1.733137173779146556e+00 -1.876774765532223110e+00 3.440000000000000000e+02
6.554385385648660023e-01 -9.610424620410349394e-01 3.440000000000000000e+02
-4.222600966494149954e-01 -4.531015854984726809e-02 3.440000000000000000e+02
-1.499958731863695549e+00 8.704221449413405143e-01 3.440000000000000000e+02
-2.577657367077976325e+00 1.786154448432528463e+00 3.440000000000000000e+02
-3.655356002292257322e+00 2.701886751923716190e+00 3.440000000000000000e+02
-4.733054637506537432e+00 3.617619055414903695e+00 3.440000000000000000e+02
1.733137173779146556e+00 -1.876774765532223110e+00 3.450000000000000000e+02
6.554385385648660023e-01 -9.610424620410349394e-01 3.450000000000000000e+02
-4.222600966494149954e-01 -4.531015854984726809e-02 3.450000000000000000e+02
-1.499958731863695549e+00 8.704221449413405143e-01 3.450000000000000000e+02
-2.577657367077976325e+00 1.786154448432528463e+00 3.450000000000000000e+02
-3.655356002292257322e+00 2.701886751923716190e+00 3.450000000000000000e+02
-4.733054637506537432e+00 3.617619055414903695e+00 3.450000000000000000e+02
1.733137173779146556e+00 -1.876774765532223110e+00 3.460000000000000000e+02
6.554385385648660023e-01 -9.610424620410349394e-01 3.460000000000000000e+02
-4.222600966494149954e-01 -4.531015854984726809e-02 3.460000000000000000e+02
-1.499958731863695549e+00 8.704221449413405143e-01 3.460000000000000000e+02
-2.577657367077976325e+00 1.786154448432528463e+00 3.460000000000000000e+02
-3.655356002292257322e+00 2.701886751923716190e+00 3.460000000000000000e+02
-4.733054637506537432e+00 3.617619055414903695e+00 3.460000000000000000e+02
1.733137173779146556e+00 -1.876774765532223110e+00 3.470000000000000000e+02
6.554385385648660023e-01 -9.610424620410349394e-01 3.470000000000000000e+02
-4.222600966494149954e-01 -4.531015854984726809e-02 3.470000000000000000e+02
-1.499958731863695549e+00 8.704221449413405143e-01 3.470000000000000000e+02
-2.577657367077976325e+00 1.786154448432528463e+00 3.470000000000000000e+02
-3.655356002292257322e+00 2.701886751923716190e+00 3.470000000000000000e+02
-4.733054637506537432e+00 3.617619055414903695e+00 3.470000000000000000e+02
1.733137173779146556e+00 -1.876774765532223110e+00 3.480000000000000000e+02
6.554385385648660023e-01 -9.610424620410349394e-01 3.480000000000000000e+02
-4.222600966494149954e-01 -4.531015854984726809e-02 3.480000000000000000e+02
-1.499958731863695549e+00 8.704221449413405143e-01 3.480000000000000000e+02
-2.577657367077976325e+00 1.786154448432528463e+00 3.480000000000000000e+02
-3.655356002292257322e+00 2.701886751923716190e+00 3.480000000000000000e+02
-4.733054637506537432e+00 3.617619055414903695e+00 3.480000000000000000e+02
1.733137173779146556e+00 -1.876774765532223110e+00 3.490000000000000000e+02
6.554385385648660023e-01 -9.610424620410349394e-01 3.490000000000000000e+02
-4.222600966494149954e-01 -4.531015854984726809e-02 3.490000000000000000e+02
-1.499958731863695549e+00 8.704221449413405143e-01 3.490000000000000000e+02
-2.577657367077976325e+00 1.786154448432528463e+00 3.490000000000000000e+02
-3.655356002292257322e+00 2.701886751923716190e+00 3.490000000000000000e+02
-4.733054637506537432e+00 3.617619055414903695e+00 3.490000000000000000e+02
1.733137173779146556e+00 -1.876774765532223110e+00 3.500000000000000000e+02
6.554385385648660023e-01 -9.610424620410349394e-01 3.500000000000000000e+02
-4.222600966494149954e-01 -4.531015854984726809e-02 3.500000000000000000e+02
-1.499958731863695549e+00 8.704221449413405143e-01 3.500000000000000000e+02
-2.577657367077976325e+00 1.786154448432528463e+00 3.500000000000000000e+02
-3.655356002292257322e+00 2.701886751923716190e+00 3.500000000000000000e+02
-4.733054637506537432e+00 3.617619055414903695e+00 3.500000000000000000e+02
1.733137173779146556e+00 -1.876774765532223110e+00 3.510000000000000000e+02
6.554385385648660023e-01 -9.610424620410349394e-01 3.510000000000000000e+02
-4.222600966494149954e-01 -4.531015854984726809e-02 3.510000000000000000e+02
-1.499958731863695549e+00 8.704221449413405143e-01 3.510000000000000000e+02
-2.577657367077976325e+00 1.786154448432528463e+00 3.510000000000000000e+02
-3.655356002292257322e+00 2.701886751923716190e+00 3.510000000000000000e+02
-4.733054637506537432e+00 3.617619055414903695e+00 3.510000000000000000e+02
-5.810753272720817542e+00 4.533351358906092088e+00 3.510000000000000000e+02
1.733137173779146556e+00 -1.876774765532223110e+00 3.520000000000000000e+02
6.554385385648660023e-01 -9.610424620410349394e-01 3.520000000000000000e+02
-4.222600966494149954e-01 -4.531015854984726809e-02 3.520000000000000000e+02
-1.499958731863695549e+00 8.704221449413405143e-01 3.520000000000000000e+02
-2.577657367077976325e+00 1.786154448432528463e+00 3.520000000000000000e+02
-3.655356002292257322e+00 2.701886751923716190e+00 3.520000000000000000e+02
-4.733054637506537432e+00 3.617619055414903695e+00 3.520000000000000000e+02
-5.810753272720817542e+00 4.533351358906092088e+00 3.520000000000000000e+02
1.733137173779146556e+00 -1.876774765532223110e+00 3.530000000000000000e+02
6.554385385648660023e-01 -9.610424620410349394e-01 3.530000000000000000e+02
-4.222600966494149954e-01 -4.531015854984726809e-02 3.530000000000000000e+02
-1.499958731863695549e+00 8.704221449413405143e-01 3.530000000000000000e+02
-2.577657367077976325e+00 1.786154448432528463e+00 3.530000000000000000e+02
-3.655356002292257322e+00 2.701886751923716190e+00 3.530000000000000000e+02
-4.733054637506537432e+00 3.617619055414903695e+00 3.530000000000000000e+02
1.733137173779146556e+00 -1.876774765532223110e+00 3.540000000000000000e+02
6.554385385648660023e-01 -9.610424620410349394e-01 3.540000000000000000e+02
-4.222600966494149954e-01 -4.531015854984726809e-02 3.540000000000000000e+02
-1.499958731863695549e+00 8.704221449413405143e-01 3.540000000000000000e+02
-2.577657367077976325e+00 1.786154448432528463e+00 3.540000000000000000e+02
-3.655356002292257322e+00 2.701886751923716190e+00 3.540000000000000000e+02
-4.733054637506537432e+00 3.617619055414903695e+00 3.540000000000000000e+02
1.733137173779146556e+00 -1.876774765532223110e+00 3.550000000000000000e+02
6.554385385648660023e-01 -9.610424620410349394e-01 3.550000000000000000e+02
-4.222600966494149954e-01 -4.531015854984726809e-02 3.550000000000000000e+02
-1.499958731863695549e+00 8.704221449413405143e-01 3.550000000000000000e+02
-2.577657367077976325e+00 1.786154448432528463e+00 3.550000000000000000e+02
-3.655356002292257322e+00 2.701886751923716190e+00 3.550000000000000000e+02
-4.733054637506537432e+00 3.617619055414903695e+00 3.550000000000000000e+02
1.733137173779146556e+00 -1.876774765532223110e+00 3.560000000000000000e+02
6.554385385648660023e-01 -9.610424620410349394e-01 3.560000000000000000e+02
-4.222600966494149954e-01 -4.531015854984726809e-02 3.560000000000000000e+02
-1.499958731863695549e+00 8.704221449413405143e-01 3.560000000000000000e+02
-2.577657367077976325e+00 1.786154448432528463e+00 3.560000000000000000e+02
-3.655356002292257322e+00 2.701886751923716190e+00 3.560000000000000000e+02
-4.733054637506537432e+00 3.617619055414903695e+00 3.560000000000000000e+02
1.733137173779146556e+00 -1.876774765532223110e+00 3.570000000000000000e+02
6.554385385648660023e-01 -9.610424620410349394e-01 3.570000000000000000e+02
-4.222600966494149954e-01 -4.531015854984726809e-02 3.570000000000000000e+02
-1.499958731863695549e+00 8.704221449413405143e-01 3.570000000000000000e+02
-2.577657367077976325e+00 1.786154448432528463e+00 3.570000000000000000e+02
-3.655356002292257322e+00 2.701886751923716190e+00 3.570000000000000000e+02
-4.733054637506537432e+00 3.617619055414903695e+00 3.570000000000000000e+02
1.733137173779146556e+00 -1.876774765532223110e+00 3.580000000000000000e+02
6.554385385648660023e-01 -9.610424620410349394e-01 3.580000000000000000e+02
-4.222600966494149954e-01 -4.531015854984726809e-02 3.580000000000000000e+02
-1.499958731863695549e+00 8.704221449413405143e-01 3.580000000000000000e+02
-2.577657367077976325e+00 1.786154448432528463e+00 3.580000000000000000e+02
-3.655356002292257322e+00 2.701886751923716190e+00 3.580000000000000000e+02
-4.733054637506537432e+00 3.617619055414903695e+00 3.580000000000000000e+02
1.733137173779146556e+00 -1.876774765532223110e+00 3.590000000000000000e+02
6.554385385648660023e-01 -9.610424620410349394e-01 3.590000000000000000e+02
-4.222600966494149954e-01 -4.531015854984726809e-02 3.590000000000000000e+02
-1.499958731863695549e+00 8.704221449413405143e-01 3.590000000000000000e+02
-2.577657367077976325e+00 1.786154448432528463e+00 3.590000000000000000e+02
-3.655356002292257322e+00 2.701886751923716190e+00 3.590000000000000000e+02
-4.733054637506537432e+00 3.617619055414903695e+00 3.590000000000000000e+02
1.733137173779146556e+00 -1.876774765532223110e+00 3.600000000000000000e+02
6.554385385648660023e-01 -9.610424620410349394e-01 3.600000000000000000e+02
-4.222600966494149954e-01 -4.531015854984726809e-02 3.600000000000000000e+02
-1.499958731863695549e+00 8.704221449413405143e-01 3.600000000000000000e+02
-2.577657367077976325e+00 1.786154448432528463e+00 3.600000000000000000e+02
-3.655356002292257322e+00 2.701886751923716190e+00 3.600000000000000000e+02
-4.733054637506537432e+00 3.617619055414903695e+00 3.600000000000000000e+02
1.733137173779146556e+00 -1.876774765532223110e+00 3.610000000000000000e+02
6.554385385648660023e-01 -9.610424620410349394e-01 3.610000000000000000e+02
-4.222600966494149954e-01 -4.531015854984726809e-02 3.610000000000000000e+02
-1.499958731863695549e+00 8.704221449413405143e-01 3.610000000000000000e+02
-2.577657367077976325e+00 1.786154448432528463e+00 3.610000000000000000e+02
-3.655356002292257322e+00 2.701886751923716190e+00 3.610000000000000000e+02
-4.733054637506537432e+00 3.617619055414903695e+00 3.610000000000000000e+02
1.733137173779146556e+00 -1.876774765532223110e+00 3.620000000000000000e+02
6.554385385648660023e-01 -9.610424620410349394e-01 3.620000000000000000e+02
-4.222600966494149954e-01 -4.531015854984726809e-02 3.620000000000000000e+02
-1.499958731863695549e+00 8.704221449413405143e-01 3.620000000000000000e+02
-2.577657367077976325e+00 1.786154448432528463e+00 3.620000000000000000e+02
-3.655356002292257322e+00 2.701886751923716190e+00 3.620000000000000000e+02
-4.733054637506537432e+00 3.617619055414903695e+00 3.620000000000000000e+02
1.733137173779146556e+00 -1.876774765532223110e+00 3.630000000000000000e+02
6.554385385648660023e-01 -9.610424620410349394e-01 3.630000000000000000e+02
-4.222600966494149954e-01 -4.531015854984726809e-02 3.630000000000000000e+02
-1.499958731863695549e+00 8.704221449413405143e-01 3.630000000000000000e+02
-2.577657367077976325e+00 1.786154448432528463e+00 3.630000000000000000e+02
-3.655356002292257322e+00 2.701886751923716190e+00 3.630000000000000000e+02
-4.733054637506537432e+00 3.617619055414903695e+00 3.630000000000000000e+02
1.733137173779146556e+00 -1.876774765532223110e+00 3.640000000000000000e+02
6.554385385648660023e-01 -9.610424620410349394e-01 3.640000000000000000e+02
-4.222600966494149954e-01 -4.531015854984726809e-02 3.640000000000000000e+02
-1.499958731863695549e+00 8.704221449413405143e-01 3.640000000000000000e+02
-2.577657367077976325e+00 1.786154448432528463e+00 3.640000000000000000e+02
-3.655356002292257322e+00 2.701886751923716190e+00 3.640000000000000000e+02
-4.733054637506537432e+00 3.617619055414903695e+00 3.640000000000000000e+02
1.733137173779146556e+00 -1.876774765532223110e+00 3.650000000000000000e+02
6.554385385648660023e-01 -9.610424620410349394e-01 3.650000000000000000e+02
-4.222600966494149954e-01 -4.531015854984726809e-02 3.650000000000000000e+02
-1.499958731863695549e+00 8.704221449413405143e-01 3.650000000000000000e+02
-2.577657367077976325e+00 1.786154448432528463e+00 3.650000000000000000e+02
-3.655356002292257322e+00 2.701886751923716190e+00 3.650000000000000000e+02
-4.733054637506537432e+00 3.617619055414903695e+00 3.650000000000000000e+02
1.733137173779146556e+00 -1.876774765532223110e+00 3.660000000000000000e+02
6.554385385648660023e-01 -9.610424620410349394e-01 3.660000000000000000e+02
-4.222600966494149954e-01 -4.531015854984726809e-02 3.660000000000000000e+02
-1.499958731863695549e+00 8.704221449413405143e-01 3.660000000000000000e+02
-2.577657367077976325e+00 1.786154448432528463e+00 3.660000000000000000e+02
-3.655356002292257322e+00 2.701886751923716190e+00 3.660000000000000000e+02
-4.733054637506537432e+00 3.617619055414903695e+00 3.660000000000000000e+02
1.733137173779146556e+00 -1.876774765532223110e+00 3.670000000000000000e+02
6.554385385648660023e-01 -9.610424620410349394e-01 3.670000000000000000e+02
-4.222600966494149954e-01 -4.531015854984726809e-02 3.670000000000000000e+02
-1.499958731863695549e+00 8.704221449413405143e-01 3.670000000000000000e+02
-2.577657367077976325e+00 1.786154448432528463e+00 3.670000000000000000e+02
-3.655356002292257322e+00 2.701886751923716190e+00 3.670000000000000000e+02
-4.733054637506537432e+00 3.617619055414903695e+00 3.670000000000000000e+02
1.733137173779146556e+00 -1.876774765532223110e+00 3.680000000000000000e+02
6.554385385648660023e-01 -9.610424620410349394e-01 3.680000000000000000e+02
-4.222600966494149954e-01 -4.531015854984726809e-02 3.680000000000000000e+02
-1.499958731863695549e+00 8.704221449413405143e-01 3.680000000000000000e+02
-2.577657367077976325e+00 1.786154448432528463e+00 3.680000000000000000e+02
-3.655356002292257322e+00 2.701886751923716190e+00 3.680000000000000000e+02
-4.733054637506537432e+00 3.617619055414903695e+00 3.680000000000000000e+02
1.733137173779146556e+00 -1.876774765532223110e+00 3.690000000000000000e+02
6.554385385648660023e-01 -9.610424620410349394e-01 3.690000000000000000e+02
-4.222600966494149954e-01 -4.531015854984726809e-02 3.690000000000000000e+02
-1.499958731863695549e+00 8.704221449413405143e-01 3.690000000000000000e+02
-2.577657367077976325e+00 1.786154448432528463e+00 3.690000000000000000e+02
-3.655356002292257322e+00 2.701886751923716190e+00 3.690000000000000000e+02
-4.733054637506537432e+00 3.617619055414903695e+00 3.690000000000000000e+02
1.733137173779146556e+00 -1.876774765532223110e+00 3.700000000000000000e+02
6.554385385648660023e-01 -9.610424620410349394e-01 3.700000000000000000e+02
-4.222600966494149954e-01 -4.531015854984726809e-02 3.700000000000000000e+02
-1.499958731863695549e+00 8.704221449413405143e-01 3.700000000000000000e+02
-2.577657367077976325e+00 1.786154448432528463e+00 3.700000000000000000e+02
-3.655356002292257322e+00 2.701886751923716190e+00 3.700000000000000000e+02
-4.733054637506537432e+00 3.617619055414903695e+00 3.700000000000000000e+02
1.733137173779146556e+00 -1.876774765532223110e+00 3.710000000000000000e+02
6.554385385648660023e-01 -9.610424620410349394e-01 3.710000000000000000e+02
-4.222600966494149954e-01 -4.531015854984726809e-02 3.710000000000000000e+02
-1.499958731863695549e+00 8.704221449413405143e-01 3.710000000000000000e+02
-2.577657367077976325e+00 1.786154448432528463e+00 3.710000000000000000e+02
-3.655356002292257322e+00 2.701886751923716190e+00 3.710000000000000000e+02
-4.733054637506537432e+00 3.617619055414903695e+00 3.710000000000000000e+02
1.733137173779146556e+00 -1.876774765532223110e+00 3.720000000000000000e+02
6.554385385648660023e-01 -9.610424620410349394e-01 3.720000000000000000e+02
-4.222600966494149954e-01 -4.531015854984726809e-02 3.720000000000000000e+02
-1.499958731863695549e+00 8.704221449413405143e-01 3.720000000000000000e+02
-2.577657367077976325e+00 1.786154448432528463e+00 3.720000000000000000e+02
-3.655356002292257322e+00 2.701886751923716190e+00 3.720000000000000000e+02
-4.733054637506537432e+00 3.617619055414903695e+00 3.720000000000000000e+02
1.733137173779146556e+00 -1.876774765532223110e+00 3.730000000000000000e+02
6.554385385648660023e-01 -9.610424620410349394e-01 3.730000000000000000e+02
-4.222600966494149954e-01 -4.531015854984726809e-02 3.730000000000000000e+02
-1.499958731863695549e+00 8.704221449413405143e-01 3.730000000000000000e+02
-2.577657367077976325e+00 1.786154448432528463e+00 3.730000000000000000e+02
-3.655356002292257322e+00 2.701886751923716190e+00 3.730000000000000000e+02
-4.733054637506537432e+00 3.617619055414903695e+00 3.730000000000000000e+02
1.733137173779146556e+00 -1.876774765532223110e+00 3.740000000000000000e+02
6.554385385648660023e-01 -9.610424620410349394e-01 3.740000000000000000e+02
-4.222600966494149954e-01 -4.531015854984726809e-02 3.740000000000000000e+02
-1.499958731863695549e+00 8.704221449413405143e-01 3.740000000000000000e+02
-2.577657367077976325e+00 1.786154448432528463e+00 3.740000000000000000e+02
-3.655356002292257322e+00 2.701886751923716190e+00 3.740000000000000000e+02
-4.733054637506537432e+00 3.617619055414903695e+00 3.740000000000000000e+02
1.733137173779146556e+00 -1.876774765532223110e+00 3.750000000000000000e+02
6.554385385648660023e-01 -9.610424620410349394e-01 3.750000000000000000e+02
-4.222600966494149954e-01 -4.531015854984726809e-02 3.750000000000000000e+02
-1.499958731863695549e+00 8.704221449413405143e-01 3.750000000000000000e+02
-2.577657367077976325e+00 1.786154448432528463e+00 3.750000000000000000e+02
-3.655356002292257322e+00 2.701886751923716190e+00 3.750000000000000000e+02
-4.733054637506537432e+00 3.617619055414903695e+00 3.750000000000000000e+02
1.733137173779146556e+00 -1.876774765532223110e+00 3.760000000000000000e+02
6.554385385648660023e-01 -9.610424620410349394e-01 3.760000000000000000e+02
-4.222600966494149954e-01 -4.531015854984726809e-02 3.760000000000000000e+02
-1.499958731863695549e+00 8.704221449413405143e-01 3.760000000000000000e+02
-2.577657367077976325e+00 1.786154448432528463e+00 3.760000000000000000e+02
-3.655356002292257322e+00 2.701886751923716190e+00 3.760000000000000000e+02
-4.733054637506537432e+00 3.617619055414903695e+00 3.760000000000000000e+02
1.733137173779146556e+00 -1.876774765532223110e+00 3.770000000000000000e+02
6.554385385648660023e-01 -9.610424620410349394e-01 3.770000000000000000e+02
-4.222600966494149954e-01 -4.531015854984726809e-02 3.770000000000000000e+02
-1.499958731863695549e+00 8.704221449413405143e-01 3.770000000000000000e+02
-2.577657367077976325e+00 1.786154448432528463e+00 3.770000000000000000e+02
-3.655356002292257322e+00 2.701886751923716190e+00 3.770000000000000000e+02
-4.733054637506537432e+00 3.617619055414903695e+00 3.770000000000000000e+02
1.733137173779146556e+00 -1.876774765532223110e+00 3.780000000000000000e+02
6.554385385648660023e-01 -9.610424620410349394e-01 3.780000000000000000e+02
-4.222600966494149954e-01 -4.531015854984726809e-02 3.780000000000000000e+02
-1.499958731863695549e+00 8.704221449413405143e-01 3.780000000000000000e+02
-2.577657367077976325e+00 1.786154448432528463e+00 3.780000000000000000e+02
-3.655356002292257322e+00 2.701886751923716190e+00 3.780000000000000000e+02
-4.733054637506537432e+00 3.617619055414903695e+00 3.780000000000000000e+02
1.733137173779146556e+00 -1.876774765532223110e+00 3.790000000000000000e+02
6.554385385648660023e-01 -9.610424620410349394e-01 3.790000000000000000e+02
-4.222600966494149954e-01 -4.531015854984726809e-02 3.790000000000000000e+02
-1.499958731863695549e+00 8.704221449413405143e-01 3.790000000000000000e+02
-2.577657367077976325e+00 1.786154448432528463e+00 3.790000000000000000e+02
-3.655356002292257322e+00 2.701886751923716190e+00 3.790000000000000000e+02
-4.733054637506537432e+00 3.617619055414903695e+00 3.790000000000000000e+02
1.733137173779146556e+00 -1.876774765532223110e+00 3.800000000000000000e+02
6.554385385648660023e-01 -9.610424620410349394e-01 3.800000000000000000e+02
-4.222600966494149954e-01 -4.531015854984726809e-02 3.800000000000000000e+02
-1.499958731863695549e+00 8.704221449413405143e-01 3.800000000000000000e+02
-2.577657367077976325e+00 1.786154448432528463e+00 3.800000000000000000e+02
-3.655356002292257322e+00 2.701886751923716190e+00 3.800000000000000000e+02
-4.733054637506537432e+00 3.617619055414903695e+00 3.800000000000000000e+02
1.733137173779146556e+00 -1.876774765532223110e+00 3.810000000000000000e+02
6.554385385648660023e-01 -9.610424620410349394e-01 3.810000000000000000e+02
-4.222600966494149954e-01 -4.531015854984726809e-02 3.810000000000000000e+02
-1.499958731863695549e+00 8.704221449413405143e-01 3.810000000000000000e+02
-2.577657367077976325e+00 1.786154448432528463e+00 3.810000000000000000e+02
-3.655356002292257322e+00 2.701886751923716190e+00 3.810000000000000000e+02
-4.733054637506537432e+00 3.617619055414903695e+00 3.810000000000000000e+02
1.733137173779146556e+00 -1.876774765532223110e+00 3.820000000000000000e+02
6.554385385648660023e-01 -9.610424620410349394e-01 3.820000000000000000e+02
-4.222600966494149954e-01 -4.531015854984726809e-02 3.820000000000000000e+02
-1.499958731863695549e+00 8.704221449413405143e-01 3.820000000000000000e+02
-2.577657367077976325e+00 1.786154448432528463e+00 3.820000000000000000e+02
-3.655356002292257322e+00 2.701886751923716190e+00 3.820000000000000000e+02
-4.733054637506537432e+00 3.617619055414903695e+00 3.820000000000000000e+02
1.814120339640693080e+00 -2.873490234884957140e+00 3.830000000000000000e+02
7.364217044264125267e-01 -1.957757931393769635e+00 3.830000000000000000e+02
-3.412769307878684710e-01 -1.042025627902581464e+00 3.830000000000000000e+02
-1.418975566002149247e+00 -1.262933244113937370e-01 3.830000000000000000e+02
-2.496674201216429800e+00 7.894389790797942119e-01 3.830000000000000000e+02
-3.574372836430710798e+00 1.705171282570981939e+00 3.830000000000000000e+02
-4.652071471644990908e+00 2.620903586062169666e+00 3.830000000000000000e+02
-5.729770106859271905e+00 3.536635889553357615e+00 3.830000000000000000e+02
1.814120339640693080e+00 -2.873490234884957140e+00 3.840000000000000000e+02
7.364217044264125267e-01 -1.957757931393769635e+00 3.840000000000000000e+02
-3.412769307878684710e-01 -1.042025627902581464e+00 3.840000000000000000e+02
-1.418975566002149247e+00 -1.262933244113937370e-01 3.840000000000000000e+02
-2.496674201216429800e+00 7.894389790797942119e-01 3.840000000000000000e+02
-3.574372836430710798e+00 1.705171282570981939e+00 3.840000000000000000e+02
-4.652071471644990908e+00 2.620903586062169666e+00 3.840000000000000000e+02
-5.729770106859271905e+00 3.536635889553357615e+00 3.840000000000000000e+02
1.814120339640693080e+00 -2.873490234884957140e+00 3.850000000000000000e+02
7.364217044264125267e-01 -1.957757931393769635e+00 3.850000000000000000e+02
-3.412769307878684710e-01 -1.042025627902581464e+00 3.850000000000000000e+02
-1.418975566002149247e+00 -1.262933244113937370e-01 3.850000000000000000e+02
-2.496674201216429800e+00 7.894389790797942119e-01 3.850000000000000000e+02
-3.574372836430710798e+00 1.705171282570981939e+00 3.850000000000000000e+02
-4.652071471644990908e+00 2.620903586062169666e+00 3.850000000000000000e+02
-5.729770106859271905e+00 3.536635889553357615e+00 3.850000000000000000e+02
1.814120339640693080e+00 -2.873490234884957140e+00 3.860000000000000000e+02
7.364217044264125267e-01 -1.957757931393769635e+00 3.860000000000000000e+02
-3.412769307878684710e-01 -1.042025627902581464e+00 3.860000000000000000e+02
-1.418975566002149247e+00 -1.262933244113937370e-01 3.860000000000000000e+02
-2.496674201216429800e+00 7.894389790797942119e-01 3.860000000000000000e+02
-3.574372836430710798e+00 1.705171282570981939e+00 3.860000000000000000e+02
-4.652071471644990908e+00 2.620903586062169666e+00 3.860000000000000000e+02
-5.729770106859271905e+00 3.536635889553357615e+00 3.860000000000000000e+02
1.814120339640693080e+00 -2.873490234884957140e+00 3.870000000000000000e+02
7.364217044264125267e-01 -1.957757931393769635e+00 3.870000000000000000e+02
-3.412769307878684710e-01 -1.042025627902581464e+00 3.870000000000000000e+02
-1.418975566002149247e+00 -1.262933244113937370e-01 3.870000000000000000e+02
-2.496674201216429800e+00 7.894389790797942119e-01 3.870000000000000000e+02
-3.574372836430710798e+00 1.705171282570981939e+00 3.870000000000000000e+02
-4.652071471644990908e+00 2.620903586062169666e+00 3.870000000000000000e+02
-5.729770106859271905e+00 3.536635889553357615e+00 3.870000000000000000e+02
1.814120339640693080e+00 -2.873490234884957140e+00 3.880000000000000000e+02
7.364217044264125267e-01 -1.957757931393769635e+00 3.880000000000000000e+02
-3.412769307878684710e-01 -1.042025627902581464e+00 3.880000000000000000e+02
-1.418975566002149247e+00 -1.262933244113937370e-01 3.880000000000000000e+02
-2.496674201216429800e+00 7.894389790797942119e-01 3.880000000000000000e+02
-3.574372836430710798e+00 1.705171282570981939e+00 3.880000000000000000e+02
-4.652071471644990908e+00 2.620903586062169666e+00 3.880000000000000000e+02
-5.729770106859271905e+00 3.536635889553357615e+00 3.880000000000000000e+02
1.814120339640693080e+00 -2.873490234884957140e+00 3.890000000000000000e+02
7.364217044264125267e-01 -1.957757931393769635e+00 3.890000000000000000e+02
-3.412769307878684710e-01 -1.042025627902581464e+00 3.890000000000000000e+02
-1.418975566002149247e+00 -1.262933244113937370e-01 3.890000000000000000e+02
-2.496674201216429800e+00 7.894389790797942119e-01 3.890000000000000000e+02
-3.574372836430710798e+00 1.705171282570981939e+00 3.890000000000000000e+02
-4.652071471644990908e+00 2.620903586062169666e+00 3.890000000000000000e+02
-5.729770106859271905e+00 3.536635889553357615e+00 3.890000000000000000e+02
1.814120339640693080e+00 -2.873490234884957140e+00 3.900000000000000000e+02
7.364217044264125267e-01 -1.957757931393769635e+00 3.900000000000000000e+02
-3.412769307878684710e-01 -1.042025627902581464e+00 3.900000000000000000e+02
-1.418975566002149247e+00 -1.262933244113937370e-01 3.900000000000000000e+02
-2.496674201216429800e+00 7.894389790797942119e-01 3.900000000000000000e+02
-3.574372836430710798e+00 1.705171282570981939e+00 3.900000000000000000e+02
-4.652071471644990908e+00 2.620903586062169666e+00 3.900000000000000000e+02
-5.729770106859271905e+00 3.536635889553357615e+00 3.900000000000000000e+02
1.814120339640693080e+00 -2.873490234884957140e+00 3.910000000000000000e+02
7.364217044264125267e-01 -1.957757931393769635e+00 3.910000000000000000e+02
-3.412769307878684710e-01 -1.042025627902581464e+00 3.910000000000000000e+02
-1.418975566002149247e+00 -1.262933244113937370e-01 3.910000000000000000e+02
-2.496674201216429800e+00 7.894389790797942119e-01 3.910000000000000000e+02
-3.574372836430710798e+00 1.705171282570981939e+00 3.910000000000000000e+02
-4.652071471644990908e+00 2.620903586062169666e+00 3.910000000000000000e+02
-5.729770106859271905e+00 3.536635889553357615e+00 3.910000000000000000e+02
1.733137173779146556e+00 -1.876774765532223110e+00 3.920000000000000000e+02
6.554385385648660023e-01 -9.610424620410349394e-01 3.920000000000000000e+02
-4.222600966494149954e-01 -4.531015854984726809e-02 3.920000000000000000e+02
-1.499958731863695549e+00 8.704221449413405143e-01 3.920000000000000000e+02
-2.577657367077976325e+00 1.786154448432528463e+00 3.920000000000000000e+02
-3.655356002292257322e+00 2.701886751923716190e+00 3.920000000000000000e+02
-4.733054637506537432e+00 3.617619055414903695e+00 3.920000000000000000e+02
1.733137173779146556e+00 -1.876774765532223110e+00 3.930000000000000000e+02
6.554385385648660023e-01 -9.610424620410349394e-01 3.930000000000000000e+02
-4.222600966494149954e-01 -4.531015854984726809e-02 3.930000000000000000e+02
-1.499958731863695549e+00 8.704221449413405143e-01 3.930000000000000000e+02
-2.577657367077976325e+00 1.786154448432528463e+00 3.930000000000000000e+02
-3.655356002292257322e+00 2.701886751923716190e+00 3.930000000000000000e+02
-4.733054637506537432e+00 3.617619055414903695e+00 3.930000000000000000e+02
1.814120339640693080e+00 -2.873490234884957140e+00 3.940000000000000000e+02
7.364217044264125267e-01 -1.957757931393769635e+00 3.940000000000000000e+02
-3.412769307878684710e-01 -1.042025627902581464e+00 3.940000000000000000e+02
-1.418975566002149247e+00 -1.262933244113937370e-01 3.940000000000000000e+02
-2.496674201216429800e+00 7.894389790797942119e-01 3.940000000000000000e+02
-3.574372836430710798e+00 1.705171282570981939e+00 3.940000000000000000e+02
-4.652071471644990908e+00 2.620903586062169666e+00 3.940000000000000000e+02
-5.729770106859271905e+00 3.536635889553357615e+00 3.940000000000000000e+02
1.814120339640693080e+00 -2.873490234884957140e+00 3.950000000000000000e+02
7.364217044264125267e-01 -1.957757931393769635e+00 3.950000000000000000e+02
-3.412769307878684710e-01 -1.042025627902581464e+00 3.950000000000000000e+02
-1.418975566002149247e+00 -1.262933244113937370e-01 3.950000000000000000e+02
-2.496674201216429800e+00 7.894389790797942119e-01 3.950000000000000000e+02
-3.574372836430710798e+00 1.705171282570981939e+00 3.950000000000000000e+02
-4.652071471644990908e+00 2.620903586062169666e+00 3.950000000000000000e+02
-5.729770106859271905e+00 3.536635889553357615e+00 3.950000000000000000e+02
1.814120339640693080e+00 -2.873490234884957140e+00 3.960000000000000000e+02
7.364217044264125267e-01 -1.957757931393769635e+00 3.960000000000000000e+02
-3.412769307878684710e-01 -1.042025627902581464e+00 3.960000000000000000e+02
-1.418975566002149247e+00 -1.262933244113937370e-01 3.960000000000000000e+02
-2.496674201216429800e+00 7.894389790797942119e-01 3.960000000000000000e+02
-3.574372836430710798e+00 1.705171282570981939e+00 3.960000000000000000e+02
-4.652071471644990908e+00 2.620903586062169666e+00 3.960000000000000000e+02
-5.729770106859271905e+00 3.536635889553357615e+00 3.960000000000000000e+02
1.814120339640693080e+00 -2.873490234884957140e+00 3.970000000000000000e+02
7.364217044264125267e-01 -1.957757931393769635e+00 3.970000000000000000e+02
-3.412769307878684710e-01 -1.042025627902581464e+00 3.970000000000000000e+02
-1.418975566002149247e+00 -1.262933244113937370e-01 3.970000000000000000e+02
-2.496674201216429800e+00 7.894389790797942119e-01 3.970000000000000000e+02
-3.574372836430710798e+00 1.705171282570981939e+00 3.970000000000000000e+02
-4.652071471644990908e+00 2.620903586062169666e+00 3.970000000000000000e+02
-5.729770106859271905e+00 3.536635889553357615e+00 3.970000000000000000e+02
1.814120339640693080e+00 -2.873490234884957140e+00 3.980000000000000000e+02
7.364217044264125267e-01 -1.957757931393769635e+00 3.980000000000000000e+02
-3.412769307878684710e-01 -1.042025627902581464e+00 3.980000000000000000e+02
-1.418975566002149247e+00 -1.262933244113937370e-01 3.980000000000000000e+02
-2.496674201216429800e+00 7.894389790797942119e-01 3.980000000000000000e+02
-3.574372836430710798e+00 1.705171282570981939e+00 3.980000000000000000e+02
-4.652071471644990908e+00 2.620903586062169666e+00 3.980000000000000000e+02
-5.729770106859271905e+00 3.536635889553357615e+00 3.980000000000000000e+02
1.814120339640693080e+00 -2.873490234884957140e+00 3.990000000000000000e+02
7.364217044264125267e-01 -1.957757931393769635e+00 3.990000000000000000e+02
-3.412769307878684710e-01 -1.042025627902581464e+00 3.990000000000000000e+02
-1.418975566002149247e+00 -1.262933244113937370e-01 3.990000000000000000e+02
-2.496674201216429800e+00 7.894389790797942119e-01 3.990000000000000000e+02
-3.574372836430710798e+00 1.705171282570981939e+00 3.990000000000000000e+02
-4.652071471644990908e+00 2.620903586062169666e+00 3.990000000000000000e+02
-5.729770106859271905e+00 3.536635889553357615e+00 3.990000000000000000e+02
1.814120339640693080e+00 -2.873490234884957140e+00 4.000000000000000000e+02
7.364217044264125267e-01 -1.957757931393769635e+00 4.000000000000000000e+02
-3.412769307878684710e-01 -1.042025627902581464e+00 4.000000000000000000e+02
-1.418975566002149247e+00 -1.262933244113937370e-01 4.000000000000000000e+02
-2.496674201216429800e+00 7.894389790797942119e-01 4.000000000000000000e+02
-3.574372836430710798e+00 1.705171282570981939e+00 4.000000000000000000e+02
-4.652071471644990908e+00 2.620903586062169666e+00 4.000000000000000000e+02
1.814120339640693080e+00 -2.873490234884957140e+00 4.010000000000000000e+02
7.364217044264125267e-01 -1.957757931393769635e+00 4.010000000000000000e+02
-3.412769307878684710e-01 -1.042025627902581464e+00 4.010000000000000000e+02
-1.418975566002149247e+00 -1.262933244113937370e-01 4.010000000000000000e+02
-2.496674201216429800e+00 7.894389790797942119e-01 4.010000000000000000e+02
-3.574372836430710798e+00 1.705171282570981939e+00 4.010000000000000000e+02
-4.652071471644990908e+00 2.620903586062169666e+00 4.010000000000000000e+02
1.814120339640693080e+00 -2.873490234884957140e+00 4.020000000000000000e+02
7.364217044264125267e-01 -1.957757931393769635e+00 4.020000000000000000e+02
-3.412769307878684710e-01 -1.042025627902581464e+00 4.020000000000000000e+02
-1.418975566002149247e+00 -1.262933244113937370e-01 4.020000000000000000e+02
-2.496674201216429800e+00 7.894389790797942119e-01 4.020000000000000000e+02
-3.574372836430710798e+00 1.705171282570981939e+00 4.020000000000000000e+02
-4.652071471644990908e+00 2.620903586062169666e+00 4.020000000000000000e+02
1.814120339640693080e+00 -2.873490234884957140e+00 4.030000000000000000e+02
7.364217044264125267e-01 -1.957757931393769635e+00 4.030000000000000000e+02
-3.412769307878684710e-01 -1.042025627902581464e+00 4.030000000000000000e+02
-1.418975566002149247e+00 -1.262933244113937370e-01 4.030000000000000000e+02
-2.496674201216429800e+00 7.894389790797942119e-01 4.030000000000000000e+02
-3.574372836430710798e+00 1.705171282570981939e+00 4.030000000000000000e+02
-4.652071471644990908e+00 2.620903586062169666e+00 4.030000000000000000e+02
1.814120339640693080e+00 -2.873490234884957140e+00 4.040000000000000000e+02
7.364217044264125267e-01 -1.957757931393769635e+00 4.040000000000000000e+02
-3.412769307878684710e-01 -1.042025627902581464e+00 4.040000000000000000e+02
-1.418975566002149247e+00 -1.262933244113937370e-01 4.040000000000000000e+02
-2.496674201216429800e+00 7.894389790797942119e-01 4.040000000000000000e+02
-3.574372836430710798e+00 1.705171282570981939e+00 4.040000000000000000e+02
-4.652071471644990908e+00 2.620903586062169666e+00 4.040000000000000000e+02
1.814120339640693080e+00 -2.873490234884957140e+00 4.050000000000000000e+02
7.364217044264125267e-01 -1.957757931393769635e+00 4.050000000000000000e+02
-3.412769307878684710e-01 -1.042025627902581464e+00 4.050000000000000000e+02
-1.418975566002149247e+00 -1.262933244113937370e-01 4.050000000000000000e+02
-2.496674201216429800e+00 7.894389790797942119e-01 4.050000000000000000e+02
-3.574372836430710798e+00 1.705171282570981939e+00 4.050000000000000000e+02
-4.652071471644990908e+00 2.620903586062169666e+00 4.050000000000000000e+02
-5.729770106859271905e+00 3.536635889553357615e+00 4.050000000000000000e+02
1.814120339640693080e+00 -2.873490234884957140e+00 4.060000000000000000e+02
7.364217044264125267e-01 -1.957757931393769635e+00 4.060000000000000000e+02
-3.412769307878684710e-01 -1.042025627902581464e+00 4.060000000000000000e+02
-1.418975566002149247e+00 -1.262933244113937370e-01 4.060000000000000000e+02
-2.496674201216429800e+00 7.894389790797942119e-01 4.060000000000000000e+02
-3.574372836430710798e+00 1.705171282570981939e+00 4.060000000000000000e+02
-4.652071471644990908e+00 2.620903586062169666e+00 4.060000000000000000e+02
-5.729770106859271905e+00 3.536635889553357615e+00 4.060000000000000000e+02
1.814120339640693080e+00 -2.873490234884957140e+00 4.070000000000000000e+02
7.364217044264125267e-01 -1.957757931393769635e+00 4.070000000000000000e+02
-3.412769307878684710e-01 -1.042025627902581464e+00 4.070000000000000000e+02
-1.418975566002149247e+00 -1.262933244113937370e-01 4.070000000000000000e+02
-2.496674201216429800e+00 7.894389790797942119e-01 4.070000000000000000e+02
-3.574372836430710798e+00 1.705171282570981939e+00 4.070000000000000000e+02
-4.652071471644990908e+00 2.620903586062169666e+00 4.070000000000000000e+02
-5.729770106859271905e+00 3.536635889553357615e+00 4.070000000000000000e+02
1.814120339640693080e+00 -2.873490234884957140e+00 4.080000000000000000e+02
7.364217044264125267e-01 -1.957757931393769635e+00 4.080000000000000000e+02
-3.412769307878684710e-01 -1.042025627902581464e+00 4.080000000000000000e+02
-1.418975566002149247e+00 -1.262933244113937370e-01 4.080000000000000000e+02
-2.496674201216429800e+00 7.894389790797942119e-01 4.080000000000000000e+02
-3.574372836430710798e+00 1.705171282570981939e+00 4.080000000000000000e+02
-4.652071471644990908e+00 2.620903586062169666e+00 4.080000000000000000e+02
-5.729770106859271905e+00 3.536635889553357615e+00 4.080000000000000000e+02
1.814120339640693080e+00 -2.873490234884957140e+00 4.090000000000000000e+02
7.364217044264125267e-01 -1.957757931393769635e+00 4.090000000000000000e+02
-3.412769307878684710e-01 -1.042025627902581464e+00 4.090000000000000000e+02
-1.418975566002149247e+00 -1.262933244113937370e-01 4.090000000000000000e+02
-2.496674201216429800e+00 7.894389790797942119e-01 4.090000000000000000e+02
-3.574372836430710798e+00 1.705171282570981939e+00 4.090000000000000000e+02
-4.652071471644990908e+00 2.620903586062169666e+00 4.090000000000000000e+02
-5.729770106859271905e+00 3.536635889553357615e+00 4.090000000000000000e+02
1.733137173779146556e+00 -1.876774765532223110e+00 4.100000000000000000e+02
6.554385385648660023e-01 -9.610424620410349394e-01 4.100000000000000000e+02
-4.222600966494149954e-01 -4.531015854984726809e-02 4.100000000000000000e+02
-1.499958731863695549e+00 8.704221449413405143e-01 4.100000000000000000e+02
-2.577657367077976325e+00 1.786154448432528463e+00 4.100000000000000000e+02
-3.655356002292257322e+00 2.701886751923716190e+00 4.100000000000000000e+02
-4.733054637506537432e+00 3.617619055414903695e+00 4.100000000000000000e+02
1.814120339640693080e+00 -2.873490234884957140e+00 4.110000000000000000e+02
7.364217044264125267e-01 -1.957757931393769635e+00 4.110000000000000000e+02
-3.412769307878684710e-01 -1.042025627902581464e+00 4.110000000000000000e+02
-1.418975566002149247e+00 -1.262933244113937370e-01 4.110000000000000000e+02
-2.496674201216429800e+00 7.894389790797942119e-01 4.110000000000000000e+02
-3.574372836430710798e+00 1.705171282570981939e+00 4.110000000000000000e+02
-4.652071471644990908e+00 2.620903586062169666e+00 4.110000000000000000e+02
-5.729770106859271905e+00 3.536635889553357615e+00 4.110000000000000000e+02
1.814120339640693080e+00 -2.873490234884957140e+00 4.120000000000000000e+02
7.364217044264125267e-01 -1.957757931393769635e+00 4.120000000000000000e+02
-3.412769307878684710e-01 -1.042025627902581464e+00 4.120000000000000000e+02
-1.418975566002149247e+00 -1.262933244113937370e-01 4.120000000000000000e+02
-2.496674201216429800e+00 7.894389790797942119e-01 4.120000000000000000e+02
-3.574372836430710798e+00 1.705171282570981939e+00 4.120000000000000000e+02
-4.652071471644990908e+00 2.620903586062169666e+00 4.120000000000000000e+02
-5.729770106859271905e+00 3.536635889553357615e+00 4.120000000000000000e+02
1.814120339640693080e+00 -2.873490234884957140e+00 4.130000000000000000e+02
7.364217044264125267e-01 -1.957757931393769635e+00 4.130000000000000000e+02
-3.412769307878684710e-01 -1.042025627902581464e+00 4.130000000000000000e+02
-1.418975566002149247e+00 -1.262933244113937370e-01 4.130000000000000000e+02
-2.496674201216429800e+00 7.894389790797942119e-01 4.130000000000000000e+02
-3.574372836430710798e+00 1.705171282570981939e+00 4.130000000000000000e+02
-4.652071471644990908e+00 2.620903586062169666e+00 4.130000000000000000e+02
-5.729770106859271905e+00 3.536635889553357615e+00 4.130000000000000000e+02
1.814120339640693080e+00 -2.873490234884957140e+00 4.140000000000000000e+02
7.364217044264125267e-01 -1.957757931393769635e+00 4.140000000000000000e+02
-3.412769307878684710e-01 -1.042025627902581464e+00 4.140000000000000000e+02
-1.418975566002149247e+00 -1.262933244113937370e-01 4.140000000000000000e+02
-2.496674201216429800e+00 7.894389790797942119e-01 4.140000000000000000e+02
-3.574372836430710798e+00 1.705171282570981939e+00 4.140000000000000000e+02
-4.652071471644990908e+00 2.620903586062169666e+00 4.140000000000000000e+02
-5.729770106859271905e+00 3.536635889553357615e+00 4.140000000000000000e+02
1.814120339640693080e+00 -2.873490234884957140e+00 4.150000000000000000e+02
7.364217044264125267e-01 -1.957757931393769635e+00 4.150000000000000000e+02
-3.412769307878684710e-01 -1.042025627902581464e+00 4.150000000000000000e+02
-1.418975566002149247e+00 -1.262933244113937370e-01 4.150000000000000000e+02
-2.496674201216429800e+00 7.894389790797942119e-01 4.150000000000000000e+02
