8.626611902333346293e+00 3.164467162236226372e-01 3.120000000000000000e+02
7.857367936823710153e+00 -8.702561621444244722e-01 3.120000000000000000e+02
7.088123971314073124e+00 -2.056959040512472026e+00 3.120000000000000000e+02
6.318880005804436095e+00 -3.243661918880519135e+00 3.120000000000000000e+02
5.549636040294799955e+00 -4.430364797248566688e+00 3.120000000000000000e+02
4.780392074785162926e+00 -5.617067675616613798e+00 3.120000000000000000e+02
4.011148109275525897e+00 -6.803770553984661795e+00 3.120000000000000000e+02
3.241904143765889756e+00 -7.990473432352709793e+00 3.120000000000000000e+02
2.472660178256252728e+00 -9.177176310720756902e+00 3.120000000000000000e+02
1.703416212746616143e+00 -1.036387918908880401e+01 3.120000000000000000e+02
9.604585324272187918e+00 5.251761726528281216e-01 3.130000000000000000e+02
8.835341358762551778e+00 -6.615267057152189878e-01 3.130000000000000000e+02
8.066097393252913861e+00 -1.848229584083266541e+00 3.130000000000000000e+02
7.296853427743277720e+00 -3.034932462451314095e+00 3.130000000000000000e+02
6.527609462233641580e+00 -4.221635340819361204e+00 3.130000000000000000e+02
5.758365496724005439e+00 -5.408338219187408313e+00 3.130000000000000000e+02
4.989121531214368410e+00 -6.595041097555456311e+00 3.130000000000000000e+02
4.219877565704731381e+00 -7.781743975923504308e+00 3.130000000000000000e+02
3.450633600195095241e+00 -8.968446854291551418e+00 3.130000000000000000e+02
2.681389634685458212e+00 -1.015514973265959853e+01 3.130000000000000000e+02
1.912145669175821183e+00 -1.134185261102764741e+01 3.130000000000000000e+02
9.604585324272187918e+00 5.251761726528281216e-01 3.140000000000000000e+02
8.835341358762551778e+00 -6.615267057152189878e-01 3.140000000000000000e+02
8.066097393252913861e+00 -1.848229584083266541e+00 3.140000000000000000e+02
7.296853427743277720e+00 -3.034932462451314095e+00 3.140000000000000000e+02
6.527609462233641580e+00 -4.221635340819361204e+00 3.140000000000000000e+02
5.758365496724005439e+00 -5.408338219187408313e+00 3.140000000000000000e+02
4.989121531214368410e+00 -6.595041097555456311e+00 3.140000000000000000e+02
4.219877565704731381e+00 -7.781743975923504308e+00 3.140000000000000000e+02
3.450633600195095241e+00 -8.968446854291551418e+00 3.140000000000000000e+02
2.681389634685458212e+00 -1.015514973265959853e+01 3.140000000000000000e+02
1.912145669175821183e+00 -1.134185261102764741e+01 3.140000000000000000e+02
9.604585324272187918e+00 5.251761726528281216e-01 3.150000000000000000e+02
8.835341358762551778e+00 -6.615267057152189878e-01 3.150000000000000000e+02
8.066097393252913861e+00 -1.848229584083266541e+00 3.150000000000000000e+02
7.296853427743277720e+00 -3.034932462451314095e+00 3.150000000000000000e+02
6.527609462233641580e+00 -4.221635340819361204e+00 3.150000000000000000e+02
5.758365496724005439e+00 -5.408338219187408313e+00 3.150000000000000000e+02
4.989121531214368410e+00 -6.595041097555456311e+00 3.150000000000000000e+02
4.219877565704731381e+00 -7.781743975923504308e+00 3.150000000000000000e+02
3.450633600195095241e+00 -8.968446854291551418e+00 3.150000000000000000e+02
2.681389634685458212e+00 -1.015514973265959853e+01 3.150000000000000000e+02
1.912145669175821183e+00 -1.134185261102764741e+01 3.150000000000000000e+02
8.626611902333346293e+00 3.164467162236226372e-01 3.160000000000000000e+02
7.857367936823710153e+00 -8.702561621444244722e-01 3.160000000000000000e+02
7.088123971314073124e+00 -2.056959040512472026e+00 3.160000000000000000e+02
6.318880005804436095e+00 -3.243661918880519135e+00 3.160000000000000000e+02
5.549636040294799955e+00 -4.430364797248566688e+00 3.160000000000000000e+02
4.780392074785162926e+00 -5.617067675616613798e+00 3.160000000000000000e+02
4.011148109275525897e+00 -6.803770553984661795e+00 3.160000000000000000e+02
3.241904143765889756e+00 -7.990473432352709793e+00 3.160000000000000000e+02
2.472660178256252728e+00 -9.177176310720756902e+00 3.160000000000000000e+02
1.703416212746616143e+00 -1.036387918908880401e+01 3.160000000000000000e+02
8.626611902333346293e+00 3.164467162236226372e-01 3.170000000000000000e+02
7.857367936823710153e+00 -8.702561621444244722e-01 3.170000000000000000e+02
7.088123971314073124e+00 -2.056959040512472026e+00 3.170000000000000000e+02
6.318880005804436095e+00 -3.243661918880519135e+00 3.170000000000000000e+02
5.549636040294799955e+00 -4.430364797248566688e+00 3.170000000000000000e+02
4.780392074785162926e+00 -5.617067675616613798e+00 3.170000000000000000e+02
4.011148109275525897e+00 -6.803770553984661795e+00 3.170000000000000000e+02
3.241904143765889756e+00 -7.990473432352709793e+00 3.170000000000000000e+02
2.472660178256252728e+00 -9.177176310720756902e+00 3.170000000000000000e+02
1.703416212746616143e+00 -1.036387918908880401e+01 3.170000000000000000e+02
8.626611902333346293e+00 3.164467162236226372e-01 3.180000000000000000e+02
7.857367936823710153e+00 -8.702561621444244722e-01 3.180000000000000000e+02
7.088123971314073124e+00 -2.056959040512472026e+00 3.180000000000000000e+02
6.318880005804436095e+00 -3.243661918880519135e+00 3.180000000000000000e+02
5.549636040294799955e+00 -4.430364797248566688e+00 3.180000000000000000e+02
4.780392074785162926e+00 -5.617067675616613798e+00 3.180000000000000000e+02
4.011148109275525897e+00 -6.803770553984661795e+00 3.180000000000000000e+02
3.241904143765889756e+00 -7.990473432352709793e+00 3.180000000000000000e+02
2.472660178256252728e+00 -9.177176310720756902e+00 3.180000000000000000e+02
1.703416212746616143e+00 -1.036387918908880401e+01 3.180000000000000000e+02
8.626611902333346293e+00 3.164467162236226372e-01 3.190000000000000000e+02
7.857367936823710153e+00 -8.702561621444244722e-01 3.190000000000000000e+02
7.088123971314073124e+00 -2.056959040512472026e+00 3.190000000000000000e+02
6.318880005804436095e+00 -3.243661918880519135e+00 3.190000000000000000e+02
5.549636040294799955e+00 -4.430364797248566688e+00 3.190000000000000000e+02
4.780392074785162926e+00 -5.617067675616613798e+00 3.190000000000000000e+02
4.011148109275525897e+00 -6.803770553984661795e+00 3.190000000000000000e+02
3.241904143765889756e+00 -7.990473432352709793e+00 3.190000000000000000e+02
2.472660178256252728e+00 -9.177176310720756902e+00 3.190000000000000000e+02
1.703416212746616143e+00 -1.036387918908880401e+01 3.190000000000000000e+02
8.626611902333346293e+00 3.164467162236226372e-01 3.200000000000000000e+02
7.857367936823710153e+00 -8.702561621444244722e-01 3.200000000000000000e+02
7.088123971314073124e+00 -2.056959040512472026e+00 3.200000000000000000e+02
6.318880005804436095e+00 -3.243661918880519135e+00 3.200000000000000000e+02
5.549636040294799955e+00 -4.430364797248566688e+00 3.200000000000000000e+02
4.780392074785162926e+00 -5.617067675616613798e+00 3.200000000000000000e+02
4.011148109275525897e+00 -6.803770553984661795e+00 3.200000000000000000e+02
3.241904143765889756e+00 -7.990473432352709793e+00 3.200000000000000000e+02
2.472660178256252728e+00 -9.177176310720756902e+00 3.200000000000000000e+02
1.703416212746616143e+00 -1.036387918908880401e+01 3.200000000000000000e+02
8.626611902333346293e+00 3.164467162236226372e-01 3.210000000000000000e+02
7.857367936823710153e+00 -8.702561621444244722e-01 3.210000000000000000e+02
7.088123971314073124e+00 -2.056959040512472026e+00 3.210000000000000000e+02
6.318880005804436095e+00 -3.243661918880519135e+00 3.210000000000000000e+02
5.549636040294799955e+00 -4.430364797248566688e+00 3.210000000000000000e+02
4.780392074785162926e+00 -5.617067675616613798e+00 3.210000000000000000e+02
4.011148109275525897e+00 -6.803770553984661795e+00 3.210000000000000000e+02
3.241904143765889756e+00 -7.990473432352709793e+00 3.210000000000000000e+02
2.472660178256252728e+00 -9.177176310720756902e+00 3.210000000000000000e+02
1.703416212746616143e+00 -1.036387918908880401e+01 3.210000000000000000e+02
8.626611902333346293e+00 3.164467162236226372e-01 3.220000000000000000e+02
7.857367936823710153e+00 -8.702561621444244722e-01 3.220000000000000000e+02
7.088123971314073124e+00 -2.056959040512472026e+00 3.220000000000000000e+02
6.318880005804436095e+00 -3.243661918880519135e+00 3.220000000000000000e+02
5.549636040294799955e+00 -4.430364797248566688e+00 3.220000000000000000e+02
4.780392074785162926e+00 -5.617067675616613798e+00 3.220000000000000000e+02
4.011148109275525897e+00 -6.803770553984661795e+00 3.220000000000000000e+02
3.241904143765889756e+00 -7.990473432352709793e+00 3.220000000000000000e+02
2.472660178256252728e+00 -9.177176310720756902e+00 3.220000000000000000e+02
1.703416212746616143e+00 -1.036387918908880401e+01 3.220000000000000000e+02
8.626611902333346293e+00 3.164467162236226372e-01 3.230000000000000000e+02
7.857367936823710153e+00 -8.702561621444244722e-01 3.230000000000000000e+02
7.088123971314073124e+00 -2.056959040512472026e+00 3.230000000000000000e+02
6.318880005804436095e+00 -3.243661918880519135e+00 3.230000000000000000e+02
5.549636040294799955e+00 -4.430364797248566688e+00 3.230000000000000000e+02
4.780392074785162926e+00 -5.617067675616613798e+00 3.230000000000000000e+02
4.011148109275525897e+00 -6.803770553984661795e+00 3.230000000000000000e+02
3.241904143765889756e+00 -7.990473432352709793e+00 3.230000000000000000e+02
2.472660178256252728e+00 -9.177176310720756902e+00 3.230000000000000000e+02
1.703416212746616143e+00 -1.036387918908880401e+01 3.230000000000000000e+02
8.626611902333346293e+00 3.164467162236226372e-01 3.240000000000000000e+02
7.857367936823710153e+00 -8.702561621444244722e-01 3.240000000000000000e+02
7.088123971314073124e+00 -2.056959040512472026e+00 3.240000000000000000e+02
6.318880005804436095e+00 -3.243661918880519135e+00 3.240000000000000000e+02
5.549636040294799955e+00 -4.430364797248566688e+00 3.240000000000000000e+02
4.780392074785162926e+00 -5.617067675616613798e+00 3.240000000000000000e+02
4.011148109275525897e+00 -6.803770553984661795e+00 3.240000000000000000e+02
3.241904143765889756e+00 -7.990473432352709793e+00 3.240000000000000000e+02
2.472660178256252728e+00 -9.177176310720756902e+00 3.240000000000000000e+02
1.703416212746616143e+00 -1.036387918908880401e+01 3.240000000000000000e+02
8.626611902333346293e+00 3.164467162236226372e-01 3.250000000000000000e+02
7.857367936823710153e+00 -8.702561621444244722e-01 3.250000000000000000e+02
7.088123971314073124e+00 -2.056959040512472026e+00 3.250000000000000000e+02
6.318880005804436095e+00 -3.243661918880519135e+00 3.250000000000000000e+02
5.549636040294799955e+00 -4.430364797248566688e+00 3.250000000000000000e+02
4.780392074785162926e+00 -5.617067675616613798e+00 3.250000000000000000e+02
4.011148109275525897e+00 -6.803770553984661795e+00 3.250000000000000000e+02
3.241904143765889756e+00 -7.990473432352709793e+00 3.250000000000000000e+02
2.472660178256252728e+00 -9.177176310720756902e+00 3.250000000000000000e+02
1.703416212746616143e+00 -1.036387918908880401e+01 3.250000000000000000e+02
8.626611902333346293e+00 3.164467162236226372e-01 3.260000000000000000e+02
7.857367936823710153e+00 -8.702561621444244722e-01 3.260000000000000000e+02
7.088123971314073124e+00 -2.056959040512472026e+00 3.260000000000000000e+02
6.318880005804436095e+00 -3.243661918880519135e+00 3.260000000000000000e+02
5.549636040294799955e+00 -4.430364797248566688e+00 3.260000000000000000e+02
4.780392074785162926e+00 -5.617067675616613798e+00 3.260000000000000000e+02
4.011148109275525897e+00 -6.803770553984661795e+00 3.260000000000000000e+02
3.241904143765889756e+00 -7.990473432352709793e+00 3.260000000000000000e+02
2.472660178256252728e+00 -9.177176310720756902e+00 3.260000000000000000e+02
1.703416212746616143e+00 -1.036387918908880401e+01 3.260000000000000000e+02
8.626611902333346293e+00 3.164467162236226372e-01 3.270000000000000000e+02
7.857367936823710153e+00 -8.702561621444244722e-01 3.270000000000000000e+02
7.088123971314073124e+00 -2.056959040512472026e+00 3.270000000000000000e+02
6.318880005804436095e+00 -3.243661918880519135e+00 3.270000000000000000e+02
5.549636040294799955e+00 -4.430364797248566688e+00 3.270000000000000000e+02
4.780392074785162926e+00 -5.617067675616613798e+00 3.270000000000000000e+02
4.011148109275525897e+00 -6.803770553984661795e+00 3.270000000000000000e+02
3.241904143765889756e+00 -7.990473432352709793e+00 3.270000000000000000e+02
2.472660178256252728e+00 -9.177176310720756902e+00 3.270000000000000000e+02
1.703416212746616143e+00 -1.036387918908880401e+01 3.270000000000000000e+02
8.626611902333346293e+00 3.164467162236226372e-01 3.280000000000000000e+02
7.857367936823710153e+00 -8.702561621444244722e-01 3.280000000000000000e+02
7.088123971314073124e+00 -2.056959040512472026e+00 3.280000000000000000e+02
6.318880005804436095e+00 -3.243661918880519135e+00 3.280000000000000000e+02
5.549636040294799955e+00 -4.430364797248566688e+00 3.280000000000000000e+02
4.780392074785162926e+00 -5.617067675616613798e+00 3.280000000000000000e+02
4.011148109275525897e+00 -6.803770553984661795e+00 3.280000000000000000e+02
3.241904143765889756e+00 -7.990473432352709793e+00 3.280000000000000000e+02
2.472660178256252728e+00 -9.177176310720756902e+00 3.280000000000000000e+02
1.703416212746616143e+00 -1.036387918908880401e+01 3.280000000000000000e+02
8.626611902333346293e+00 3.164467162236226372e-01 3.290000000000000000e+02
7.857367936823710153e+00 -8.702561621444244722e-01 3.290000000000000000e+02
7.088123971314073124e+00 -2.056959040512472026e+00 3.290000000000000000e+02
6.318880005804436095e+00 -3.243661918880519135e+00 3.290000000000000000e+02
5.549636040294799955e+00 -4.430364797248566688e+00 3.290000000000000000e+02
4.780392074785162926e+00 -5.617067675616613798e+00 3.290000000000000000e+02
4.011148109275525897e+00 -6.803770553984661795e+00 3.290000000000000000e+02
3.241904143765889756e+00 -7.990473432352709793e+00 3.290000000000000000e+02
2.472660178256252728e+00 -9.177176310720756902e+00 3.290000000000000000e+02
1.703416212746616143e+00 -1.036387918908880401e+01 3.290000000000000000e+02
8.626611902333346293e+00 3.164467162236226372e-01 3.300000000000000000e+02
7.857367936823710153e+00 -8.702561621444244722e-01 3.300000000000000000e+02
7.088123971314073124e+00 -2.056959040512472026e+00 3.300000000000000000e+02
6.318880005804436095e+00 -3.243661918880519135e+00 3.300000000000000000e+02
5.549636040294799955e+00 -4.430364797248566688e+00 3.300000000000000000e+02
4.780392074785162926e+00 -5.617067675616613798e+00 3.300000000000000000e+02
4.011148109275525897e+00 -6.803770553984661795e+00 3.300000000000000000e+02
3.241904143765889756e+00 -7.990473432352709793e+00 3.300000000000000000e+02
2.472660178256252728e+00 -9.177176310720756902e+00 3.300000000000000000e+02
1.703416212746616143e+00 -1.036387918908880401e+01 3.300000000000000000e+02
8.626611902333346293e+00 3.164467162236226372e-01 3.310000000000000000e+02
7.857367936823710153e+00 -8.702561621444244722e-01 3.310000000000000000e+02
7.088123971314073124e+00 -2.056959040512472026e+00 3.310000000000000000e+02
6.318880005804436095e+00 -3.243661918880519135e+00 3.310000000000000000e+02
5.549636040294799955e+00 -4.430364797248566688e+00 3.310000000000000000e+02
4.780392074785162926e+00 -5.617067675616613798e+00 3.310000000000000000e+02
4.011148109275525897e+00 -6.803770553984661795e+00 3.310000000000000000e+02
3.241904143765889756e+00 -7.990473432352709793e+00 3.310000000000000000e+02
2.472660178256252728e+00 -9.177176310720756902e+00 3.310000000000000000e+02
1.703416212746616143e+00 -1.036387918908880401e+01 3.310000000000000000e+02
9.604585324272187918e+00 5.251761726528281216e-01 3.320000000000000000e+02
8.835341358762551778e+00 -6.615267057152189878e-01 3.320000000000000000e+02
8.066097393252913861e+00 -1.848229584083266541e+00 3.320000000000000000e+02
7.296853427743277720e+00 -3.034932462451314095e+00 3.320000000000000000e+02
6.527609462233641580e+00 -4.221635340819361204e+00 3.320000000000000000e+02
5.758365496724005439e+00 -5.408338219187408313e+00 3.320000000000000000e+02
4.989121531214368410e+00 -6.595041097555456311e+00 3.320000000000000000e+02
4.219877565704731381e+00 -7.781743975923504308e+00 3.320000000000000000e+02
3.450633600195095241e+00 -8.968446854291551418e+00 3.320000000000000000e+02
2.681389634685458212e+00 -1.015514973265959853e+01 3.320000000000000000e+02
1.912145669175821183e+00 -1.134185261102764741e+01 3.320000000000000000e+02
8.626611902333346293e+00 3.164467162236226372e-01 3.330000000000000000e+02
7.857367936823710153e+00 -8.702561621444244722e-01 3.330000000000000000e+02
7.088123971314073124e+00 -2.056959040512472026e+00 3.330000000000000000e+02
6.318880005804436095e+00 -3.243661918880519135e+00 3.330000000000000000e+02
5.549636040294799955e+00 -4.430364797248566688e+00 3.330000000000000000e+02
4.780392074785162926e+00 -5.617067675616613798e+00 3.330000000000000000e+02
4.011148109275525897e+00 -6.803770553984661795e+00 3.330000000000000000e+02
3.241904143765889756e+00 -7.990473432352709793e+00 3.330000000000000000e+02
2.472660178256252728e+00 -9.177176310720756902e+00 3.330000000000000000e+02
1.703416212746616143e+00 -1.036387918908880401e+01 3.330000000000000000e+02
9.341722472369795582e-01 -1.155058206745685112e+01 3.330000000000000000e+02
8.626611902333346293e+00 3.164467162236226372e-01 3.340000000000000000e+02
7.857367936823710153e+00 -8.702561621444244722e-01 3.340000000000000000e+02
7.088123971314073124e+00 -2.056959040512472026e+00 3.340000000000000000e+02
6.318880005804436095e+00 -3.243661918880519135e+00 3.340000000000000000e+02
5.549636040294799955e+00 -4.430364797248566688e+00 3.340000000000000000e+02
4.780392074785162926e+00 -5.617067675616613798e+00 3.340000000000000000e+02
4.011148109275525897e+00 -6.803770553984661795e+00 3.340000000000000000e+02
3.241904143765889756e+00 -7.990473432352709793e+00 3.340000000000000000e+02
2.472660178256252728e+00 -9.177176310720756902e+00 3.340000000000000000e+02
1.703416212746616143e+00 -1.036387918908880401e+01 3.340000000000000000e+02
8.626611902333346293e+00 3.164467162236226372e-01 3.350000000000000000e+02
7.857367936823710153e+00 -8.702561621444244722e-01 3.350000000000000000e+02
7.088123971314073124e+00 -2.056959040512472026e+00 3.350000000000000000e+02
6.318880005804436095e+00 -3.243661918880519135e+00 3.350000000000000000e+02
5.549636040294799955e+00 -4.430364797248566688e+00 3.350000000000000000e+02
4.780392074785162926e+00 -5.617067675616613798e+00 3.350000000000000000e+02
4.011148109275525897e+00 -6.803770553984661795e+00 3.350000000000000000e+02
3.241904143765889756e+00 -7.990473432352709793e+00 3.350000000000000000e+02
2.472660178256252728e+00 -9.177176310720756902e+00 3.350000000000000000e+02
1.703416212746616143e+00 -1.036387918908880401e+01 3.350000000000000000e+02
8.626611902333346293e+00 3.164467162236226372e-01 3.360000000000000000e+02
7.857367936823710153e+00 -8.702561621444244722e-01 3.360000000000000000e+02
7.088123971314073124e+00 -2.056959040512472026e+00 3.360000000000000000e+02
6.318880005804436095e+00 -3.243661918880519135e+00 3.360000000000000000e+02
5.549636040294799955e+00 -4.430364797248566688e+00 3.360000000000000000e+02
4.780392074785162926e+00 -5.617067675616613798e+00 3.360000000000000000e+02
4.011148109275525897e+00 -6.803770553984661795e+00 3.360000000000000000e+02
3.241904143765889756e+00 -7.990473432352709793e+00 3.360000000000000000e+02
2.472660178256252728e+00 -9.177176310720756902e+00 3.360000000000000000e+02
1.703416212746616143e+00 -1.036387918908880401e+01 3.360000000000000000e+02
9.341722472369795582e-01 -1.155058206745685112e+01 3.360000000000000000e+02
8.626611902333346293e+00 3.164467162236226372e-01 3.370000000000000000e+02
7.857367936823710153e+00 -8.702561621444244722e-01 3.370000000000000000e+02
7.088123971314073124e+00 -2.056959040512472026e+00 3.370000000000000000e+02
6.318880005804436095e+00 -3.243661918880519135e+00 3.370000000000000000e+02
5.549636040294799955e+00 -4.430364797248566688e+00 3.370000000000000000e+02
4.780392074785162926e+00 -5.617067675616613798e+00 3.370000000000000000e+02
4.011148109275525897e+00 -6.803770553984661795e+00 3.370000000000000000e+02
3.241904143765889756e+00 -7.990473432352709793e+00 3.370000000000000000e+02
2.472660178256252728e+00 -9.177176310720756902e+00 3.370000000000000000e+02
1.703416212746616143e+00 -1.036387918908880401e+01 3.370000000000000000e+02
9.341722472369795582e-01 -1.155058206745685112e+01 3.370000000000000000e+02
8.626611902333346293e+00 3.164467162236226372e-01 3.380000000000000000e+02
7.857367936823710153e+00 -8.702561621444244722e-01 3.380000000000000000e+02
7.088123971314073124e+00 -2.056959040512472026e+00 3.380000000000000000e+02
6.318880005804436095e+00 -3.243661918880519135e+00 3.380000000000000000e+02
5.549636040294799955e+00 -4.430364797248566688e+00 3.380000000000000000e+02
4.780392074785162926e+00 -5.617067675616613798e+00 3.380000000000000000e+02
4.011148109275525897e+00 -6.803770553984661795e+00 3.380000000000000000e+02
3.241904143765889756e+00 -7.990473432352709793e+00 3.380000000000000000e+02
2.472660178256252728e+00 -9.177176310720756902e+00 3.380000000000000000e+02
1.703416212746616143e+00 -1.036387918908880401e+01 3.380000000000000000e+02
8.626611902333346293e+00 3.164467162236226372e-01 3.390000000000000000e+02
7.857367936823710153e+00 -8.702561621444244722e-01 3.390000000000000000e+02
7.088123971314073124e+00 -2.056959040512472026e+00 3.390000000000000000e+02
6.318880005804436095e+00 -3.243661918880519135e+00 3.390000000000000000e+02
5.549636040294799955e+00 -4.430364797248566688e+00 3.390000000000000000e+02
4.780392074785162926e+00 -5.617067675616613798e+00 3.390000000000000000e+02
4.011148109275525897e+00 -6.803770553984661795e+00 3.390000000000000000e+02
3.241904143765889756e+00 -7.990473432352709793e+00 3.390000000000000000e+02
2.472660178256252728e+00 -9.177176310720756902e+00 3.390000000000000000e+02
1.703416212746616143e+00 -1.036387918908880401e+01 3.390000000000000000e+02
8.626611902333346293e+00 3.164467162236226372e-01 3.400000000000000000e+02
7.857367936823710153e+00 -8.702561621444244722e-01 3.400000000000000000e+02
7.088123971314073124e+00 -2.056959040512472026e+00 3.400000000000000000e+02
6.318880005804436095e+00 -3.243661918880519135e+00 3.400000000000000000e+02
5.549636040294799955e+00 -4.430364797248566688e+00 3.400000000000000000e+02
4.780392074785162926e+00 -5.617067675616613798e+00 3.400000000000000000e+02
4.011148109275525897e+00 -6.803770553984661795e+00 3.400000000000000000e+02
3.241904143765889756e+00 -7.990473432352709793e+00 3.400000000000000000e+02
2.472660178256252728e+00 -9.177176310720756902e+00 3.400000000000000000e+02
1.703416212746616143e+00 -1.036387918908880401e+01 3.400000000000000000e+02
8.626611902333346293e+00 3.164467162236226372e-01 3.410000000000000000e+02
7.857367936823710153e+00 -8.702561621444244722e-01 3.410000000000000000e+02
7.088123971314073124e+00 -2.056959040512472026e+00 3.410000000000000000e+02
6.318880005804436095e+00 -3.243661918880519135e+00 3.410000000000000000e+02
5.549636040294799955e+00 -4.430364797248566688e+00 3.410000000000000000e+02
4.780392074785162926e+00 -5.617067675616613798e+00 3.410000000000000000e+02
4.011148109275525897e+00 -6.803770553984661795e+00 3.410000000000000000e+02
3.241904143765889756e+00 -7.990473432352709793e+00 3.410000000000000000e+02
2.472660178256252728e+00 -9.177176310720756902e+00 3.410000000000000000e+02
1.703416212746616143e+00 -1.036387918908880401e+01 3.410000000000000000e+02
8.626611902333346293e+00 3.164467162236226372e-01 3.420000000000000000e+02
7.857367936823710153e+00 -8.702561621444244722e-01 3.420000000000000000e+02
7.088123971314073124e+00 -2.056959040512472026e+00 3.420000000000000000e+02
6.318880005804436095e+00 -3.243661918880519135e+00 3.420000000000000000e+02
5.549636040294799955e+00 -4.430364797248566688e+00 3.420000000000000000e+02
4.780392074785162926e+00 -5.617067675616613798e+00 3.420000000000000000e+02
4.011148109275525897e+00 -6.803770553984661795e+00 3.420000000000000000e+02
3.241904143765889756e+00 -7.990473432352709793e+00 3.420000000000000000e+02
2.472660178256252728e+00 -9.177176310720756902e+00 3.420000000000000000e+02
1.703416212746616143e+00 -1.036387918908880401e+01 3.420000000000000000e+02
8.626611902333346293e+00 3.164467162236226372e-01 3.430000000000000000e+02
7.857367936823710153e+00 -8.702561621444244722e-01 3.430000000000000000e+02
7.088123971314073124e+00 -2.056959040512472026e+00 3.430000000000000000e+02
6.318880005804436095e+00 -3.243661918880519135e+00 3.430000000000000000e+02
5.549636040294799955e+00 -4.430364797248566688e+00 3.430000000000000000e+02
4.780392074785162926e+00 -5.617067675616613798e+00 3.430000000000000000e+02
4.011148109275525897e+00 -6.803770553984661795e+00 3.430000000000000000e+02
3.241904143765889756e+00 -7.990473432352709793e+00 3.430000000000000000e+02
2.472660178256252728e+00 -9.177176310720756902e+00 3.430000000000000000e+02
1.703416212746616143e+00 -1.036387918908880401e+01 3.430000000000000000e+02
8.626611902333346293e+00 3.164467162236226372e-01 3.440000000000000000e+02
7.857367936823710153e+00 -8.702561621444244722e-01 3.440000000000000000e+02
7.088123971314073124e+00 -2.056959040512472026e+00 3.440000000000000000e+02
6.318880005804436095e+00 -3.243661918880519135e+00 3.440000000000000000e+02
5.549636040294799955e+00 -4.430364797248566688e+00 3.440000000000000000e+02
4.780392074785162926e+00 -5.617067675616613798e+00 3.440000000000000000e+02
4.011148109275525897e+00 -6.803770553984661795e+00 3.440000000000000000e+02
3.241904143765889756e+00 -7.990473432352709793e+00 3.440000000000000000e+02
2.472660178256252728e+00 -9.177176310720756902e+00 3.440000000000000000e+02
1.703416212746616143e+00 -1.036387918908880401e+01 3.440000000000000000e+02
8.626611902333346293e+00 3.164467162236226372e-01 3.450000000000000000e+02
7.857367936823710153e+00 -8.702561621444244722e-01 3.450000000000000000e+02
7.088123971314073124e+00 -2.056959040512472026e+00 3.450000000000000000e+02
6.318880005804436095e+00 -3.243661918880519135e+00 3.450000000000000000e+02
5.549636040294799955e+00 -4.430364797248566688e+00 3.450000000000000000e+02
4.780392074785162926e+00 -5.617067675616613798e+00 3.450000000000000000e+02
4.011148109275525897e+00 -6.803770553984661795e+00 3.450000000000000000e+02
3.241904143765889756e+00 -7.990473432352709793e+00 3.450000000000000000e+02
2.472660178256252728e+00 -9.177176310720756902e+00 3.450000000000000000e+02
1.703416212746616143e+00 -1.036387918908880401e+01 3.450000000000000000e+02
7.648638480394504668e+00 1.077172597944171528e-01 3.460000000000000000e+02
6.879394514884867640e+00 -1.078985618573629957e+00 3.460000000000000000e+02
6.110150549375230611e+00 -2.265688496941677510e+00 3.460000000000000000e+02
5.340906583865594470e+00 -3.452391375309724619e+00 3.460000000000000000e+02
4.571662618355957441e+00 -4.639094253677772173e+00 3.460000000000000000e+02
3.802418652846320857e+00 -5.825797132045819282e+00 3.460000000000000000e+02
3.033174687336684272e+00 -7.012500010413866391e+00 3.460000000000000000e+02
2.263930721827047243e+00 -8.199202888781915277e+00 3.460000000000000000e+02
1.494686756317410659e+00 -9.385905767149962386e+00 3.460000000000000000e+02
7.648638480394504668e+00 1.077172597944171528e-01 3.470000000000000000e+02
6.879394514884867640e+00 -1.078985618573629957e+00 3.470000000000000000e+02
6.110150549375230611e+00 -2.265688496941677510e+00 3.470000000000000000e+02
5.340906583865594470e+00 -3.452391375309724619e+00 3.470000000000000000e+02
4.571662618355957441e+00 -4.639094253677772173e+00 3.470000000000000000e+02
3.802418652846320857e+00 -5.825797132045819282e+00 3.470000000000000000e+02
3.033174687336684272e+00 -7.012500010413866391e+00 3.470000000000000000e+02
2.263930721827047243e+00 -8.199202888781915277e+00 3.470000000000000000e+02
1.494686756317410659e+00 -9.385905767149962386e+00 3.470000000000000000e+02
7.254427908077745180e-01 -1.057260864551800950e+01 3.470000000000000000e+02
8.626611902333346293e+00 3.164467162236226372e-01 3.480000000000000000e+02
7.857367936823710153e+00 -8.702561621444244722e-01 3.480000000000000000e+02
7.088123971314073124e+00 -2.056959040512472026e+00 3.480000000000000000e+02
6.318880005804436095e+00 -3.243661918880519135e+00 3.480000000000000000e+02
5.549636040294799955e+00 -4.430364797248566688e+00 3.480000000000000000e+02
4.780392074785162926e+00 -5.617067675616613798e+00 3.480000000000000000e+02
4.011148109275525897e+00 -6.803770553984661795e+00 3.480000000000000000e+02
3.241904143765889756e+00 -7.990473432352709793e+00 3.480000000000000000e+02
2.472660178256252728e+00 -9.177176310720756902e+00 3.480000000000000000e+02
1.703416212746616143e+00 -1.036387918908880401e+01 3.480000000000000000e+02
9.341722472369795582e-01 -1.155058206745685112e+01 3.480000000000000000e+02
8.626611902333346293e+00 3.164467162236226372e-01 3.490000000000000000e+02
7.857367936823710153e+00 -8.702561621444244722e-01 3.490000000000000000e+02
7.088123971314073124e+00 -2.056959040512472026e+00 3.490000000000000000e+02
6.318880005804436095e+00 -3.243661918880519135e+00 3.490000000000000000e+02
5.549636040294799955e+00 -4.430364797248566688e+00 3.490000000000000000e+02
4.780392074785162926e+00 -5.617067675616613798e+00 3.490000000000000000e+02
4.011148109275525897e+00 -6.803770553984661795e+00 3.490000000000000000e+02
3.241904143765889756e+00 -7.990473432352709793e+00 3.490000000000000000e+02
2.472660178256252728e+00 -9.177176310720756902e+00 3.490000000000000000e+02
1.703416212746616143e+00 -1.036387918908880401e+01 3.490000000000000000e+02
9.341722472369795582e-01 -1.155058206745685112e+01 3.490000000000000000e+02
8.626611902333346293e+00 3.164467162236226372e-01 3.500000000000000000e+02
7.857367936823710153e+00 -8.702561621444244722e-01 3.500000000000000000e+02
7.088123971314073124e+00 -2.056959040512472026e+00 3.500000000000000000e+02
6.318880005804436095e+00 -3.243661918880519135e+00 3.500000000000000000e+02
5.549636040294799955e+00 -4.430364797248566688e+00 3.500000000000000000e+02
4.780392074785162926e+00 -5.617067675616613798e+00 3.500000000000000000e+02
4.011148109275525897e+00 -6.803770553984661795e+00 3.500000000000000000e+02
3.241904143765889756e+00 -7.990473432352709793e+00 3.500000000000000000e+02
2.472660178256252728e+00 -9.177176310720756902e+00 3.500000000000000000e+02
1.703416212746616143e+00 -1.036387918908880401e+01 3.500000000000000000e+02
9.341722472369795582e-01 -1.155058206745685112e+01 3.500000000000000000e+02
7.648638480394504668e+00 1.077172597944171528e-01 3.510000000000000000e+02
6.879394514884867640e+00 -1.078985618573629957e+00 3.510000000000000000e+02
6.110150549375230611e+00 -2.265688496941677510e+00 3.510000000000000000e+02
5.340906583865594470e+00 -3.452391375309724619e+00 3.510000000000000000e+02
4.571662618355957441e+00 -4.639094253677772173e+00 3.510000000000000000e+02
3.802418652846320857e+00 -5.825797132045819282e+00 3.510000000000000000e+02
3.033174687336684272e+00 -7.012500010413866391e+00 3.510000000000000000e+02
2.263930721827047243e+00 -8.199202888781915277e+00 3.510000000000000000e+02
1.494686756317410659e+00 -9.385905767149962386e+00 3.510000000000000000e+02
7.254427908077745180e-01 -1.057260864551800950e+01 3.510000000000000000e+02
7.648638480394504668e+00 1.077172597944171528e-01 3.520000000000000000e+02
6.879394514884867640e+00 -1.078985618573629957e+00 3.520000000000000000e+02
6.110150549375230611e+00 -2.265688496941677510e+00 3.520000000000000000e+02
5.340906583865594470e+00 -3.452391375309724619e+00 3.520000000000000000e+02
4.571662618355957441e+00 -4.639094253677772173e+00 3.520000000000000000e+02
3.802418652846320857e+00 -5.825797132045819282e+00 3.520000000000000000e+02
3.033174687336684272e+00 -7.012500010413866391e+00 3.520000000000000000e+02
2.263930721827047243e+00 -8.199202888781915277e+00 3.520000000000000000e+02
1.494686756317410659e+00 -9.385905767149962386e+00 3.520000000000000000e+02
7.254427908077745180e-01 -1.057260864551800950e+01 3.520000000000000000e+02
7.648638480394504668e+00 1.077172597944171528e-01 3.530000000000000000e+02
6.879394514884867640e+00 -1.078985618573629957e+00 3.530000000000000000e+02
6.110150549375230611e+00 -2.265688496941677510e+00 3.530000000000000000e+02
5.340906583865594470e+00 -3.452391375309724619e+00 3.530000000000000000e+02
4.571662618355957441e+00 -4.639094253677772173e+00 3.530000000000000000e+02
3.802418652846320857e+00 -5.825797132045819282e+00 3.530000000000000000e+02
3.033174687336684272e+00 -7.012500010413866391e+00 3.530000000000000000e+02
2.263930721827047243e+00 -8.199202888781915277e+00 3.530000000000000000e+02
1.494686756317410659e+00 -9.385905767149962386e+00 3.530000000000000000e+02
7.254427908077745180e-01 -1.057260864551800950e+01 3.530000000000000000e+02
7.648638480394504668e+00 1.077172597944171528e-01 3.540000000000000000e+02
6.879394514884867640e+00 -1.078985618573629957e+00 3.540000000000000000e+02
6.110150549375230611e+00 -2.265688496941677510e+00 3.540000000000000000e+02
5.340906583865594470e+00 -3.452391375309724619e+00 3.540000000000000000e+02
4.571662618355957441e+00 -4.639094253677772173e+00 3.540000000000000000e+02
3.802418652846320857e+00 -5.825797132045819282e+00 3.540000000000000000e+02
3.033174687336684272e+00 -7.012500010413866391e+00 3.540000000000000000e+02
2.263930721827047243e+00 -8.199202888781915277e+00 3.540000000000000000e+02
1.494686756317410659e+00 -9.385905767149962386e+00 3.540000000000000000e+02
7.254427908077745180e-01 -1.057260864551800950e+01 3.540000000000000000e+02
7.648638480394504668e+00 1.077172597944171528e-01 3.550000000000000000e+02
6.879394514884867640e+00 -1.078985618573629957e+00 3.550000000000000000e+02
6.110150549375230611e+00 -2.265688496941677510e+00 3.550000000000000000e+02
5.340906583865594470e+00 -3.452391375309724619e+00 3.550000000000000000e+02
4.571662618355957441e+00 -4.639094253677772173e+00 3.550000000000000000e+02
3.802418652846320857e+00 -5.825797132045819282e+00 3.550000000000000000e+02
3.033174687336684272e+00 -7.012500010413866391e+00 3.550000000000000000e+02
2.263930721827047243e+00 -8.199202888781915277e+00 3.550000000000000000e+02
1.494686756317410659e+00 -9.385905767149962386e+00 3.550000000000000000e+02
7.254427908077745180e-01 -1.057260864551800950e+01 3.550000000000000000e+02
7.648638480394504668e+00 1.077172597944171528e-01 3.560000000000000000e+02
6.879394514884867640e+00 -1.078985618573629957e+00 3.560000000000000000e+02
6.110150549375230611e+00 -2.265688496941677510e+00 3.560000000000000000e+02
5.340906583865594470e+00 -3.452391375309724619e+00 3.560000000000000000e+02
4.571662618355957441e+00 -4.639094253677772173e+00 3.560000000000000000e+02
3.802418652846320857e+00 -5.825797132045819282e+00 3.560000000000000000e+02
3.033174687336684272e+00 -7.012500010413866391e+00 3.560000000000000000e+02
2.263930721827047243e+00 -8.199202888781915277e+00 3.560000000000000000e+02
1.494686756317410659e+00 -9.385905767149962386e+00 3.560000000000000000e+02
8.626611902333346293e+00 3.164467162236226372e-01 3.570000000000000000e+02
7.857367936823710153e+00 -8.702561621444244722e-01 3.570000000000000000e+02
7.088123971314073124e+00 -2.056959040512472026e+00 3.570000000000000000e+02
6.318880005804436095e+00 -3.243661918880519135e+00 3.570000000000000000e+02
5.549636040294799955e+00 -4.430364797248566688e+00 3.570000000000000000e+02
4.780392074785162926e+00 -5.617067675616613798e+00 3.570000000000000000e+02
4.011148109275525897e+00 -6.803770553984661795e+00 3.570000000000000000e+02
3.241904143765889756e+00 -7.990473432352709793e+00 3.570000000000000000e+02
2.472660178256252728e+00 -9.177176310720756902e+00 3.570000000000000000e+02
1.703416212746616143e+00 -1.036387918908880401e+01 3.570000000000000000e+02
8.626611902333346293e+00 3.164467162236226372e-01 3.580000000000000000e+02
7.857367936823710153e+00 -8.702561621444244722e-01 3.580000000000000000e+02
7.088123971314073124e+00 -2.056959040512472026e+00 3.580000000000000000e+02
6.318880005804436095e+00 -3.243661918880519135e+00 3.580000000000000000e+02
5.549636040294799955e+00 -4.430364797248566688e+00 3.580000000000000000e+02
4.780392074785162926e+00 -5.617067675616613798e+00 3.580000000000000000e+02
4.011148109275525897e+00 -6.803770553984661795e+00 3.580000000000000000e+02
3.241904143765889756e+00 -7.990473432352709793e+00 3.580000000000000000e+02
2.472660178256252728e+00 -9.177176310720756902e+00 3.580000000000000000e+02
1.703416212746616143e+00 -1.036387918908880401e+01 3.580000000000000000e+02
9.341722472369795582e-01 -1.155058206745685112e+01 3.580000000000000000e+02
8.626611902333346293e+00 3.164467162236226372e-01 3.590000000000000000e+02
7.857367936823710153e+00 -8.702561621444244722e-01 3.590000000000000000e+02
7.088123971314073124e+00 -2.056959040512472026e+00 3.590000000000000000e+02
6.318880005804436095e+00 -3.243661918880519135e+00 3.590000000000000000e+02
5.549636040294799955e+00 -4.430364797248566688e+00 3.590000000000000000e+02
4.780392074785162926e+00 -5.617067675616613798e+00 3.590000000000000000e+02
4.011148109275525897e+00 -6.803770553984661795e+00 3.590000000000000000e+02
3.241904143765889756e+00 -7.990473432352709793e+00 3.590000000000000000e+02
2.472660178256252728e+00 -9.177176310720756902e+00 3.590000000000000000e+02
1.703416212746616143e+00 -1.036387918908880401e+01 3.590000000000000000e+02
9.341722472369795582e-01 -1.155058206745685112e+01 3.590000000000000000e+02
8.626611902333346293e+00 3.164467162236226372e-01 3.600000000000000000e+02
7.857367936823710153e+00 -8.702561621444244722e-01 3.600000000000000000e+02
7.088123971314073124e+00 -2.056959040512472026e+00 3.600000000000000000e+02
6.318880005804436095e+00 -3.243661918880519135e+00 3.600000000000000000e+02
5.549636040294799955e+00 -4.430364797248566688e+00 3.600000000000000000e+02
4.780392074785162926e+00 -5.617067675616613798e+00 3.600000000000000000e+02
4.011148109275525897e+00 -6.803770553984661795e+00 3.600000000000000000e+02
3.241904143765889756e+00 -7.990473432352709793e+00 3.600000000000000000e+02
2.472660178256252728e+00 -9.177176310720756902e+00 3.600000000000000000e+02
1.703416212746616143e+00 -1.036387918908880401e+01 3.600000000000000000e+02
9.341722472369795582e-01 -1.155058206745685112e+01 3.600000000000000000e+02
8.626611902333346293e+00 3.164467162236226372e-01 3.610000000000000000e+02
7.857367936823710153e+00 -8.702561621444244722e-01 3.610000000000000000e+02
7.088123971314073124e+00 -2.056959040512472026e+00 3.610000000000000000e+02
6.318880005804436095e+00 -3.243661918880519135e+00 3.610000000000000000e+02
5.549636040294799955e+00 -4.430364797248566688e+00 3.610000000000000000e+02
4.780392074785162926e+00 -5.617067675616613798e+00 3.610000000000000000e+02
4.011148109275525897e+00 -6.803770553984661795e+00 3.610000000000000000e+02
3.241904143765889756e+00 -7.990473432352709793e+00 3.610000000000000000e+02
2.472660178256252728e+00 -9.177176310720756902e+00 3.610000000000000000e+02
1.703416212746616143e+00 -1.036387918908880401e+01 3.610000000000000000e+02
9.341722472369795582e-01 -1.155058206745685112e+01 3.610000000000000000e+02
8.626611902333346293e+00 3.164467162236226372e-01 3.620000000000000000e+02
7.857367936823710153e+00 -8.702561621444244722e-01 3.620000000000000000e+02
7.088123971314073124e+00 -2.056959040512472026e+00 3.620000000000000000e+02
6.318880005804436095e+00 -3.243661918880519135e+00 3.620000000000000000e+02
5.549636040294799955e+00 -4.430364797248566688e+00 3.620000000000000000e+02
4.780392074785162926e+00 -5.617067675616613798e+00 3.620000000000000000e+02
4.011148109275525897e+00 -6.803770553984661795e+00 3.620000000000000000e+02
3.241904143765889756e+00 -7.990473432352709793e+00 3.620000000000000000e+02
2.472660178256252728e+00 -9.177176310720756902e+00 3.620000000000000000e+02
1.703416212746616143e+00 -1.036387918908880401e+01 3.620000000000000000e+02
9.341722472369795582e-01 -1.155058206745685112e+01 3.620000000000000000e+02
8.626611902333346293e+00 3.164467162236226372e-01 3.630000000000000000e+02
7.857367936823710153e+00 -8.702561621444244722e-01 3.630000000000000000e+02
7.088123971314073124e+00 -2.056959040512472026e+00 3.630000000000000000e+02
6.318880005804436095e+00 -3.243661918880519135e+00 3.630000000000000000e+02
5.549636040294799955e+00 -4.430364797248566688e+00 3.630000000000000000e+02
4.780392074785162926e+00 -5.617067675616613798e+00 3.630000000000000000e+02
4.011148109275525897e+00 -6.803770553984661795e+00 3.630000000000000000e+02
3.241904143765889756e+00 -7.990473432352709793e+00 3.630000000000000000e+02
2.472660178256252728e+00 -9.177176310720756902e+00 3.630000000000000000e+02
1.703416212746616143e+00 -1.036387918908880401e+01 3.630000000000000000e+02
9.341722472369795582e-01 -1.155058206745685112e+01 3.630000000000000000e+02
7.648638480394504668e+00 1.077172597944171528e-01 3.640000000000000000e+02
6.879394514884867640e+00 -1.078985618573629957e+00 3.640000000000000000e+02
6.110150549375230611e+00 -2.265688496941677510e+00 3.640000000000000000e+02
5.340906583865594470e+00 -3.452391375309724619e+00 3.640000000000000000e+02
4.571662618355957441e+00 -4.639094253677772173e+00 3.640000000000000000e+02
3.802418652846320857e+00 -5.825797132045819282e+00 3.640000000000000000e+02
3.033174687336684272e+00 -7.012500010413866391e+00 3.640000000000000000e+02
2.263930721827047243e+00 -8.199202888781915277e+00 3.640000000000000000e+02
1.494686756317410659e+00 -9.385905767149962386e+00 3.640000000000000000e+02
7.254427908077745180e-01 -1.057260864551800950e+01 3.640000000000000000e+02
7.648638480394504668e+00 1.077172597944171528e-01 3.650000000000000000e+02
6.879394514884867640e+00 -1.078985618573629957e+00 3.650000000000000000e+02
6.110150549375230611e+00 -2.265688496941677510e+00 3.650000000000000000e+02
5.340906583865594470e+00 -3.452391375309724619e+00 3.650000000000000000e+02
4.571662618355957441e+00 -4.639094253677772173e+00 3.650000000000000000e+02
3.802418652846320857e+00 -5.825797132045819282e+00 3.650000000000000000e+02
3.033174687336684272e+00 -7.012500010413866391e+00 3.650000000000000000e+02
2.263930721827047243e+00 -8.199202888781915277e+00 3.650000000000000000e+02
1.494686756317410659e+00 -9.385905767149962386e+00 3.650000000000000000e+02
7.254427908077745180e-01 -1.057260864551800950e+01 3.650000000000000000e+02
7.648638480394504668e+00 1.077172597944171528e-01 3.660000000000000000e+02
6.879394514884867640e+00 -1.078985618573629957e+00 3.660000000000000000e+02
6.110150549375230611e+00 -2.265688496941677510e+00 3.660000000000000000e+02
5.340906583865594470e+00 -3.452391375309724619e+00 3.660000000000000000e+02
4.571662618355957441e+00 -4.639094253677772173e+00 3.660000000000000000e+02
3.802418652846320857e+00 -5.825797132045819282e+00 3.660000000000000000e+02
3.033174687336684272e+00 -7.012500010413866391e+00 3.660000000000000000e+02
2.263930721827047243e+00 -8.199202888781915277e+00 3.660000000000000000e+02
1.494686756317410659e+00 -9.385905767149962386e+00 3.660000000000000000e+02
7.254427908077745180e-01 -1.057260864551800950e+01 3.660000000000000000e+02
7.648638480394504668e+00 1.077172597944171528e-01 3.670000000000000000e+02
6.879394514884867640e+00 -1.078985618573629957e+00 3.670000000000000000e+02
6.110150549375230611e+00 -2.265688496941677510e+00 3.670000000000000000e+02
5.340906583865594470e+00 -3.452391375309724619e+00 3.670000000000000000e+02
4.571662618355957441e+00 -4.639094253677772173e+00 3.670000000000000000e+02
3.802418652846320857e+00 -5.825797132045819282e+00 3.670000000000000000e+02
3.033174687336684272e+00 -7.012500010413866391e+00 3.670000000000000000e+02
2.263930721827047243e+00 -8.199202888781915277e+00 3.670000000000000000e+02
1.494686756317410659e+00 -9.385905767149962386e+00 3.670000000000000000e+02
7.254427908077745180e-01 -1.057260864551800950e+01 3.670000000000000000e+02
7.648638480394504668e+00 1.077172597944171528e-01 3.680000000000000000e+02
6.879394514884867640e+00 -1.078985618573629957e+00 3.680000000000000000e+02
6.110150549375230611e+00 -2.265688496941677510e+00 3.680000000000000000e+02
5.340906583865594470e+00 -3.452391375309724619e+00 3.680000000000000000e+02
4.571662618355957441e+00 -4.639094253677772173e+00 3.680000000000000000e+02
3.802418652846320857e+00 -5.825797132045819282e+00 3.680000000000000000e+02
3.033174687336684272e+00 -7.012500010413866391e+00 3.680000000000000000e+02
2.263930721827047243e+00 -8.199202888781915277e+00 3.680000000000000000e+02
1.494686756317410659e+00 -9.385905767149962386e+00 3.680000000000000000e+02
7.254427908077745180e-01 -1.057260864551800950e+01 3.680000000000000000e+02
7.648638480394504668e+00 1.077172597944171528e-01 3.690000000000000000e+02
6.879394514884867640e+00 -1.078985618573629957e+00 3.690000000000000000e+02
6.110150549375230611e+00 -2.265688496941677510e+00 3.690000000000000000e+02
5.340906583865594470e+00 -3.452391375309724619e+00 3.690000000000000000e+02
4.571662618355957441e+00 -4.639094253677772173e+00 3.690000000000000000e+02
3.802418652846320857e+00 -5.825797132045819282e+00 3.690000000000000000e+02
3.033174687336684272e+00 -7.012500010413866391e+00 3.690000000000000000e+02
2.263930721827047243e+00 -8.199202888781915277e+00 3.690000000000000000e+02
1.494686756317410659e+00 -9.385905767149962386e+00 3.690000000000000000e+02
7.254427908077745180e-01 -1.057260864551800950e+01 3.690000000000000000e+02
7.648638480394504668e+00 1.077172597944171528e-01 3.700000000000000000e+02
6.879394514884867640e+00 -1.078985618573629957e+00 3.700000000000000000e+02
6.110150549375230611e+00 -2.265688496941677510e+00 3.700000000000000000e+02
5.340906583865594470e+00 -3.452391375309724619e+00 3.700000000000000000e+02
4.571662618355957441e+00 -4.639094253677772173e+00 3.700000000000000000e+02
3.802418652846320857e+00 -5.825797132045819282e+00 3.700000000000000000e+02
3.033174687336684272e+00 -7.012500010413866391e+00 3.700000000000000000e+02
2.263930721827047243e+00 -8.199202888781915277e+00 3.700000000000000000e+02
1.494686756317410659e+00 -9.385905767149962386e+00 3.700000000000000000e+02
7.254427908077745180e-01 -1.057260864551800950e+01 3.700000000000000000e+02
7.648638480394504668e+00 1.077172597944171528e-01 3.710000000000000000e+02
6.879394514884867640e+00 -1.078985618573629957e+00 3.710000000000000000e+02
6.110150549375230611e+00 -2.265688496941677510e+00 3.710000000000000000e+02
5.340906583865594470e+00 -3.452391375309724619e+00 3.710000000000000000e+02
4.571662618355957441e+00 -4.639094253677772173e+00 3.710000000000000000e+02
3.802418652846320857e+00 -5.825797132045819282e+00 3.710000000000000000e+02
3.033174687336684272e+00 -7.012500010413866391e+00 3.710000000000000000e+02
2.263930721827047243e+00 -8.199202888781915277e+00 3.710000000000000000e+02
1.494686756317410659e+00 -9.385905767149962386e+00 3.710000000000000000e+02
7.254427908077745180e-01 -1.057260864551800950e+01 3.710000000000000000e+02
7.648638480394504668e+00 1.077172597944171528e-01 3.720000000000000000e+02
6.879394514884867640e+00 -1.078985618573629957e+00 3.720000000000000000e+02
6.110150549375230611e+00 -2.265688496941677510e+00 3.720000000000000000e+02
5.340906583865594470e+00 -3.452391375309724619e+00 3.720000000000000000e+02
4.571662618355957441e+00 -4.639094253677772173e+00 3.720000000000000000e+02
3.802418652846320857e+00 -5.825797132045819282e+00 3.720000000000000000e+02
3.033174687336684272e+00 -7.012500010413866391e+00 3.720000000000000000e+02
2.263930721827047243e+00 -8.199202888781915277e+00 3.720000000000000000e+02
1.494686756317410659e+00 -9.385905767149962386e+00 3.720000000000000000e+02
7.254427908077745180e-01 -1.057260864551800950e+01 3.720000000000000000e+02
7.648638480394504668e+00 1.077172597944171528e-01 3.730000000000000000e+02
6.879394514884867640e+00 -1.078985618573629957e+00 3.730000000000000000e+02
6.110150549375230611e+00 -2.265688496941677510e+00 3.730000000000000000e+02
5.340906583865594470e+00 -3.452391375309724619e+00 3.730000000000000000e+02
4.571662618355957441e+00 -4.639094253677772173e+00 3.730000000000000000e+02
3.802418652846320857e+00 -5.825797132045819282e+00 3.730000000000000000e+02
3.033174687336684272e+00 -7.012500010413866391e+00 3.730000000000000000e+02
2.263930721827047243e+00 -8.199202888781915277e+00 3.730000000000000000e+02
