1.280563438865880421e-01 -1.679867341143548076e+00 3.410000000000000000e+02
1.516841715525644840e+00 -1.946841481317023614e+00 3.410000000000000000e+02
2.905627087164701638e+00 -2.213815621490499375e+00 3.410000000000000000e+02
4.294412458803758881e+00 -2.480789761663975135e+00 3.410000000000000000e+02
5.683197830442814791e+00 -2.747763901837450895e+00 3.410000000000000000e+02
7.071983202081872477e+00 -3.014738042010927099e+00 3.410000000000000000e+02
8.460768573720928387e+00 -3.281712182184402860e+00 3.410000000000000000e+02
9.849553945359986074e+00 -3.548686322357878176e+00 3.410000000000000000e+02
1.123833931699904198e+01 -3.815660462531353936e+00 3.410000000000000000e+02
-1.260729027752468312e+00 -1.412893200970072538e+00 3.420000000000000000e+02
1.280563438865880421e-01 -1.679867341143548076e+00 3.420000000000000000e+02
1.516841715525644840e+00 -1.946841481317023614e+00 3.420000000000000000e+02
2.905627087164701638e+00 -2.213815621490499375e+00 3.420000000000000000e+02
4.294412458803758881e+00 -2.480789761663975135e+00 3.420000000000000000e+02
5.683197830442814791e+00 -2.747763901837450895e+00 3.420000000000000000e+02
7.071983202081872477e+00 -3.014738042010927099e+00 3.420000000000000000e+02
8.460768573720928387e+00 -3.281712182184402860e+00 3.420000000000000000e+02
9.849553945359986074e+00 -3.548686322357878176e+00 3.420000000000000000e+02
1.123833931699904198e+01 -3.815660462531353936e+00 3.420000000000000000e+02
-6.998234120196782371e-01 -2.240772956876338817e+00 3.430000000000000000e+02
6.889619596193785611e-01 -2.507747097049814577e+00 3.430000000000000000e+02
2.077747331258435359e+00 -2.774721237223290338e+00 3.430000000000000000e+02
3.466532702897492157e+00 -3.041695377396766098e+00 3.430000000000000000e+02
4.855318074536548956e+00 -3.308669517570241414e+00 3.430000000000000000e+02
6.244103446175605754e+00 -3.575643657743717618e+00 3.430000000000000000e+02
7.632888817814662552e+00 -3.842617797917193379e+00 3.430000000000000000e+02
9.021674189453719350e+00 -4.109591938090668251e+00 3.430000000000000000e+02
1.041045956109277526e+01 -4.376566078264144011e+00 3.430000000000000000e+02
-6.998234120196782371e-01 -2.240772956876338817e+00 3.440000000000000000e+02
6.889619596193785611e-01 -2.507747097049814577e+00 3.440000000000000000e+02
2.077747331258435359e+00 -2.774721237223290338e+00 3.440000000000000000e+02
3.466532702897492157e+00 -3.041695377396766098e+00 3.440000000000000000e+02
4.855318074536548956e+00 -3.308669517570241414e+00 3.440000000000000000e+02
6.244103446175605754e+00 -3.575643657743717618e+00 3.440000000000000000e+02
7.632888817814662552e+00 -3.842617797917193379e+00 3.440000000000000000e+02
9.021674189453719350e+00 -4.109591938090668251e+00 3.440000000000000000e+02
1.041045956109277526e+01 -4.376566078264144011e+00 3.440000000000000000e+02
1.179924493273183295e+01 -4.643540218437619771e+00 3.440000000000000000e+02
-1.260729027752468312e+00 -1.412893200970072538e+00 3.450000000000000000e+02
1.280563438865880421e-01 -1.679867341143548076e+00 3.450000000000000000e+02
1.516841715525644840e+00 -1.946841481317023614e+00 3.450000000000000000e+02
2.905627087164701638e+00 -2.213815621490499375e+00 3.450000000000000000e+02
4.294412458803758881e+00 -2.480789761663975135e+00 3.450000000000000000e+02
5.683197830442814791e+00 -2.747763901837450895e+00 3.450000000000000000e+02
7.071983202081872477e+00 -3.014738042010927099e+00 3.450000000000000000e+02
8.460768573720928387e+00 -3.281712182184402860e+00 3.450000000000000000e+02
9.849553945359986074e+00 -3.548686322357878176e+00 3.450000000000000000e+02
1.123833931699904198e+01 -3.815660462531353936e+00 3.450000000000000000e+02
1.262712468863809967e+01 -4.082634602704828808e+00 3.450000000000000000e+02
-1.821634643485259275e+00 -5.850134450638058148e-01 3.460000000000000000e+02
-4.328492718462024769e-01 -8.519875852372820191e-01 3.460000000000000000e+02
9.559360997928543213e-01 -1.118961725410757335e+00 3.460000000000000000e+02
2.344721471431911120e+00 -1.385935865584233095e+00 3.460000000000000000e+02
3.733506843070967918e+00 -1.652910005757709078e+00 3.460000000000000000e+02
5.122292214710024716e+00 -1.919884145931184838e+00 3.460000000000000000e+02
6.511077586349081514e+00 -2.186858286104660820e+00 3.460000000000000000e+02
7.899862957988138312e+00 -2.453832426278136580e+00 3.460000000000000000e+02
9.288648329627195110e+00 -2.720806566451612341e+00 3.460000000000000000e+02
1.067743370126625102e+01 -2.987780706625087657e+00 3.460000000000000000e+02
1.206621907290530871e+01 -3.254754846798563417e+00 3.460000000000000000e+02
1.345500444454436462e+01 -3.521728986972038289e+00 3.460000000000000000e+02
-1.821634643485259275e+00 -5.850134450638058148e-01 3.470000000000000000e+02
-4.328492718462024769e-01 -8.519875852372820191e-01 3.470000000000000000e+02
9.559360997928543213e-01 -1.118961725410757335e+00 3.470000000000000000e+02
2.344721471431911120e+00 -1.385935865584233095e+00 3.470000000000000000e+02
3.733506843070967918e+00 -1.652910005757709078e+00 3.470000000000000000e+02
5.122292214710024716e+00 -1.919884145931184838e+00 3.470000000000000000e+02
6.511077586349081514e+00 -2.186858286104660820e+00 3.470000000000000000e+02
7.899862957988138312e+00 -2.453832426278136580e+00 3.470000000000000000e+02
9.288648329627195110e+00 -2.720806566451612341e+00 3.470000000000000000e+02
1.067743370126625102e+01 -2.987780706625087657e+00 3.470000000000000000e+02
1.206621907290530871e+01 -3.254754846798563417e+00 3.470000000000000000e+02
1.345500444454436462e+01 -3.521728986972038289e+00 3.470000000000000000e+02
-1.821634643485259275e+00 -5.850134450638058148e-01 3.480000000000000000e+02
-4.328492718462024769e-01 -8.519875852372820191e-01 3.480000000000000000e+02
9.559360997928543213e-01 -1.118961725410757335e+00 3.480000000000000000e+02
2.344721471431911120e+00 -1.385935865584233095e+00 3.480000000000000000e+02
3.733506843070967918e+00 -1.652910005757709078e+00 3.480000000000000000e+02
5.122292214710024716e+00 -1.919884145931184838e+00 3.480000000000000000e+02
6.511077586349081514e+00 -2.186858286104660820e+00 3.480000000000000000e+02
7.899862957988138312e+00 -2.453832426278136580e+00 3.480000000000000000e+02
9.288648329627195110e+00 -2.720806566451612341e+00 3.480000000000000000e+02
1.067743370126625102e+01 -2.987780706625087657e+00 3.480000000000000000e+02
1.206621907290530871e+01 -3.254754846798563417e+00 3.480000000000000000e+02
1.345500444454436462e+01 -3.521728986972038289e+00 3.480000000000000000e+02
-1.260729027752468312e+00 -1.412893200970072538e+00 3.490000000000000000e+02
1.280563438865880421e-01 -1.679867341143548076e+00 3.490000000000000000e+02
1.516841715525644840e+00 -1.946841481317023614e+00 3.490000000000000000e+02
2.905627087164701638e+00 -2.213815621490499375e+00 3.490000000000000000e+02
4.294412458803758881e+00 -2.480789761663975135e+00 3.490000000000000000e+02
5.683197830442814791e+00 -2.747763901837450895e+00 3.490000000000000000e+02
7.071983202081872477e+00 -3.014738042010927099e+00 3.490000000000000000e+02
8.460768573720928387e+00 -3.281712182184402860e+00 3.490000000000000000e+02
9.849553945359986074e+00 -3.548686322357878176e+00 3.490000000000000000e+02
1.123833931699904198e+01 -3.815660462531353936e+00 3.490000000000000000e+02
1.262712468863809967e+01 -4.082634602704828808e+00 3.490000000000000000e+02
1.401591006027715558e+01 -4.349608742878304568e+00 3.490000000000000000e+02
-1.260729027752468312e+00 -1.412893200970072538e+00 3.500000000000000000e+02
1.280563438865880421e-01 -1.679867341143548076e+00 3.500000000000000000e+02
1.516841715525644840e+00 -1.946841481317023614e+00 3.500000000000000000e+02
2.905627087164701638e+00 -2.213815621490499375e+00 3.500000000000000000e+02
4.294412458803758881e+00 -2.480789761663975135e+00 3.500000000000000000e+02
5.683197830442814791e+00 -2.747763901837450895e+00 3.500000000000000000e+02
7.071983202081872477e+00 -3.014738042010927099e+00 3.500000000000000000e+02
8.460768573720928387e+00 -3.281712182184402860e+00 3.500000000000000000e+02
9.849553945359986074e+00 -3.548686322357878176e+00 3.500000000000000000e+02
1.123833931699904198e+01 -3.815660462531353936e+00 3.500000000000000000e+02
1.262712468863809967e+01 -4.082634602704828808e+00 3.500000000000000000e+02
1.401591006027715558e+01 -4.349608742878304568e+00 3.500000000000000000e+02
-1.260729027752468312e+00 -1.412893200970072538e+00 3.510000000000000000e+02
1.280563438865880421e-01 -1.679867341143548076e+00 3.510000000000000000e+02
1.516841715525644840e+00 -1.946841481317023614e+00 3.510000000000000000e+02
2.905627087164701638e+00 -2.213815621490499375e+00 3.510000000000000000e+02
4.294412458803758881e+00 -2.480789761663975135e+00 3.510000000000000000e+02
5.683197830442814791e+00 -2.747763901837450895e+00 3.510000000000000000e+02
7.071983202081872477e+00 -3.014738042010927099e+00 3.510000000000000000e+02
8.460768573720928387e+00 -3.281712182184402860e+00 3.510000000000000000e+02
9.849553945359986074e+00 -3.548686322357878176e+00 3.510000000000000000e+02
1.123833931699904198e+01 -3.815660462531353936e+00 3.510000000000000000e+02
1.262712468863809967e+01 -4.082634602704828808e+00 3.510000000000000000e+02
1.401591006027715558e+01 -4.349608742878304568e+00 3.510000000000000000e+02
-1.260729027752468312e+00 -1.412893200970072538e+00 3.520000000000000000e+02
1.280563438865880421e-01 -1.679867341143548076e+00 3.520000000000000000e+02
1.516841715525644840e+00 -1.946841481317023614e+00 3.520000000000000000e+02
2.905627087164701638e+00 -2.213815621490499375e+00 3.520000000000000000e+02
4.294412458803758881e+00 -2.480789761663975135e+00 3.520000000000000000e+02
5.683197830442814791e+00 -2.747763901837450895e+00 3.520000000000000000e+02
7.071983202081872477e+00 -3.014738042010927099e+00 3.520000000000000000e+02
8.460768573720928387e+00 -3.281712182184402860e+00 3.520000000000000000e+02
9.849553945359986074e+00 -3.548686322357878176e+00 3.520000000000000000e+02
1.123833931699904198e+01 -3.815660462531353936e+00 3.520000000000000000e+02
1.262712468863809967e+01 -4.082634602704828808e+00 3.520000000000000000e+02
1.401591006027715558e+01 -4.349608742878304568e+00 3.520000000000000000e+02
-1.260729027752468312e+00 -1.412893200970072538e+00 3.530000000000000000e+02
1.280563438865880421e-01 -1.679867341143548076e+00 3.530000000000000000e+02
1.516841715525644840e+00 -1.946841481317023614e+00 3.530000000000000000e+02
2.905627087164701638e+00 -2.213815621490499375e+00 3.530000000000000000e+02
4.294412458803758881e+00 -2.480789761663975135e+00 3.530000000000000000e+02
5.683197830442814791e+00 -2.747763901837450895e+00 3.530000000000000000e+02
7.071983202081872477e+00 -3.014738042010927099e+00 3.530000000000000000e+02
8.460768573720928387e+00 -3.281712182184402860e+00 3.530000000000000000e+02
9.849553945359986074e+00 -3.548686322357878176e+00 3.530000000000000000e+02
1.123833931699904198e+01 -3.815660462531353936e+00 3.530000000000000000e+02
1.262712468863809967e+01 -4.082634602704828808e+00 3.530000000000000000e+02
1.401591006027715558e+01 -4.349608742878304568e+00 3.530000000000000000e+02
-1.821634643485259275e+00 -5.850134450638058148e-01 3.540000000000000000e+02
-4.328492718462024769e-01 -8.519875852372820191e-01 3.540000000000000000e+02
9.559360997928543213e-01 -1.118961725410757335e+00 3.540000000000000000e+02
2.344721471431911120e+00 -1.385935865584233095e+00 3.540000000000000000e+02
3.733506843070967918e+00 -1.652910005757709078e+00 3.540000000000000000e+02
5.122292214710024716e+00 -1.919884145931184838e+00 3.540000000000000000e+02
6.511077586349081514e+00 -2.186858286104660820e+00 3.540000000000000000e+02
7.899862957988138312e+00 -2.453832426278136580e+00 3.540000000000000000e+02
1.345500444454436462e+01 -3.521728986972038289e+00 3.540000000000000000e+02
1.484378981618342230e+01 -3.788703127145514937e+00 3.540000000000000000e+02
-1.821634643485259275e+00 -5.850134450638058148e-01 3.550000000000000000e+02
-4.328492718462024769e-01 -8.519875852372820191e-01 3.550000000000000000e+02
9.559360997928543213e-01 -1.118961725410757335e+00 3.550000000000000000e+02
2.344721471431911120e+00 -1.385935865584233095e+00 3.550000000000000000e+02
3.733506843070967918e+00 -1.652910005757709078e+00 3.550000000000000000e+02
5.122292214710024716e+00 -1.919884145931184838e+00 3.550000000000000000e+02
6.511077586349081514e+00 -2.186858286104660820e+00 3.550000000000000000e+02
1.345500444454436462e+01 -3.521728986972038289e+00 3.550000000000000000e+02
-1.260729027752468312e+00 -1.412893200970072538e+00 3.560000000000000000e+02
1.280563438865880421e-01 -1.679867341143548076e+00 3.560000000000000000e+02
1.516841715525644840e+00 -1.946841481317023614e+00 3.560000000000000000e+02
2.905627087164701638e+00 -2.213815621490499375e+00 3.560000000000000000e+02
4.294412458803758881e+00 -2.480789761663975135e+00 3.560000000000000000e+02
5.683197830442814791e+00 -2.747763901837450895e+00 3.560000000000000000e+02
-1.260729027752468312e+00 -1.412893200970072538e+00 3.570000000000000000e+02
1.280563438865880421e-01 -1.679867341143548076e+00 3.570000000000000000e+02
1.516841715525644840e+00 -1.946841481317023614e+00 3.570000000000000000e+02
2.905627087164701638e+00 -2.213815621490499375e+00 3.570000000000000000e+02
4.294412458803758881e+00 -2.480789761663975135e+00 3.570000000000000000e+02
5.683197830442814791e+00 -2.747763901837450895e+00 3.570000000000000000e+02
-1.821634643485259275e+00 -5.850134450638058148e-01 3.580000000000000000e+02
-4.328492718462024769e-01 -8.519875852372820191e-01 3.580000000000000000e+02
9.559360997928543213e-01 -1.118961725410757335e+00 3.580000000000000000e+02
2.344721471431911120e+00 -1.385935865584233095e+00 3.580000000000000000e+02
3.733506843070967918e+00 -1.652910005757709078e+00 3.580000000000000000e+02
5.122292214710024716e+00 -1.919884145931184838e+00 3.580000000000000000e+02
6.511077586349081514e+00 -2.186858286104660820e+00 3.580000000000000000e+02
-1.821634643485259275e+00 -5.850134450638058148e-01 3.590000000000000000e+02
-4.328492718462024769e-01 -8.519875852372820191e-01 3.590000000000000000e+02
9.559360997928543213e-01 -1.118961725410757335e+00 3.590000000000000000e+02
2.344721471431911120e+00 -1.385935865584233095e+00 3.590000000000000000e+02
3.733506843070967918e+00 -1.652910005757709078e+00 3.590000000000000000e+02
5.122292214710024716e+00 -1.919884145931184838e+00 3.590000000000000000e+02
6.511077586349081514e+00 -2.186858286104660820e+00 3.590000000000000000e+02
-1.821634643485259275e+00 -5.850134450638058148e-01 3.600000000000000000e+02
-4.328492718462024769e-01 -8.519875852372820191e-01 3.600000000000000000e+02
9.559360997928543213e-01 -1.118961725410757335e+00 3.600000000000000000e+02
2.344721471431911120e+00 -1.385935865584233095e+00 3.600000000000000000e+02
3.733506843070967918e+00 -1.652910005757709078e+00 3.600000000000000000e+02
5.122292214710024716e+00 -1.919884145931184838e+00 3.600000000000000000e+02
6.511077586349081514e+00 -2.186858286104660820e+00 3.600000000000000000e+02
-1.821634643485259275e+00 -5.850134450638058148e-01 3.610000000000000000e+02
-4.328492718462024769e-01 -8.519875852372820191e-01 3.610000000000000000e+02
9.559360997928543213e-01 -1.118961725410757335e+00 3.610000000000000000e+02
2.344721471431911120e+00 -1.385935865584233095e+00 3.610000000000000000e+02
3.733506843070967918e+00 -1.652910005757709078e+00 3.610000000000000000e+02
5.122292214710024716e+00 -1.919884145931184838e+00 3.610000000000000000e+02
6.511077586349081514e+00 -2.186858286104660820e+00 3.610000000000000000e+02
-1.260729027752468312e+00 -1.412893200970072538e+00 3.620000000000000000e+02
1.280563438865880421e-01 -1.679867341143548076e+00 3.620000000000000000e+02
1.516841715525644840e+00 -1.946841481317023614e+00 3.620000000000000000e+02
2.905627087164701638e+00 -2.213815621490499375e+00 3.620000000000000000e+02
4.294412458803758881e+00 -2.480789761663975135e+00 3.620000000000000000e+02
5.683197830442814791e+00 -2.747763901837450895e+00 3.620000000000000000e+02
-1.260729027752468312e+00 -1.412893200970072538e+00 3.630000000000000000e+02
1.280563438865880421e-01 -1.679867341143548076e+00 3.630000000000000000e+02
1.516841715525644840e+00 -1.946841481317023614e+00 3.630000000000000000e+02
2.905627087164701638e+00 -2.213815621490499375e+00 3.630000000000000000e+02
4.294412458803758881e+00 -2.480789761663975135e+00 3.630000000000000000e+02
5.683197830442814791e+00 -2.747763901837450895e+00 3.630000000000000000e+02
-1.260729027752468312e+00 -1.412893200970072538e+00 3.640000000000000000e+02
1.280563438865880421e-01 -1.679867341143548076e+00 3.640000000000000000e+02
1.516841715525644840e+00 -1.946841481317023614e+00 3.640000000000000000e+02
2.905627087164701638e+00 -2.213815621490499375e+00 3.640000000000000000e+02
4.294412458803758881e+00 -2.480789761663975135e+00 3.640000000000000000e+02
5.683197830442814791e+00 -2.747763901837450895e+00 3.640000000000000000e+02
-1.260729027752468312e+00 -1.412893200970072538e+00 3.650000000000000000e+02
1.280563438865880421e-01 -1.679867341143548076e+00 3.650000000000000000e+02
1.516841715525644840e+00 -1.946841481317023614e+00 3.650000000000000000e+02
2.905627087164701638e+00 -2.213815621490499375e+00 3.650000000000000000e+02
4.294412458803758881e+00 -2.480789761663975135e+00 3.650000000000000000e+02
5.683197830442814791e+00 -2.747763901837450895e+00 3.650000000000000000e+02
-1.260729027752468312e+00 -1.412893200970072538e+00 3.660000000000000000e+02
1.280563438865880421e-01 -1.679867341143548076e+00 3.660000000000000000e+02
1.516841715525644840e+00 -1.946841481317023614e+00 3.660000000000000000e+02
2.905627087164701638e+00 -2.213815621490499375e+00 3.660000000000000000e+02
4.294412458803758881e+00 -2.480789761663975135e+00 3.660000000000000000e+02
5.683197830442814791e+00 -2.747763901837450895e+00 3.660000000000000000e+02
-1.260729027752468312e+00 -1.412893200970072538e+00 3.670000000000000000e+02
1.280563438865880421e-01 -1.679867341143548076e+00 3.670000000000000000e+02
1.516841715525644840e+00 -1.946841481317023614e+00 3.670000000000000000e+02
2.905627087164701638e+00 -2.213815621490499375e+00 3.670000000000000000e+02
4.294412458803758881e+00 -2.480789761663975135e+00 3.670000000000000000e+02
5.683197830442814791e+00 -2.747763901837450895e+00 3.670000000000000000e+02
-1.821634643485259275e+00 -5.850134450638058148e-01 3.680000000000000000e+02
-4.328492718462024769e-01 -8.519875852372820191e-01 3.680000000000000000e+02
9.559360997928543213e-01 -1.118961725410757335e+00 3.680000000000000000e+02
2.344721471431911120e+00 -1.385935865584233095e+00 3.680000000000000000e+02
3.733506843070967918e+00 -1.652910005757709078e+00 3.680000000000000000e+02
5.122292214710024716e+00 -1.919884145931184838e+00 3.680000000000000000e+02
6.511077586349081514e+00 -2.186858286104660820e+00 3.680000000000000000e+02
-1.260729027752468312e+00 -1.412893200970072538e+00 3.690000000000000000e+02
1.280563438865880421e-01 -1.679867341143548076e+00 3.690000000000000000e+02
1.516841715525644840e+00 -1.946841481317023614e+00 3.690000000000000000e+02
2.905627087164701638e+00 -2.213815621490499375e+00 3.690000000000000000e+02
4.294412458803758881e+00 -2.480789761663975135e+00 3.690000000000000000e+02
-1.260729027752468312e+00 -1.412893200970072538e+00 3.700000000000000000e+02
1.280563438865880421e-01 -1.679867341143548076e+00 3.700000000000000000e+02
1.516841715525644840e+00 -1.946841481317023614e+00 3.700000000000000000e+02
2.905627087164701638e+00 -2.213815621490499375e+00 3.700000000000000000e+02
4.294412458803758881e+00 -2.480789761663975135e+00 3.700000000000000000e+02
-1.260729027752468312e+00 -1.412893200970072538e+00 3.710000000000000000e+02
1.280563438865880421e-01 -1.679867341143548076e+00 3.710000000000000000e+02
1.516841715525644840e+00 -1.946841481317023614e+00 3.710000000000000000e+02
2.905627087164701638e+00 -2.213815621490499375e+00 3.710000000000000000e+02
4.294412458803758881e+00 -2.480789761663975135e+00 3.710000000000000000e+02
-1.260729027752468312e+00 -1.412893200970072538e+00 3.720000000000000000e+02
1.280563438865880421e-01 -1.679867341143548076e+00 3.720000000000000000e+02
1.516841715525644840e+00 -1.946841481317023614e+00 3.720000000000000000e+02
2.905627087164701638e+00 -2.213815621490499375e+00 3.720000000000000000e+02
-1.260729027752468312e+00 -1.412893200970072538e+00 3.730000000000000000e+02
1.280563438865880421e-01 -1.679867341143548076e+00 3.730000000000000000e+02
1.516841715525644840e+00 -1.946841481317023614e+00 3.730000000000000000e+02
2.905627087164701638e+00 -2.213815621490499375e+00 3.730000000000000000e+02
4.294412458803758881e+00 -2.480789761663975135e+00 3.730000000000000000e+02
-1.260729027752468312e+00 -1.412893200970072538e+00 3.740000000000000000e+02
1.280563438865880421e-01 -1.679867341143548076e+00 3.740000000000000000e+02
1.516841715525644840e+00 -1.946841481317023614e+00 3.740000000000000000e+02
2.905627087164701638e+00 -2.213815621490499375e+00 3.740000000000000000e+02
4.294412458803758881e+00 -2.480789761663975135e+00 3.740000000000000000e+02
5.683197830442814791e+00 -2.747763901837450895e+00 3.740000000000000000e+02
-1.260729027752468312e+00 -1.412893200970072538e+00 3.750000000000000000e+02
1.280563438865880421e-01 -1.679867341143548076e+00 3.750000000000000000e+02
1.516841715525644840e+00 -1.946841481317023614e+00 3.750000000000000000e+02
2.905627087164701638e+00 -2.213815621490499375e+00 3.750000000000000000e+02
4.294412458803758881e+00 -2.480789761663975135e+00 3.750000000000000000e+02
5.683197830442814791e+00 -2.747763901837450895e+00 3.750000000000000000e+02
-1.260729027752468312e+00 -1.412893200970072538e+00 3.760000000000000000e+02
1.280563438865880421e-01 -1.679867341143548076e+00 3.760000000000000000e+02
1.516841715525644840e+00 -1.946841481317023614e+00 3.760000000000000000e+02
2.905627087164701638e+00 -2.213815621490499375e+00 3.760000000000000000e+02
4.294412458803758881e+00 -2.480789761663975135e+00 3.760000000000000000e+02
5.683197830442814791e+00 -2.747763901837450895e+00 3.760000000000000000e+02
-1.260729027752468312e+00 -1.412893200970072538e+00 3.770000000000000000e+02
1.280563438865880421e-01 -1.679867341143548076e+00 3.770000000000000000e+02
1.516841715525644840e+00 -1.946841481317023614e+00 3.770000000000000000e+02
2.905627087164701638e+00 -2.213815621490499375e+00 3.770000000000000000e+02
4.294412458803758881e+00 -2.480789761663975135e+00 3.770000000000000000e+02
5.683197830442814791e+00 -2.747763901837450895e+00 3.770000000000000000e+02
-1.821634643485259275e+00 -5.850134450638058148e-01 3.780000000000000000e+02
-4.328492718462024769e-01 -8.519875852372820191e-01 3.780000000000000000e+02
9.559360997928543213e-01 -1.118961725410757335e+00 3.780000000000000000e+02
2.344721471431911120e+00 -1.385935865584233095e+00 3.780000000000000000e+02
3.733506843070967918e+00 -1.652910005757709078e+00 3.780000000000000000e+02
5.122292214710024716e+00 -1.919884145931184838e+00 3.780000000000000000e+02
6.511077586349081514e+00 -2.186858286104660820e+00 3.780000000000000000e+02
-1.821634643485259275e+00 -5.850134450638058148e-01 3.790000000000000000e+02
-4.328492718462024769e-01 -8.519875852372820191e-01 3.790000000000000000e+02
9.559360997928543213e-01 -1.118961725410757335e+00 3.790000000000000000e+02
2.344721471431911120e+00 -1.385935865584233095e+00 3.790000000000000000e+02
3.733506843070967918e+00 -1.652910005757709078e+00 3.790000000000000000e+02
5.122292214710024716e+00 -1.919884145931184838e+00 3.790000000000000000e+02
6.511077586349081514e+00 -2.186858286104660820e+00 3.790000000000000000e+02
-1.821634643485259275e+00 -5.850134450638058148e-01 3.800000000000000000e+02
-4.328492718462024769e-01 -8.519875852372820191e-01 3.800000000000000000e+02
9.559360997928543213e-01 -1.118961725410757335e+00 3.800000000000000000e+02
2.344721471431911120e+00 -1.385935865584233095e+00 3.800000000000000000e+02
3.733506843070967918e+00 -1.652910005757709078e+00 3.800000000000000000e+02
5.122292214710024716e+00 -1.919884145931184838e+00 3.800000000000000000e+02
-1.821634643485259275e+00 -5.850134450638058148e-01 3.810000000000000000e+02
-4.328492718462024769e-01 -8.519875852372820191e-01 3.810000000000000000e+02
9.559360997928543213e-01 -1.118961725410757335e+00 3.810000000000000000e+02
2.344721471431911120e+00 -1.385935865584233095e+00 3.810000000000000000e+02
3.733506843070967918e+00 -1.652910005757709078e+00 3.810000000000000000e+02
5.122292214710024716e+00 -1.919884145931184838e+00 3.810000000000000000e+02
-1.260729027752468312e+00 -1.412893200970072538e+00 3.820000000000000000e+02
1.280563438865880421e-01 -1.679867341143548076e+00 3.820000000000000000e+02
1.516841715525644840e+00 -1.946841481317023614e+00 3.820000000000000000e+02
2.905627087164701638e+00 -2.213815621490499375e+00 3.820000000000000000e+02
4.294412458803758881e+00 -2.480789761663975135e+00 3.820000000000000000e+02
-1.260729027752468312e+00 -1.412893200970072538e+00 3.830000000000000000e+02
1.280563438865880421e-01 -1.679867341143548076e+00 3.830000000000000000e+02
1.516841715525644840e+00 -1.946841481317023614e+00 3.830000000000000000e+02
2.905627087164701638e+00 -2.213815621490499375e+00 3.830000000000000000e+02
4.294412458803758881e+00 -2.480789761663975135e+00 3.830000000000000000e+02
-1.260729027752468312e+00 -1.412893200970072538e+00 3.840000000000000000e+02
1.280563438865880421e-01 -1.679867341143548076e+00 3.840000000000000000e+02
1.516841715525644840e+00 -1.946841481317023614e+00 3.840000000000000000e+02
2.905627087164701638e+00 -2.213815621490499375e+00 3.840000000000000000e+02
4.294412458803758881e+00 -2.480789761663975135e+00 3.840000000000000000e+02
-1.260729027752468312e+00 -1.412893200970072538e+00 3.850000000000000000e+02
1.280563438865880421e-01 -1.679867341143548076e+00 3.850000000000000000e+02
1.516841715525644840e+00 -1.946841481317023614e+00 3.850000000000000000e+02
2.905627087164701638e+00 -2.213815621490499375e+00 3.850000000000000000e+02
4.294412458803758881e+00 -2.480789761663975135e+00 3.850000000000000000e+02
-1.260729027752468312e+00 -1.412893200970072538e+00 3.860000000000000000e+02
1.280563438865880421e-01 -1.679867341143548076e+00 3.860000000000000000e+02
1.516841715525644840e+00 -1.946841481317023614e+00 3.860000000000000000e+02
2.905627087164701638e+00 -2.213815621490499375e+00 3.860000000000000000e+02
-1.260729027752468312e+00 -1.412893200970072538e+00 3.870000000000000000e+02
1.280563438865880421e-01 -1.679867341143548076e+00 3.870000000000000000e+02
1.516841715525644840e+00 -1.946841481317023614e+00 3.870000000000000000e+02
2.905627087164701638e+00 -2.213815621490499375e+00 3.870000000000000000e+02
-1.260729027752468312e+00 -1.412893200970072538e+00 3.880000000000000000e+02
1.280563438865880421e-01 -1.679867341143548076e+00 3.880000000000000000e+02
1.516841715525644840e+00 -1.946841481317023614e+00 3.880000000000000000e+02
2.905627087164701638e+00 -2.213815621490499375e+00 3.880000000000000000e+02
-1.260729027752468312e+00 -1.412893200970072538e+00 3.890000000000000000e+02
1.280563438865880421e-01 -1.679867341143548076e+00 3.890000000000000000e+02
1.516841715525644840e+00 -1.946841481317023614e+00 3.890000000000000000e+02
2.905627087164701638e+00 -2.213815621490499375e+00 3.890000000000000000e+02
-1.260729027752468312e+00 -1.412893200970072538e+00 3.900000000000000000e+02
1.280563438865880421e-01 -1.679867341143548076e+00 3.900000000000000000e+02
1.516841715525644840e+00 -1.946841481317023614e+00 3.900000000000000000e+02
2.905627087164701638e+00 -2.213815621490499375e+00 3.900000000000000000e+02
-1.260729027752468312e+00 -1.412893200970072538e+00 3.910000000000000000e+02
1.280563438865880421e-01 -1.679867341143548076e+00 3.910000000000000000e+02
1.516841715525644840e+00 -1.946841481317023614e+00 3.910000000000000000e+02
2.905627087164701638e+00 -2.213815621490499375e+00 3.910000000000000000e+02
-1.821634643485259275e+00 -5.850134450638058148e-01 3.920000000000000000e+02
-4.328492718462024769e-01 -8.519875852372820191e-01 3.920000000000000000e+02
9.559360997928543213e-01 -1.118961725410757335e+00 3.920000000000000000e+02
2.344721471431911120e+00 -1.385935865584233095e+00 3.920000000000000000e+02
3.733506843070967918e+00 -1.652910005757709078e+00 3.920000000000000000e+02
-1.821634643485259275e+00 -5.850134450638058148e-01 3.930000000000000000e+02
-4.328492718462024769e-01 -8.519875852372820191e-01 3.930000000000000000e+02
9.559360997928543213e-01 -1.118961725410757335e+00 3.930000000000000000e+02
2.344721471431911120e+00 -1.385935865584233095e+00 3.930000000000000000e+02
3.733506843070967918e+00 -1.652910005757709078e+00 3.930000000000000000e+02
5.122292214710024716e+00 -1.919884145931184838e+00 3.930000000000000000e+02
-1.260729027752468312e+00 -1.412893200970072538e+00 3.940000000000000000e+02
1.280563438865880421e-01 -1.679867341143548076e+00 3.940000000000000000e+02
1.516841715525644840e+00 -1.946841481317023614e+00 3.940000000000000000e+02
2.905627087164701638e+00 -2.213815621490499375e+00 3.940000000000000000e+02
4.294412458803758881e+00 -2.480789761663975135e+00 3.940000000000000000e+02
-1.821634643485259275e+00 -5.850134450638058148e-01 3.950000000000000000e+02
-4.328492718462024769e-01 -8.519875852372820191e-01 3.950000000000000000e+02
9.559360997928543213e-01 -1.118961725410757335e+00 3.950000000000000000e+02
2.344721471431911120e+00 -1.385935865584233095e+00 3.950000000000000000e+02
3.733506843070967918e+00 -1.652910005757709078e+00 3.950000000000000000e+02
5.122292214710024716e+00 -1.919884145931184838e+00 3.950000000000000000e+02
-1.821634643485259275e+00 -5.850134450638058148e-01 3.960000000000000000e+02
-4.328492718462024769e-01 -8.519875852372820191e-01 3.960000000000000000e+02
9.559360997928543213e-01 -1.118961725410757335e+00 3.960000000000000000e+02
2.344721471431911120e+00 -1.385935865584233095e+00 3.960000000000000000e+02
3.733506843070967918e+00 -1.652910005757709078e+00 3.960000000000000000e+02
5.122292214710024716e+00 -1.919884145931184838e+00 3.960000000000000000e+02
-1.821634643485259275e+00 -5.850134450638058148e-01 3.970000000000000000e+02
-4.328492718462024769e-01 -8.519875852372820191e-01 3.970000000000000000e+02
9.559360997928543213e-01 -1.118961725410757335e+00 3.970000000000000000e+02
2.344721471431911120e+00 -1.385935865584233095e+00 3.970000000000000000e+02
3.733506843070967918e+00 -1.652910005757709078e+00 3.970000000000000000e+02
5.122292214710024716e+00 -1.919884145931184838e+00 3.970000000000000000e+02
-1.821634643485259275e+00 -5.850134450638058148e-01 3.980000000000000000e+02
-4.328492718462024769e-01 -8.519875852372820191e-01 3.980000000000000000e+02
9.559360997928543213e-01 -1.118961725410757335e+00 3.980000000000000000e+02
2.344721471431911120e+00 -1.385935865584233095e+00 3.980000000000000000e+02
3.733506843070967918e+00 -1.652910005757709078e+00 3.980000000000000000e+02
5.122292214710024716e+00 -1.919884145931184838e+00 3.980000000000000000e+02
6.511077586349081514e+00 -2.186858286104660820e+00 3.980000000000000000e+02
-1.821634643485259275e+00 -5.850134450638058148e-01 3.990000000000000000e+02
-4.328492718462024769e-01 -8.519875852372820191e-01 3.990000000000000000e+02
9.559360997928543213e-01 -1.118961725410757335e+00 3.990000000000000000e+02
2.344721471431911120e+00 -1.385935865584233095e+00 3.990000000000000000e+02
3.733506843070967918e+00 -1.652910005757709078e+00 3.990000000000000000e+02
5.122292214710024716e+00 -1.919884145931184838e+00 3.990000000000000000e+02
6.511077586349081514e+00 -2.186858286104660820e+00 3.990000000000000000e+02
-1.260729027752468312e+00 -1.412893200970072538e+00 4.000000000000000000e+02
1.280563438865880421e-01 -1.679867341143548076e+00 4.000000000000000000e+02
1.516841715525644840e+00 -1.946841481317023614e+00 4.000000000000000000e+02
2.905627087164701638e+00 -2.213815621490499375e+00 4.000000000000000000e+02
4.294412458803758881e+00 -2.480789761663975135e+00 4.000000000000000000e+02
-1.260729027752468312e+00 -1.412893200970072538e+00 4.010000000000000000e+02
1.280563438865880421e-01 -1.679867341143548076e+00 4.010000000000000000e+02
1.516841715525644840e+00 -1.946841481317023614e+00 4.010000000000000000e+02
2.905627087164701638e+00 -2.213815621490499375e+00 4.010000000000000000e+02
4.294412458803758881e+00 -2.480789761663975135e+00 4.010000000000000000e+02
-1.260729027752468312e+00 -1.412893200970072538e+00 4.020000000000000000e+02
1.280563438865880421e-01 -1.679867341143548076e+00 4.020000000000000000e+02
1.516841715525644840e+00 -1.946841481317023614e+00 4.020000000000000000e+02
2.905627087164701638e+00 -2.213815621490499375e+00 4.020000000000000000e+02
4.294412458803758881e+00 -2.480789761663975135e+00 4.020000000000000000e+02
-1.821634643485259275e+00 -5.850134450638058148e-01 4.030000000000000000e+02
-4.328492718462024769e-01 -8.519875852372820191e-01 4.030000000000000000e+02
9.559360997928543213e-01 -1.118961725410757335e+00 4.030000000000000000e+02
2.344721471431911120e+00 -1.385935865584233095e+00 4.030000000000000000e+02
3.733506843070967918e+00 -1.652910005757709078e+00 4.030000000000000000e+02
5.122292214710024716e+00 -1.919884145931184838e+00 4.030000000000000000e+02
-1.821634643485259275e+00 -5.850134450638058148e-01 4.040000000000000000e+02
-4.328492718462024769e-01 -8.519875852372820191e-01 4.040000000000000000e+02
9.559360997928543213e-01 -1.118961725410757335e+00 4.040000000000000000e+02
2.344721471431911120e+00 -1.385935865584233095e+00 4.040000000000000000e+02
3.733506843070967918e+00 -1.652910005757709078e+00 4.040000000000000000e+02
-1.260729027752468312e+00 -1.412893200970072538e+00 4.050000000000000000e+02
1.280563438865880421e-01 -1.679867341143548076e+00 4.050000000000000000e+02
1.516841715525644840e+00 -1.946841481317023614e+00 4.050000000000000000e+02
2.905627087164701638e+00 -2.213815621490499375e+00 4.050000000000000000e+02
-1.260729027752468312e+00 -1.412893200970072538e+00 4.060000000000000000e+02
1.280563438865880421e-01 -1.679867341143548076e+00 4.060000000000000000e+02
1.516841715525644840e+00 -1.946841481317023614e+00 4.060000000000000000e+02
2.905627087164701638e+00 -2.213815621490499375e+00 4.060000000000000000e+02
4.294412458803758881e+00 -2.480789761663975135e+00 4.060000000000000000e+02
-1.260729027752468312e+00 -1.412893200970072538e+00 4.070000000000000000e+02
1.280563438865880421e-01 -1.679867341143548076e+00 4.070000000000000000e+02
1.516841715525644840e+00 -1.946841481317023614e+00 4.070000000000000000e+02
2.905627087164701638e+00 -2.213815621490499375e+00 4.070000000000000000e+02
4.294412458803758881e+00 -2.480789761663975135e+00 4.070000000000000000e+02
-1.260729027752468312e+00 -1.412893200970072538e+00 4.080000000000000000e+02
1.280563438865880421e-01 -1.679867341143548076e+00 4.080000000000000000e+02
1.516841715525644840e+00 -1.946841481317023614e+00 4.080000000000000000e+02
2.905627087164701638e+00 -2.213815621490499375e+00 4.080000000000000000e+02
4.294412458803758881e+00 -2.480789761663975135e+00 4.080000000000000000e+02
-1.260729027752468312e+00 -1.412893200970072538e+00 4.090000000000000000e+02
1.280563438865880421e-01 -1.679867341143548076e+00 4.090000000000000000e+02
1.516841715525644840e+00 -1.946841481317023614e+00 4.090000000000000000e+02
2.905627087164701638e+00 -2.213815621490499375e+00 4.090000000000000000e+02
4.294412458803758881e+00 -2.480789761663975135e+00 4.090000000000000000e+02
5.683197830442814791e+00 -2.747763901837450895e+00 4.090000000000000000e+02
-1.260729027752468312e+00 -1.412893200970072538e+00 4.100000000000000000e+02
1.280563438865880421e-01 -1.679867341143548076e+00 4.100000000000000000e+02
1.516841715525644840e+00 -1.946841481317023614e+00 4.100000000000000000e+02
2.905627087164701638e+00 -2.213815621490499375e+00 4.100000000000000000e+02
4.294412458803758881e+00 -2.480789761663975135e+00 4.100000000000000000e+02
5.683197830442814791e+00 -2.747763901837450895e+00 4.100000000000000000e+02
-1.260729027752468312e+00 -1.412893200970072538e+00 4.110000000000000000e+02
1.280563438865880421e-01 -1.679867341143548076e+00 4.110000000000000000e+02
1.516841715525644840e+00 -1.946841481317023614e+00 4.110000000000000000e+02
2.905627087164701638e+00 -2.213815621490499375e+00 4.110000000000000000e+02
4.294412458803758881e+00 -2.480789761663975135e+00 4.110000000000000000e+02
5.683197830442814791e+00 -2.747763901837450895e+00 4.110000000000000000e+02
-1.821634643485259275e+00 -5.850134450638058148e-01 4.120000000000000000e+02
-4.328492718462024769e-01 -8.519875852372820191e-01 4.120000000000000000e+02
9.559360997928543213e-01 -1.118961725410757335e+00 4.120000000000000000e+02
2.344721471431911120e+00 -1.385935865584233095e+00 4.120000000000000000e+02
3.733506843070967918e+00 -1.652910005757709078e+00 4.120000000000000000e+02
5.122292214710024716e+00 -1.919884145931184838e+00 4.120000000000000000e+02
6.511077586349081514e+00 -2.186858286104660820e+00 4.120000000000000000e+02
-1.821634643485259275e+00 -5.850134450638058148e-01 4.130000000000000000e+02
-4.328492718462024769e-01 -8.519875852372820191e-01 4.130000000000000000e+02
9.559360997928543213e-01 -1.118961725410757335e+00 4.130000000000000000e+02
2.344721471431911120e+00 -1.385935865584233095e+00 4.130000000000000000e+02
3.733506843070967918e+00 -1.652910005757709078e+00 4.130000000000000000e+02
5.122292214710024716e+00 -1.919884145931184838e+00 4.130000000000000000e+02
6.511077586349081514e+00 -2.186858286104660820e+00 4.130000000000000000e+02
-1.260729027752468312e+00 -1.412893200970072538e+00 4.140000000000000000e+02
1.280563438865880421e-01 -1.679867341143548076e+00 4.140000000000000000e+02
1.516841715525644840e+00 -1.946841481317023614e+00 4.140000000000000000e+02
2.905627087164701638e+00 -2.213815621490499375e+00 4.140000000000000000e+02
4.294412458803758881e+00 -2.480789761663975135e+00 4.140000000000000000e+02
-1.260729027752468312e+00 -1.412893200970072538e+00 4.150000000000000000e+02
1.280563438865880421e-01 -1.679867341143548076e+00 4.150000000000000000e+02
1.516841715525644840e+00 -1.946841481317023614e+00 4.150000000000000000e+02
2.905627087164701638e+00 -2.213815621490499375e+00 4.150000000000000000e+02
4.294412458803758881e+00 -2.480789761663975135e+00 4.150000000000000000e+02
-1.260729027752468312e+00 -1.412893200970072538e+00 4.160000000000000000e+02
1.280563438865880421e-01 -1.679867341143548076e+00 4.160000000000000000e+02
1.516841715525644840e+00 -1.946841481317023614e+00 4.160000000000000000e+02
2.905627087164701638e+00 -2.213815621490499375e+00 4.160000000000000000e+02
4.294412458803758881e+00 -2.480789761663975135e+00 4.160000000000000000e+02
-1.260729027752468312e+00 -1.412893200970072538e+00 4.170000000000000000e+02
1.280563438865880421e-01 -1.679867341143548076e+00 4.170000000000000000e+02
1.516841715525644840e+00 -1.946841481317023614e+00 4.170000000000000000e+02
2.905627087164701638e+00 -2.213815621490499375e+00 4.170000000000000000e+02
4.294412458803758881e+00 -2.480789761663975135e+00 4.170000000000000000e+02
5.683197830442814791e+00 -2.747763901837450895e+00 4.170000000000000000e+02
-1.260729027752468312e+00 -1.412893200970072538e+00 4.180000000000000000e+02
1.280563438865880421e-01 -1.679867341143548076e+00 4.180000000000000000e+02
1.516841715525644840e+00 -1.946841481317023614e+00 4.180000000000000000e+02
2.905627087164701638e+00 -2.213815621490499375e+00 4.180000000000000000e+02
4.294412458803758881e+00 -2.480789761663975135e+00 4.180000000000000000e+02
5.683197830442814791e+00 -2.747763901837450895e+00 4.180000000000000000e+02
-1.260729027752468312e+00 -1.412893200970072538e+00 4.190000000000000000e+02
1.280563438865880421e-01 -1.679867341143548076e+00 4.190000000000000000e+02
1.516841715525644840e+00 -1.946841481317023614e+00 4.190000000000000000e+02
2.905627087164701638e+00 -2.213815621490499375e+00 4.190000000000000000e+02
4.294412458803758881e+00 -2.480789761663975135e+00 4.190000000000000000e+02
5.683197830442814791e+00 -2.747763901837450895e+00 4.190000000000000000e+02
-1.260729027752468312e+00 -1.412893200970072538e+00 4.200000000000000000e+02
1.280563438865880421e-01 -1.679867341143548076e+00 4.200000000000000000e+02
1.516841715525644840e+00 -1.946841481317023614e+00 4.200000000000000000e+02
2.905627087164701638e+00 -2.213815621490499375e+00 4.200000000000000000e+02
4.294412458803758881e+00 -2.480789761663975135e+00 4.200000000000000000e+02
5.683197830442814791e+00 -2.747763901837450895e+00 4.200000000000000000e+02
-1.821634643485259275e+00 -5.850134450638058148e-01 4.210000000000000000e+02
-4.328492718462024769e-01 -8.519875852372820191e-01 4.210000000000000000e+02
9.559360997928543213e-01 -1.118961725410757335e+00 4.210000000000000000e+02
2.344721471431911120e+00 -1.385935865584233095e+00 4.210000000000000000e+02
3.733506843070967918e+00 -1.652910005757709078e+00 4.210000000000000000e+02
5.122292214710024716e+00 -1.919884145931184838e+00 4.210000000000000000e+02
6.511077586349081514e+00 -2.186858286104660820e+00 4.210000000000000000e+02
-1.260729027752468312e+00 -1.412893200970072538e+00 4.220000000000000000e+02
1.280563438865880421e-01 -1.679867341143548076e+00 4.220000000000000000e+02
1.516841715525644840e+00 -1.946841481317023614e+00 4.220000000000000000e+02
2.905627087164701638e+00 -2.213815621490499375e+00 4.220000000000000000e+02
4.294412458803758881e+00 -2.480789761663975135e+00 4.220000000000000000e+02
5.683197830442814791e+00 -2.747763901837450895e+00 4.220000000000000000e+02
-1.260729027752468312e+00 -1.412893200970072538e+00 4.230000000000000000e+02
1.280563438865880421e-01 -1.679867341143548076e+00 4.230000000000000000e+02
1.516841715525644840e+00 -1.946841481317023614e+00 4.230000000000000000e+02
2.905627087164701638e+00 -2.213815621490499375e+00 4.230000000000000000e+02
4.294412458803758881e+00 -2.480789761663975135e+00 4.230000000000000000e+02
5.683197830442814791e+00 -2.747763901837450895e+00 4.230000000000000000e+02
-1.260729027752468312e+00 -1.412893200970072538e+00 4.240000000000000000e+02
1.280563438865880421e-01 -1.679867341143548076e+00 4.240000000000000000e+02
1.516841715525644840e+00 -1.946841481317023614e+00 4.240000000000000000e+02
2.905627087164701638e+00 -2.213815621490499375e+00 4.240000000000000000e+02
4.294412458803758881e+00 -2.480789761663975135e+00 4.240000000000000000e+02
5.683197830442814791e+00 -2.747763901837450895e+00 4.240000000000000000e+02
-1.260729027752468312e+00 -1.412893200970072538e+00 4.250000000000000000e+02
1.280563438865880421e-01 -1.679867341143548076e+00 4.250000000000000000e+02
1.516841715525644840e+00 -1.946841481317023614e+00 4.250000000000000000e+02
2.905627087164701638e+00 -2.213815621490499375e+00 4.250000000000000000e+02
4.294412458803758881e+00 -2.480789761663975135e+00 4.250000000000000000e+02
5.683197830442814791e+00 -2.747763901837450895e+00 4.250000000000000000e+02
-1.260729027752468312e+00 -1.412893200970072538e+00 4.260000000000000000e+02
1.280563438865880421e-01 -1.679867341143548076e+00 4.260000000000000000e+02
1.516841715525644840e+00 -1.946841481317023614e+00 4.260000000000000000e+02
2.905627087164701638e+00 -2.213815621490499375e+00 4.260000000000000000e+02
4.294412458803758881e+00 -2.480789761663975135e+00 4.260000000000000000e+02
5.683197830442814791e+00 -2.747763901837450895e+00 4.260000000000000000e+02
-1.260729027752468312e+00 -1.412893200970072538e+00 4.270000000000000000e+02
1.280563438865880421e-01 -1.679867341143548076e+00 4.270000000000000000e+02
1.516841715525644840e+00 -1.946841481317023614e+00 4.270000000000000000e+02
2.905627087164701638e+00 -2.213815621490499375e+00 4.270000000000000000e+02
4.294412458803758881e+00 -2.480789761663975135e+00 4.270000000000000000e+02
5.683197830442814791e+00 -2.747763901837450895e+00 4.270000000000000000e+02
-1.821634643485259275e+00 -5.850134450638058148e-01 4.280000000000000000e+02
-4.328492718462024769e-01 -8.519875852372820191e-01 4.280000000000000000e+02
9.559360997928543213e-01 -1.118961725410757335e+00 4.280000000000000000e+02
2.344721471431911120e+00 -1.385935865584233095e+00 4.280000000000000000e+02
3.733506843070967918e+00 -1.652910005757709078e+00 4.280000000000000000e+02
5.122292214710024716e+00 -1.919884145931184838e+00 4.280000000000000000e+02
6.511077586349081514e+00 -2.186858286104660820e+00 4.280000000000000000e+02
-1.821634643485259275e+00 -5.850134450638058148e-01 4.290000000000000000e+02
-4.328492718462024769e-01 -8.519875852372820191e-01 4.290000000000000000e+02
9.559360997928543213e-01 -1.118961725410757335e+00 4.290000000000000000e+02
2.344721471431911120e+00 -1.385935865584233095e+00 4.290000000000000000e+02
3.733506843070967918e+00 -1.652910005757709078e+00 4.290000000000000000e+02
5.122292214710024716e+00 -1.919884145931184838e+00 4.290000000000000000e+02
6.511077586349081514e+00 -2.186858286104660820e+00 4.290000000000000000e+02
-1.821634643485259275e+00 -5.850134450638058148e-01 4.300000000000000000e+02
-4.328492718462024769e-01 -8.519875852372820191e-01 4.300000000000000000e+02
9.559360997928543213e-01 -1.118961725410757335e+00 4.300000000000000000e+02
2.344721471431911120e+00 -1.385935865584233095e+00 4.300000000000000000e+02
3.733506843070967918e+00 -1.652910005757709078e+00 4.300000000000000000e+02
5.122292214710024716e+00 -1.919884145931184838e+00 4.300000000000000000e+02
6.511077586349081514e+00 -2.186858286104660820e+00 4.300000000000000000e+02
-1.821634643485259275e+00 -5.850134450638058148e-01 4.310000000000000000e+02
-4.328492718462024769e-01 -8.519875852372820191e-01 4.310000000000000000e+02
9.559360997928543213e-01 -1.118961725410757335e+00 4.310000000000000000e+02
2.344721471431911120e+00 -1.385935865584233095e+00 4.310000000000000000e+02
3.733506843070967918e+00 -1.652910005757709078e+00 4.310000000000000000e+02
5.122292214710024716e+00 -1.919884145931184838e+00 4.310000000000000000e+02
6.511077586349081514e+00 -2.186858286104660820e+00 4.310000000000000000e+02
-1.821634643485259275e+00 -5.850134450638058148e-01 4.320000000000000000e+02
-4.328492718462024769e-01 -8.519875852372820191e-01 4.320000000000000000e+02
9.559360997928543213e-01 -1.118961725410757335e+00 4.320000000000000000e+02
2.344721471431911120e+00 -1.385935865584233095e+00 4.320000000000000000e+02
3.733506843070967918e+00 -1.652910005757709078e+00 4.320000000000000000e+02
5.122292214710024716e+00 -1.919884145931184838e+00 4.320000000000000000e+02
6.511077586349081514e+00 -2.186858286104660820e+00 4.320000000000000000e+02
-1.821634643485259275e+00 -5.850134450638058148e-01 4.330000000000000000e+02
-4.328492718462024769e-01 -8.519875852372820191e-01 4.330000000000000000e+02
9.559360997928543213e-01 -1.118961725410757335e+00 4.330000000000000000e+02
2.344721471431911120e+00 -1.385935865584233095e+00 4.330000000000000000e+02
3.733506843070967918e+00 -1.652910005757709078e+00 4.330000000000000000e+02
5.122292214710024716e+00 -1.919884145931184838e+00 4.330000000000000000e+02
6.511077586349081514e+00 -2.186858286104660820e+00 4.330000000000000000e+02
-1.821634643485259275e+00 -5.850134450638058148e-01 4.340000000000000000e+02
-4.328492718462024769e-01 -8.519875852372820191e-01 4.340000000000000000e+02
9.559360997928543213e-01 -1.118961725410757335e+00 4.340000000000000000e+02
2.344721471431911120e+00 -1.385935865584233095e+00 4.340000000000000000e+02
3.733506843070967918e+00 -1.652910005757709078e+00 4.340000000000000000e+02
5.122292214710024716e+00 -1.919884145931184838e+00 4.340000000000000000e+02
6.511077586349081514e+00 -2.186858286104660820e+00 4.340000000000000000e+02
-1.821634643485259275e+00 -5.850134450638058148e-01 4.350000000000000000e+02
-4.328492718462024769e-01 -8.519875852372820191e-01 4.350000000000000000e+02
9.559360997928543213e-01 -1.118961725410757335e+00 4.350000000000000000e+02
2.344721471431911120e+00 -1.385935865584233095e+00 4.350000000000000000e+02
3.733506843070967918e+00 -1.652910005757709078e+00 4.350000000000000000e+02
5.122292214710024716e+00 -1.919884145931184838e+00 4.350000000000000000e+02
6.511077586349081514e+00 -2.186858286104660820e+00 4.350000000000000000e+02
-1.821634643485259275e+00 -5.850134450638058148e-01 4.360000000000000000e+02
-4.328492718462024769e-01 -8.519875852372820191e-01 4.360000000000000000e+02
