2.023527343724920158e+00 -1.524351107464529953e+00 3.370000000000000000e+02
1.298257850132131352e+00 -2.738428601557743924e+00 3.370000000000000000e+02
5.729883565393429912e-01 -3.952506095650959672e+00 3.370000000000000000e+02
-1.522811370534454256e-01 -5.166583589744173644e+00 3.370000000000000000e+02
-8.775506306462337314e-01 -6.380661083837388503e+00 3.370000000000000000e+02
-1.602820124239022093e+00 -7.594738577930604251e+00 3.370000000000000000e+02
-2.328089617831810010e+00 -8.808816072023818222e+00 3.370000000000000000e+02
-3.053359111424598815e+00 -1.002289356611703397e+01 3.370000000000000000e+02
-3.778628605017387621e+00 -1.123697106021024794e+01 3.370000000000000000e+02
2.023527343724920158e+00 -1.524351107464529953e+00 3.380000000000000000e+02
1.298257850132131352e+00 -2.738428601557743924e+00 3.380000000000000000e+02
5.729883565393429912e-01 -3.952506095650959672e+00 3.380000000000000000e+02
-1.522811370534454256e-01 -5.166583589744173644e+00 3.380000000000000000e+02
-8.775506306462337314e-01 -6.380661083837388503e+00 3.380000000000000000e+02
-1.602820124239022093e+00 -7.594738577930604251e+00 3.380000000000000000e+02
-2.328089617831810010e+00 -8.808816072023818222e+00 3.380000000000000000e+02
-3.053359111424598815e+00 -1.002289356611703397e+01 3.380000000000000000e+02
-3.778628605017387621e+00 -1.123697106021024794e+01 3.380000000000000000e+02
2.023527343724920158e+00 -1.524351107464529953e+00 3.390000000000000000e+02
1.298257850132131352e+00 -2.738428601557743924e+00 3.390000000000000000e+02
5.729883565393429912e-01 -3.952506095650959672e+00 3.390000000000000000e+02
-1.522811370534454256e-01 -5.166583589744173644e+00 3.390000000000000000e+02
-8.775506306462337314e-01 -6.380661083837388503e+00 3.390000000000000000e+02
-1.602820124239022093e+00 -7.594738577930604251e+00 3.390000000000000000e+02
-2.328089617831810010e+00 -8.808816072023818222e+00 3.390000000000000000e+02
-3.053359111424598815e+00 -1.002289356611703397e+01 3.390000000000000000e+02
-3.778628605017387621e+00 -1.123697106021024794e+01 3.390000000000000000e+02
-4.503898098610175538e+00 -1.245104855430346369e+01 3.390000000000000000e+02
2.023527343724920158e+00 -1.524351107464529953e+00 3.400000000000000000e+02
1.298257850132131352e+00 -2.738428601557743924e+00 3.400000000000000000e+02
5.729883565393429912e-01 -3.952506095650959672e+00 3.400000000000000000e+02
-1.522811370534454256e-01 -5.166583589744173644e+00 3.400000000000000000e+02
-8.775506306462337314e-01 -6.380661083837388503e+00 3.400000000000000000e+02
-1.602820124239022093e+00 -7.594738577930604251e+00 3.400000000000000000e+02
-2.328089617831810010e+00 -8.808816072023818222e+00 3.400000000000000000e+02
-3.053359111424598815e+00 -1.002289356611703397e+01 3.400000000000000000e+02
-3.778628605017387621e+00 -1.123697106021024794e+01 3.400000000000000000e+02
-4.503898098610175538e+00 -1.245104855430346369e+01 3.400000000000000000e+02
2.023527343724920158e+00 -1.524351107464529953e+00 3.410000000000000000e+02
1.298257850132131352e+00 -2.738428601557743924e+00 3.410000000000000000e+02
5.729883565393429912e-01 -3.952506095650959672e+00 3.410000000000000000e+02
-1.522811370534454256e-01 -5.166583589744173644e+00 3.410000000000000000e+02
-8.775506306462337314e-01 -6.380661083837388503e+00 3.410000000000000000e+02
-1.602820124239022093e+00 -7.594738577930604251e+00 3.410000000000000000e+02
-2.328089617831810010e+00 -8.808816072023818222e+00 3.410000000000000000e+02
-3.053359111424598815e+00 -1.002289356611703397e+01 3.410000000000000000e+02
-3.778628605017387621e+00 -1.123697106021024794e+01 3.410000000000000000e+02
-4.503898098610175538e+00 -1.245104855430346369e+01 3.410000000000000000e+02
2.023527343724920158e+00 -1.524351107464529953e+00 3.420000000000000000e+02
1.298257850132131352e+00 -2.738428601557743924e+00 3.420000000000000000e+02
5.729883565393429912e-01 -3.952506095650959672e+00 3.420000000000000000e+02
-1.522811370534454256e-01 -5.166583589744173644e+00 3.420000000000000000e+02
-8.775506306462337314e-01 -6.380661083837388503e+00 3.420000000000000000e+02
-1.602820124239022093e+00 -7.594738577930604251e+00 3.420000000000000000e+02
-2.328089617831810010e+00 -8.808816072023818222e+00 3.420000000000000000e+02
-3.053359111424598815e+00 -1.002289356611703397e+01 3.420000000000000000e+02
-3.778628605017387621e+00 -1.123697106021024794e+01 3.420000000000000000e+02
-4.503898098610175538e+00 -1.245104855430346369e+01 3.420000000000000000e+02
2.023527343724920158e+00 -1.524351107464529953e+00 3.430000000000000000e+02
1.298257850132131352e+00 -2.738428601557743924e+00 3.430000000000000000e+02
5.729883565393429912e-01 -3.952506095650959672e+00 3.430000000000000000e+02
-1.522811370534454256e-01 -5.166583589744173644e+00 3.430000000000000000e+02
-8.775506306462337314e-01 -6.380661083837388503e+00 3.430000000000000000e+02
-1.602820124239022093e+00 -7.594738577930604251e+00 3.430000000000000000e+02
-2.328089617831810010e+00 -8.808816072023818222e+00 3.430000000000000000e+02
-3.053359111424598815e+00 -1.002289356611703397e+01 3.430000000000000000e+02
-3.778628605017387621e+00 -1.123697106021024794e+01 3.430000000000000000e+02
-4.503898098610175538e+00 -1.245104855430346369e+01 3.430000000000000000e+02
2.023527343724920158e+00 -1.524351107464529953e+00 3.440000000000000000e+02
1.298257850132131352e+00 -2.738428601557743924e+00 3.440000000000000000e+02
5.729883565393429912e-01 -3.952506095650959672e+00 3.440000000000000000e+02
-1.522811370534454256e-01 -5.166583589744173644e+00 3.440000000000000000e+02
-8.775506306462337314e-01 -6.380661083837388503e+00 3.440000000000000000e+02
-1.602820124239022093e+00 -7.594738577930604251e+00 3.440000000000000000e+02
-2.328089617831810010e+00 -8.808816072023818222e+00 3.440000000000000000e+02
-3.053359111424598815e+00 -1.002289356611703397e+01 3.440000000000000000e+02
-3.778628605017387621e+00 -1.123697106021024794e+01 3.440000000000000000e+02
-4.503898098610175538e+00 -1.245104855430346369e+01 3.440000000000000000e+02
2.023527343724920158e+00 -1.524351107464529953e+00 3.450000000000000000e+02
1.298257850132131352e+00 -2.738428601557743924e+00 3.450000000000000000e+02
5.729883565393429912e-01 -3.952506095650959672e+00 3.450000000000000000e+02
-1.522811370534454256e-01 -5.166583589744173644e+00 3.450000000000000000e+02
-8.775506306462337314e-01 -6.380661083837388503e+00 3.450000000000000000e+02
-1.602820124239022093e+00 -7.594738577930604251e+00 3.450000000000000000e+02
-2.328089617831810010e+00 -8.808816072023818222e+00 3.450000000000000000e+02
-3.053359111424598815e+00 -1.002289356611703397e+01 3.450000000000000000e+02
-3.778628605017387621e+00 -1.123697106021024794e+01 3.450000000000000000e+02
-4.503898098610175538e+00 -1.245104855430346369e+01 3.450000000000000000e+02
2.023527343724920158e+00 -1.524351107464529953e+00 3.460000000000000000e+02
1.298257850132131352e+00 -2.738428601557743924e+00 3.460000000000000000e+02
5.729883565393429912e-01 -3.952506095650959672e+00 3.460000000000000000e+02
-1.522811370534454256e-01 -5.166583589744173644e+00 3.460000000000000000e+02
-8.775506306462337314e-01 -6.380661083837388503e+00 3.460000000000000000e+02
-1.602820124239022093e+00 -7.594738577930604251e+00 3.460000000000000000e+02
-2.328089617831810010e+00 -8.808816072023818222e+00 3.460000000000000000e+02
-3.053359111424598815e+00 -1.002289356611703397e+01 3.460000000000000000e+02
-3.778628605017387621e+00 -1.123697106021024794e+01 3.460000000000000000e+02
2.023527343724920158e+00 -1.524351107464529953e+00 3.470000000000000000e+02
1.298257850132131352e+00 -2.738428601557743924e+00 3.470000000000000000e+02
5.729883565393429912e-01 -3.952506095650959672e+00 3.470000000000000000e+02
-1.522811370534454256e-01 -5.166583589744173644e+00 3.470000000000000000e+02
-8.775506306462337314e-01 -6.380661083837388503e+00 3.470000000000000000e+02
-1.602820124239022093e+00 -7.594738577930604251e+00 3.470000000000000000e+02
-2.328089617831810010e+00 -8.808816072023818222e+00 3.470000000000000000e+02
-3.053359111424598815e+00 -1.002289356611703397e+01 3.470000000000000000e+02
-3.778628605017387621e+00 -1.123697106021024794e+01 3.470000000000000000e+02
2.023527343724920158e+00 -1.524351107464529953e+00 3.480000000000000000e+02
1.298257850132131352e+00 -2.738428601557743924e+00 3.480000000000000000e+02
5.729883565393429912e-01 -3.952506095650959672e+00 3.480000000000000000e+02
-1.522811370534454256e-01 -5.166583589744173644e+00 3.480000000000000000e+02
-8.775506306462337314e-01 -6.380661083837388503e+00 3.480000000000000000e+02
-1.602820124239022093e+00 -7.594738577930604251e+00 3.480000000000000000e+02
-2.328089617831810010e+00 -8.808816072023818222e+00 3.480000000000000000e+02
-3.053359111424598815e+00 -1.002289356611703397e+01 3.480000000000000000e+02
-3.778628605017387621e+00 -1.123697106021024794e+01 3.480000000000000000e+02
2.023527343724920158e+00 -1.524351107464529953e+00 3.490000000000000000e+02
1.298257850132131352e+00 -2.738428601557743924e+00 3.490000000000000000e+02
5.729883565393429912e-01 -3.952506095650959672e+00 3.490000000000000000e+02
-1.522811370534454256e-01 -5.166583589744173644e+00 3.490000000000000000e+02
-8.775506306462337314e-01 -6.380661083837388503e+00 3.490000000000000000e+02
-1.602820124239022093e+00 -7.594738577930604251e+00 3.490000000000000000e+02
-2.328089617831810010e+00 -8.808816072023818222e+00 3.490000000000000000e+02
-3.053359111424598815e+00 -1.002289356611703397e+01 3.490000000000000000e+02
-3.778628605017387621e+00 -1.123697106021024794e+01 3.490000000000000000e+02
2.023527343724920158e+00 -1.524351107464529953e+00 3.500000000000000000e+02
1.298257850132131352e+00 -2.738428601557743924e+00 3.500000000000000000e+02
5.729883565393429912e-01 -3.952506095650959672e+00 3.500000000000000000e+02
-1.522811370534454256e-01 -5.166583589744173644e+00 3.500000000000000000e+02
-8.775506306462337314e-01 -6.380661083837388503e+00 3.500000000000000000e+02
-1.602820124239022093e+00 -7.594738577930604251e+00 3.500000000000000000e+02
-2.328089617831810010e+00 -8.808816072023818222e+00 3.500000000000000000e+02
-3.053359111424598815e+00 -1.002289356611703397e+01 3.500000000000000000e+02
-3.778628605017387621e+00 -1.123697106021024794e+01 3.500000000000000000e+02
-4.503898098610175538e+00 -1.245104855430346369e+01 3.500000000000000000e+02
2.023527343724920158e+00 -1.524351107464529953e+00 3.510000000000000000e+02
1.298257850132131352e+00 -2.738428601557743924e+00 3.510000000000000000e+02
5.729883565393429912e-01 -3.952506095650959672e+00 3.510000000000000000e+02
-1.522811370534454256e-01 -5.166583589744173644e+00 3.510000000000000000e+02
-8.775506306462337314e-01 -6.380661083837388503e+00 3.510000000000000000e+02
-1.602820124239022093e+00 -7.594738577930604251e+00 3.510000000000000000e+02
-2.328089617831810010e+00 -8.808816072023818222e+00 3.510000000000000000e+02
-3.053359111424598815e+00 -1.002289356611703397e+01 3.510000000000000000e+02
-3.778628605017387621e+00 -1.123697106021024794e+01 3.510000000000000000e+02
-4.503898098610175538e+00 -1.245104855430346369e+01 3.510000000000000000e+02
2.023527343724920158e+00 -1.524351107464529953e+00 3.520000000000000000e+02
1.298257850132131352e+00 -2.738428601557743924e+00 3.520000000000000000e+02
5.729883565393429912e-01 -3.952506095650959672e+00 3.520000000000000000e+02
-1.522811370534454256e-01 -5.166583589744173644e+00 3.520000000000000000e+02
-8.775506306462337314e-01 -6.380661083837388503e+00 3.520000000000000000e+02
-1.602820124239022093e+00 -7.594738577930604251e+00 3.520000000000000000e+02
-2.328089617831810010e+00 -8.808816072023818222e+00 3.520000000000000000e+02
-3.053359111424598815e+00 -1.002289356611703397e+01 3.520000000000000000e+02
-3.778628605017387621e+00 -1.123697106021024794e+01 3.520000000000000000e+02
-4.503898098610175538e+00 -1.245104855430346369e+01 3.520000000000000000e+02
2.023527343724920158e+00 -1.524351107464529953e+00 3.530000000000000000e+02
1.298257850132131352e+00 -2.738428601557743924e+00 3.530000000000000000e+02
5.729883565393429912e-01 -3.952506095650959672e+00 3.530000000000000000e+02
-1.522811370534454256e-01 -5.166583589744173644e+00 3.530000000000000000e+02
-8.775506306462337314e-01 -6.380661083837388503e+00 3.530000000000000000e+02
-1.602820124239022093e+00 -7.594738577930604251e+00 3.530000000000000000e+02
-2.328089617831810010e+00 -8.808816072023818222e+00 3.530000000000000000e+02
-3.053359111424598815e+00 -1.002289356611703397e+01 3.530000000000000000e+02
-3.778628605017387621e+00 -1.123697106021024794e+01 3.530000000000000000e+02
-4.503898098610175538e+00 -1.245104855430346369e+01 3.530000000000000000e+02
2.023527343724920158e+00 -1.524351107464529953e+00 3.540000000000000000e+02
1.298257850132131352e+00 -2.738428601557743924e+00 3.540000000000000000e+02
5.729883565393429912e-01 -3.952506095650959672e+00 3.540000000000000000e+02
-1.522811370534454256e-01 -5.166583589744173644e+00 3.540000000000000000e+02
-8.775506306462337314e-01 -6.380661083837388503e+00 3.540000000000000000e+02
-1.602820124239022093e+00 -7.594738577930604251e+00 3.540000000000000000e+02
-2.328089617831810010e+00 -8.808816072023818222e+00 3.540000000000000000e+02
-3.053359111424598815e+00 -1.002289356611703397e+01 3.540000000000000000e+02
-3.778628605017387621e+00 -1.123697106021024794e+01 3.540000000000000000e+02
-4.503898098610175538e+00 -1.245104855430346369e+01 3.540000000000000000e+02
2.023527343724920158e+00 -1.524351107464529953e+00 3.550000000000000000e+02
1.298257850132131352e+00 -2.738428601557743924e+00 3.550000000000000000e+02
5.729883565393429912e-01 -3.952506095650959672e+00 3.550000000000000000e+02
-1.522811370534454256e-01 -5.166583589744173644e+00 3.550000000000000000e+02
-8.775506306462337314e-01 -6.380661083837388503e+00 3.550000000000000000e+02
-1.602820124239022093e+00 -7.594738577930604251e+00 3.550000000000000000e+02
-2.328089617831810010e+00 -8.808816072023818222e+00 3.550000000000000000e+02
-3.053359111424598815e+00 -1.002289356611703397e+01 3.550000000000000000e+02
-3.778628605017387621e+00 -1.123697106021024794e+01 3.550000000000000000e+02
-4.503898098610175538e+00 -1.245104855430346369e+01 3.550000000000000000e+02
2.023527343724920158e+00 -1.524351107464529953e+00 3.560000000000000000e+02
1.298257850132131352e+00 -2.738428601557743924e+00 3.560000000000000000e+02
5.729883565393429912e-01 -3.952506095650959672e+00 3.560000000000000000e+02
-1.522811370534454256e-01 -5.166583589744173644e+00 3.560000000000000000e+02
-8.775506306462337314e-01 -6.380661083837388503e+00 3.560000000000000000e+02
-1.602820124239022093e+00 -7.594738577930604251e+00 3.560000000000000000e+02
-2.328089617831810010e+00 -8.808816072023818222e+00 3.560000000000000000e+02
-3.053359111424598815e+00 -1.002289356611703397e+01 3.560000000000000000e+02
-3.778628605017387621e+00 -1.123697106021024794e+01 3.560000000000000000e+02
-4.503898098610175538e+00 -1.245104855430346369e+01 3.560000000000000000e+02
2.023527343724920158e+00 -1.524351107464529953e+00 3.570000000000000000e+02
1.298257850132131352e+00 -2.738428601557743924e+00 3.570000000000000000e+02
5.729883565393429912e-01 -3.952506095650959672e+00 3.570000000000000000e+02
-1.522811370534454256e-01 -5.166583589744173644e+00 3.570000000000000000e+02
-8.775506306462337314e-01 -6.380661083837388503e+00 3.570000000000000000e+02
-1.602820124239022093e+00 -7.594738577930604251e+00 3.570000000000000000e+02
-2.328089617831810010e+00 -8.808816072023818222e+00 3.570000000000000000e+02
-3.053359111424598815e+00 -1.002289356611703397e+01 3.570000000000000000e+02
-3.778628605017387621e+00 -1.123697106021024794e+01 3.570000000000000000e+02
-4.503898098610175538e+00 -1.245104855430346369e+01 3.570000000000000000e+02
2.023527343724920158e+00 -1.524351107464529953e+00 3.580000000000000000e+02
1.298257850132131352e+00 -2.738428601557743924e+00 3.580000000000000000e+02
5.729883565393429912e-01 -3.952506095650959672e+00 3.580000000000000000e+02
-1.522811370534454256e-01 -5.166583589744173644e+00 3.580000000000000000e+02
-8.775506306462337314e-01 -6.380661083837388503e+00 3.580000000000000000e+02
-1.602820124239022093e+00 -7.594738577930604251e+00 3.580000000000000000e+02
-2.328089617831810010e+00 -8.808816072023818222e+00 3.580000000000000000e+02
-3.053359111424598815e+00 -1.002289356611703397e+01 3.580000000000000000e+02
-3.778628605017387621e+00 -1.123697106021024794e+01 3.580000000000000000e+02
-4.503898098610175538e+00 -1.245104855430346369e+01 3.580000000000000000e+02
2.023527343724920158e+00 -1.524351107464529953e+00 3.590000000000000000e+02
1.298257850132131352e+00 -2.738428601557743924e+00 3.590000000000000000e+02
5.729883565393429912e-01 -3.952506095650959672e+00 3.590000000000000000e+02
-1.522811370534454256e-01 -5.166583589744173644e+00 3.590000000000000000e+02
-8.775506306462337314e-01 -6.380661083837388503e+00 3.590000000000000000e+02
-1.602820124239022093e+00 -7.594738577930604251e+00 3.590000000000000000e+02
-2.328089617831810010e+00 -8.808816072023818222e+00 3.590000000000000000e+02
-3.053359111424598815e+00 -1.002289356611703397e+01 3.590000000000000000e+02
-3.778628605017387621e+00 -1.123697106021024794e+01 3.590000000000000000e+02
-4.503898098610175538e+00 -1.245104855430346369e+01 3.590000000000000000e+02
2.023527343724920158e+00 -1.524351107464529953e+00 3.600000000000000000e+02
1.298257850132131352e+00 -2.738428601557743924e+00 3.600000000000000000e+02
5.729883565393429912e-01 -3.952506095650959672e+00 3.600000000000000000e+02
-1.522811370534454256e-01 -5.166583589744173644e+00 3.600000000000000000e+02
-8.775506306462337314e-01 -6.380661083837388503e+00 3.600000000000000000e+02
-1.602820124239022093e+00 -7.594738577930604251e+00 3.600000000000000000e+02
-2.328089617831810010e+00 -8.808816072023818222e+00 3.600000000000000000e+02
-3.053359111424598815e+00 -1.002289356611703397e+01 3.600000000000000000e+02
-3.778628605017387621e+00 -1.123697106021024794e+01 3.600000000000000000e+02
-4.503898098610175538e+00 -1.245104855430346369e+01 3.600000000000000000e+02
2.023527343724920158e+00 -1.524351107464529953e+00 3.610000000000000000e+02
1.298257850132131352e+00 -2.738428601557743924e+00 3.610000000000000000e+02
5.729883565393429912e-01 -3.952506095650959672e+00 3.610000000000000000e+02
-1.522811370534454256e-01 -5.166583589744173644e+00 3.610000000000000000e+02
-8.775506306462337314e-01 -6.380661083837388503e+00 3.610000000000000000e+02
-1.602820124239022093e+00 -7.594738577930604251e+00 3.610000000000000000e+02
-2.328089617831810010e+00 -8.808816072023818222e+00 3.610000000000000000e+02
-3.053359111424598815e+00 -1.002289356611703397e+01 3.610000000000000000e+02
-3.778628605017387621e+00 -1.123697106021024794e+01 3.610000000000000000e+02
-4.503898098610175538e+00 -1.245104855430346369e+01 3.610000000000000000e+02
2.023527343724920158e+00 -1.524351107464529953e+00 3.620000000000000000e+02
1.298257850132131352e+00 -2.738428601557743924e+00 3.620000000000000000e+02
5.729883565393429912e-01 -3.952506095650959672e+00 3.620000000000000000e+02
-1.522811370534454256e-01 -5.166583589744173644e+00 3.620000000000000000e+02
-8.775506306462337314e-01 -6.380661083837388503e+00 3.620000000000000000e+02
-1.602820124239022093e+00 -7.594738577930604251e+00 3.620000000000000000e+02
-2.328089617831810010e+00 -8.808816072023818222e+00 3.620000000000000000e+02
-3.053359111424598815e+00 -1.002289356611703397e+01 3.620000000000000000e+02
-3.778628605017387621e+00 -1.123697106021024794e+01 3.620000000000000000e+02
-4.503898098610175538e+00 -1.245104855430346369e+01 3.620000000000000000e+02
2.023527343724920158e+00 -1.524351107464529953e+00 3.630000000000000000e+02
1.298257850132131352e+00 -2.738428601557743924e+00 3.630000000000000000e+02
5.729883565393429912e-01 -3.952506095650959672e+00 3.630000000000000000e+02
-1.522811370534454256e-01 -5.166583589744173644e+00 3.630000000000000000e+02
-8.775506306462337314e-01 -6.380661083837388503e+00 3.630000000000000000e+02
-1.602820124239022093e+00 -7.594738577930604251e+00 3.630000000000000000e+02
-2.328089617831810010e+00 -8.808816072023818222e+00 3.630000000000000000e+02
-3.053359111424598815e+00 -1.002289356611703397e+01 3.630000000000000000e+02
-3.778628605017387621e+00 -1.123697106021024794e+01 3.630000000000000000e+02
-4.503898098610175538e+00 -1.245104855430346369e+01 3.630000000000000000e+02
-5.229167592202963455e+00 -1.366512604839667944e+01 3.630000000000000000e+02
2.023527343724920158e+00 -1.524351107464529953e+00 3.640000000000000000e+02
1.298257850132131352e+00 -2.738428601557743924e+00 3.640000000000000000e+02
5.729883565393429912e-01 -3.952506095650959672e+00 3.640000000000000000e+02
-1.522811370534454256e-01 -5.166583589744173644e+00 3.640000000000000000e+02
-8.775506306462337314e-01 -6.380661083837388503e+00 3.640000000000000000e+02
-1.602820124239022093e+00 -7.594738577930604251e+00 3.640000000000000000e+02
-2.328089617831810010e+00 -8.808816072023818222e+00 3.640000000000000000e+02
-3.053359111424598815e+00 -1.002289356611703397e+01 3.640000000000000000e+02
-3.778628605017387621e+00 -1.123697106021024794e+01 3.640000000000000000e+02
-4.503898098610175538e+00 -1.245104855430346369e+01 3.640000000000000000e+02
-5.229167592202963455e+00 -1.366512604839667944e+01 3.640000000000000000e+02
2.023527343724920158e+00 -1.524351107464529953e+00 3.650000000000000000e+02
1.298257850132131352e+00 -2.738428601557743924e+00 3.650000000000000000e+02
5.729883565393429912e-01 -3.952506095650959672e+00 3.650000000000000000e+02
-1.522811370534454256e-01 -5.166583589744173644e+00 3.650000000000000000e+02
-8.775506306462337314e-01 -6.380661083837388503e+00 3.650000000000000000e+02
-1.602820124239022093e+00 -7.594738577930604251e+00 3.650000000000000000e+02
-2.328089617831810010e+00 -8.808816072023818222e+00 3.650000000000000000e+02
-3.053359111424598815e+00 -1.002289356611703397e+01 3.650000000000000000e+02
-3.778628605017387621e+00 -1.123697106021024794e+01 3.650000000000000000e+02
-4.503898098610175538e+00 -1.245104855430346369e+01 3.650000000000000000e+02
-5.229167592202963455e+00 -1.366512604839667944e+01 3.650000000000000000e+02
2.023527343724920158e+00 -1.524351107464529953e+00 3.660000000000000000e+02
1.298257850132131352e+00 -2.738428601557743924e+00 3.660000000000000000e+02
5.729883565393429912e-01 -3.952506095650959672e+00 3.660000000000000000e+02
-1.522811370534454256e-01 -5.166583589744173644e+00 3.660000000000000000e+02
-8.775506306462337314e-01 -6.380661083837388503e+00 3.660000000000000000e+02
-1.602820124239022093e+00 -7.594738577930604251e+00 3.660000000000000000e+02
-2.328089617831810010e+00 -8.808816072023818222e+00 3.660000000000000000e+02
-3.053359111424598815e+00 -1.002289356611703397e+01 3.660000000000000000e+02
-3.778628605017387621e+00 -1.123697106021024794e+01 3.660000000000000000e+02
-4.503898098610175538e+00 -1.245104855430346369e+01 3.660000000000000000e+02
-5.229167592202963455e+00 -1.366512604839667944e+01 3.660000000000000000e+02
2.993200837567921546e+00 -1.279947107214316482e+00 3.670000000000000000e+02
2.267931343975132741e+00 -2.494024601307531341e+00 3.670000000000000000e+02
1.542661850382344602e+00 -3.708102095400746201e+00 3.670000000000000000e+02
8.173923567895562403e-01 -4.922179589493961060e+00 3.670000000000000000e+02
9.212286319676787905e-02 -6.136257083587175920e+00 3.670000000000000000e+02
-6.331466303960204822e-01 -7.350334577680390780e+00 3.670000000000000000e+02
-1.358416123988808843e+00 -8.564412071773604751e+00 3.670000000000000000e+02
-2.083685617581596539e+00 -9.778489565866820499e+00 3.670000000000000000e+02
-2.808955111174385344e+00 -1.099256705996003447e+01 3.670000000000000000e+02
-3.534224604767174149e+00 -1.220664455405325022e+01 3.670000000000000000e+02
-4.259494098359962067e+00 -1.342072204814646597e+01 3.670000000000000000e+02
-4.984763591952750872e+00 -1.463479954223967994e+01 3.670000000000000000e+02
2.023527343724920158e+00 -1.524351107464529953e+00 3.680000000000000000e+02
1.298257850132131352e+00 -2.738428601557743924e+00 3.680000000000000000e+02
5.729883565393429912e-01 -3.952506095650959672e+00 3.680000000000000000e+02
-1.522811370534454256e-01 -5.166583589744173644e+00 3.680000000000000000e+02
-8.775506306462337314e-01 -6.380661083837388503e+00 3.680000000000000000e+02
-1.602820124239022093e+00 -7.594738577930604251e+00 3.680000000000000000e+02
-2.328089617831810010e+00 -8.808816072023818222e+00 3.680000000000000000e+02
-3.053359111424598815e+00 -1.002289356611703397e+01 3.680000000000000000e+02
-3.778628605017387621e+00 -1.123697106021024794e+01 3.680000000000000000e+02
-4.503898098610175538e+00 -1.245104855430346369e+01 3.680000000000000000e+02
-5.229167592202963455e+00 -1.366512604839667944e+01 3.680000000000000000e+02
2.023527343724920158e+00 -1.524351107464529953e+00 3.690000000000000000e+02
1.298257850132131352e+00 -2.738428601557743924e+00 3.690000000000000000e+02
5.729883565393429912e-01 -3.952506095650959672e+00 3.690000000000000000e+02
-1.522811370534454256e-01 -5.166583589744173644e+00 3.690000000000000000e+02
-8.775506306462337314e-01 -6.380661083837388503e+00 3.690000000000000000e+02
-1.602820124239022093e+00 -7.594738577930604251e+00 3.690000000000000000e+02
-2.328089617831810010e+00 -8.808816072023818222e+00 3.690000000000000000e+02
-3.053359111424598815e+00 -1.002289356611703397e+01 3.690000000000000000e+02
-3.778628605017387621e+00 -1.123697106021024794e+01 3.690000000000000000e+02
-4.503898098610175538e+00 -1.245104855430346369e+01 3.690000000000000000e+02
2.023527343724920158e+00 -1.524351107464529953e+00 3.700000000000000000e+02
1.298257850132131352e+00 -2.738428601557743924e+00 3.700000000000000000e+02
5.729883565393429912e-01 -3.952506095650959672e+00 3.700000000000000000e+02
-1.522811370534454256e-01 -5.166583589744173644e+00 3.700000000000000000e+02
-8.775506306462337314e-01 -6.380661083837388503e+00 3.700000000000000000e+02
-1.602820124239022093e+00 -7.594738577930604251e+00 3.700000000000000000e+02
-2.328089617831810010e+00 -8.808816072023818222e+00 3.700000000000000000e+02
-3.053359111424598815e+00 -1.002289356611703397e+01 3.700000000000000000e+02
-3.778628605017387621e+00 -1.123697106021024794e+01 3.700000000000000000e+02
-4.503898098610175538e+00 -1.245104855430346369e+01 3.700000000000000000e+02
-5.229167592202963455e+00 -1.366512604839667944e+01 3.700000000000000000e+02
2.023527343724920158e+00 -1.524351107464529953e+00 3.710000000000000000e+02
1.298257850132131352e+00 -2.738428601557743924e+00 3.710000000000000000e+02
5.729883565393429912e-01 -3.952506095650959672e+00 3.710000000000000000e+02
-1.522811370534454256e-01 -5.166583589744173644e+00 3.710000000000000000e+02
-8.775506306462337314e-01 -6.380661083837388503e+00 3.710000000000000000e+02
-1.602820124239022093e+00 -7.594738577930604251e+00 3.710000000000000000e+02
-2.328089617831810010e+00 -8.808816072023818222e+00 3.710000000000000000e+02
-3.053359111424598815e+00 -1.002289356611703397e+01 3.710000000000000000e+02
-3.778628605017387621e+00 -1.123697106021024794e+01 3.710000000000000000e+02
-4.503898098610175538e+00 -1.245104855430346369e+01 3.710000000000000000e+02
-5.229167592202963455e+00 -1.366512604839667944e+01 3.710000000000000000e+02
2.023527343724920158e+00 -1.524351107464529953e+00 3.720000000000000000e+02
1.298257850132131352e+00 -2.738428601557743924e+00 3.720000000000000000e+02
5.729883565393429912e-01 -3.952506095650959672e+00 3.720000000000000000e+02
-1.522811370534454256e-01 -5.166583589744173644e+00 3.720000000000000000e+02
-8.775506306462337314e-01 -6.380661083837388503e+00 3.720000000000000000e+02
-1.602820124239022093e+00 -7.594738577930604251e+00 3.720000000000000000e+02
-2.328089617831810010e+00 -8.808816072023818222e+00 3.720000000000000000e+02
-3.053359111424598815e+00 -1.002289356611703397e+01 3.720000000000000000e+02
-3.778628605017387621e+00 -1.123697106021024794e+01 3.720000000000000000e+02
-4.503898098610175538e+00 -1.245104855430346369e+01 3.720000000000000000e+02
-5.229167592202963455e+00 -1.366512604839667944e+01 3.720000000000000000e+02
2.023527343724920158e+00 -1.524351107464529953e+00 3.730000000000000000e+02
1.298257850132131352e+00 -2.738428601557743924e+00 3.730000000000000000e+02
5.729883565393429912e-01 -3.952506095650959672e+00 3.730000000000000000e+02
-1.522811370534454256e-01 -5.166583589744173644e+00 3.730000000000000000e+02
-8.775506306462337314e-01 -6.380661083837388503e+00 3.730000000000000000e+02
-1.602820124239022093e+00 -7.594738577930604251e+00 3.730000000000000000e+02
-2.328089617831810010e+00 -8.808816072023818222e+00 3.730000000000000000e+02
-3.053359111424598815e+00 -1.002289356611703397e+01 3.730000000000000000e+02
-3.778628605017387621e+00 -1.123697106021024794e+01 3.730000000000000000e+02
-4.503898098610175538e+00 -1.245104855430346369e+01 3.730000000000000000e+02
-5.229167592202963455e+00 -1.366512604839667944e+01 3.730000000000000000e+02
1.053853849881918103e+00 -1.768755107714743424e+00 3.740000000000000000e+02
3.285843562891297420e-01 -2.982832601807957396e+00 3.740000000000000000e+02
-3.966851373036586192e-01 -4.196910095901172255e+00 3.740000000000000000e+02
-1.121954630896446981e+00 -5.410987589994387115e+00 3.740000000000000000e+02
-1.847224124489235342e+00 -6.625065084087601974e+00 3.740000000000000000e+02
-2.572493618082023481e+00 -7.839142578180816834e+00 3.740000000000000000e+02
-3.297763111674812286e+00 -9.053220072274031693e+00 3.740000000000000000e+02
-4.023032605267600204e+00 -1.026729756636724744e+01 3.740000000000000000e+02
-4.748302098860389009e+00 -1.148137506046046141e+01 3.740000000000000000e+02
-5.473571592453176926e+00 -1.269545255455367538e+01 3.740000000000000000e+02
1.053853849881918103e+00 -1.768755107714743424e+00 3.750000000000000000e+02
3.285843562891297420e-01 -2.982832601807957396e+00 3.750000000000000000e+02
-3.966851373036586192e-01 -4.196910095901172255e+00 3.750000000000000000e+02
-1.121954630896446981e+00 -5.410987589994387115e+00 3.750000000000000000e+02
-1.847224124489235342e+00 -6.625065084087601974e+00 3.750000000000000000e+02
-2.572493618082023481e+00 -7.839142578180816834e+00 3.750000000000000000e+02
-3.297763111674812286e+00 -9.053220072274031693e+00 3.750000000000000000e+02
-4.023032605267600204e+00 -1.026729756636724744e+01 3.750000000000000000e+02
-4.748302098860389009e+00 -1.148137506046046141e+01 3.750000000000000000e+02
-5.473571592453176926e+00 -1.269545255455367538e+01 3.750000000000000000e+02
1.053853849881918103e+00 -1.768755107714743424e+00 3.760000000000000000e+02
3.285843562891297420e-01 -2.982832601807957396e+00 3.760000000000000000e+02
-3.966851373036586192e-01 -4.196910095901172255e+00 3.760000000000000000e+02
-1.121954630896446981e+00 -5.410987589994387115e+00 3.760000000000000000e+02
-1.847224124489235342e+00 -6.625065084087601974e+00 3.760000000000000000e+02
-2.572493618082023481e+00 -7.839142578180816834e+00 3.760000000000000000e+02
-3.297763111674812286e+00 -9.053220072274031693e+00 3.760000000000000000e+02
-4.023032605267600204e+00 -1.026729756636724744e+01 3.760000000000000000e+02
-4.748302098860389009e+00 -1.148137506046046141e+01 3.760000000000000000e+02
-5.473571592453176926e+00 -1.269545255455367538e+01 3.760000000000000000e+02
2.023527343724920158e+00 -1.524351107464529953e+00 3.770000000000000000e+02
1.298257850132131352e+00 -2.738428601557743924e+00 3.770000000000000000e+02
5.729883565393429912e-01 -3.952506095650959672e+00 3.770000000000000000e+02
-1.522811370534454256e-01 -5.166583589744173644e+00 3.770000000000000000e+02
-8.775506306462337314e-01 -6.380661083837388503e+00 3.770000000000000000e+02
-1.602820124239022093e+00 -7.594738577930604251e+00 3.770000000000000000e+02
-2.328089617831810010e+00 -8.808816072023818222e+00 3.770000000000000000e+02
-3.053359111424598815e+00 -1.002289356611703397e+01 3.770000000000000000e+02
-3.778628605017387621e+00 -1.123697106021024794e+01 3.770000000000000000e+02
-4.503898098610175538e+00 -1.245104855430346369e+01 3.770000000000000000e+02
-5.229167592202963455e+00 -1.366512604839667944e+01 3.770000000000000000e+02
2.023527343724920158e+00 -1.524351107464529953e+00 3.780000000000000000e+02
1.298257850132131352e+00 -2.738428601557743924e+00 3.780000000000000000e+02
5.729883565393429912e-01 -3.952506095650959672e+00 3.780000000000000000e+02
-1.522811370534454256e-01 -5.166583589744173644e+00 3.780000000000000000e+02
-8.775506306462337314e-01 -6.380661083837388503e+00 3.780000000000000000e+02
-1.602820124239022093e+00 -7.594738577930604251e+00 3.780000000000000000e+02
-2.328089617831810010e+00 -8.808816072023818222e+00 3.780000000000000000e+02
-3.053359111424598815e+00 -1.002289356611703397e+01 3.780000000000000000e+02
-3.778628605017387621e+00 -1.123697106021024794e+01 3.780000000000000000e+02
-4.503898098610175538e+00 -1.245104855430346369e+01 3.780000000000000000e+02
-5.229167592202963455e+00 -1.366512604839667944e+01 3.780000000000000000e+02
2.023527343724920158e+00 -1.524351107464529953e+00 3.790000000000000000e+02
1.298257850132131352e+00 -2.738428601557743924e+00 3.790000000000000000e+02
5.729883565393429912e-01 -3.952506095650959672e+00 3.790000000000000000e+02
-1.522811370534454256e-01 -5.166583589744173644e+00 3.790000000000000000e+02
-8.775506306462337314e-01 -6.380661083837388503e+00 3.790000000000000000e+02
-1.602820124239022093e+00 -7.594738577930604251e+00 3.790000000000000000e+02
-2.328089617831810010e+00 -8.808816072023818222e+00 3.790000000000000000e+02
-3.053359111424598815e+00 -1.002289356611703397e+01 3.790000000000000000e+02
-3.778628605017387621e+00 -1.123697106021024794e+01 3.790000000000000000e+02
-4.503898098610175538e+00 -1.245104855430346369e+01 3.790000000000000000e+02
-5.229167592202963455e+00 -1.366512604839667944e+01 3.790000000000000000e+02
2.023527343724920158e+00 -1.524351107464529953e+00 3.800000000000000000e+02
1.298257850132131352e+00 -2.738428601557743924e+00 3.800000000000000000e+02
5.729883565393429912e-01 -3.952506095650959672e+00 3.800000000000000000e+02
-1.522811370534454256e-01 -5.166583589744173644e+00 3.800000000000000000e+02
-8.775506306462337314e-01 -6.380661083837388503e+00 3.800000000000000000e+02
-1.602820124239022093e+00 -7.594738577930604251e+00 3.800000000000000000e+02
-2.328089617831810010e+00 -8.808816072023818222e+00 3.800000000000000000e+02
-3.053359111424598815e+00 -1.002289356611703397e+01 3.800000000000000000e+02
-3.778628605017387621e+00 -1.123697106021024794e+01 3.800000000000000000e+02
-4.503898098610175538e+00 -1.245104855430346369e+01 3.800000000000000000e+02
-5.229167592202963455e+00 -1.366512604839667944e+01 3.800000000000000000e+02
2.023527343724920158e+00 -1.524351107464529953e+00 3.810000000000000000e+02
1.298257850132131352e+00 -2.738428601557743924e+00 3.810000000000000000e+02
5.729883565393429912e-01 -3.952506095650959672e+00 3.810000000000000000e+02
-1.522811370534454256e-01 -5.166583589744173644e+00 3.810000000000000000e+02
-8.775506306462337314e-01 -6.380661083837388503e+00 3.810000000000000000e+02
-1.602820124239022093e+00 -7.594738577930604251e+00 3.810000000000000000e+02
-2.328089617831810010e+00 -8.808816072023818222e+00 3.810000000000000000e+02
-3.053359111424598815e+00 -1.002289356611703397e+01 3.810000000000000000e+02
-3.778628605017387621e+00 -1.123697106021024794e+01 3.810000000000000000e+02
-4.503898098610175538e+00 -1.245104855430346369e+01 3.810000000000000000e+02
-5.229167592202963455e+00 -1.366512604839667944e+01 3.810000000000000000e+02
2.023527343724920158e+00 -1.524351107464529953e+00 3.820000000000000000e+02
1.298257850132131352e+00 -2.738428601557743924e+00 3.820000000000000000e+02
5.729883565393429912e-01 -3.952506095650959672e+00 3.820000000000000000e+02
-1.522811370534454256e-01 -5.166583589744173644e+00 3.820000000000000000e+02
-8.775506306462337314e-01 -6.380661083837388503e+00 3.820000000000000000e+02
-1.602820124239022093e+00 -7.594738577930604251e+00 3.820000000000000000e+02
-2.328089617831810010e+00 -8.808816072023818222e+00 3.820000000000000000e+02
-3.053359111424598815e+00 -1.002289356611703397e+01 3.820000000000000000e+02
-3.778628605017387621e+00 -1.123697106021024794e+01 3.820000000000000000e+02
-4.503898098610175538e+00 -1.245104855430346369e+01 3.820000000000000000e+02
-5.229167592202963455e+00 -1.366512604839667944e+01 3.820000000000000000e+02
1.053853849881918103e+00 -1.768755107714743424e+00 3.830000000000000000e+02
3.285843562891297420e-01 -2.982832601807957396e+00 3.830000000000000000e+02
-3.966851373036586192e-01 -4.196910095901172255e+00 3.830000000000000000e+02
-1.121954630896446981e+00 -5.410987589994387115e+00 3.830000000000000000e+02
-1.847224124489235342e+00 -6.625065084087601974e+00 3.830000000000000000e+02
-2.572493618082023481e+00 -7.839142578180816834e+00 3.830000000000000000e+02
-3.297763111674812286e+00 -9.053220072274031693e+00 3.830000000000000000e+02
-4.023032605267600204e+00 -1.026729756636724744e+01 3.830000000000000000e+02
-4.748302098860389009e+00 -1.148137506046046141e+01 3.830000000000000000e+02
2.023527343724920158e+00 -1.524351107464529953e+00 3.840000000000000000e+02
1.298257850132131352e+00 -2.738428601557743924e+00 3.840000000000000000e+02
5.729883565393429912e-01 -3.952506095650959672e+00 3.840000000000000000e+02
-1.522811370534454256e-01 -5.166583589744173644e+00 3.840000000000000000e+02
-8.775506306462337314e-01 -6.380661083837388503e+00 3.840000000000000000e+02
-1.602820124239022093e+00 -7.594738577930604251e+00 3.840000000000000000e+02
-2.328089617831810010e+00 -8.808816072023818222e+00 3.840000000000000000e+02
-3.053359111424598815e+00 -1.002289356611703397e+01 3.840000000000000000e+02
-3.778628605017387621e+00 -1.123697106021024794e+01 3.840000000000000000e+02
-4.503898098610175538e+00 -1.245104855430346369e+01 3.840000000000000000e+02
2.023527343724920158e+00 -1.524351107464529953e+00 3.850000000000000000e+02
1.298257850132131352e+00 -2.738428601557743924e+00 3.850000000000000000e+02
5.729883565393429912e-01 -3.952506095650959672e+00 3.850000000000000000e+02
-1.522811370534454256e-01 -5.166583589744173644e+00 3.850000000000000000e+02
-8.775506306462337314e-01 -6.380661083837388503e+00 3.850000000000000000e+02
-1.602820124239022093e+00 -7.594738577930604251e+00 3.850000000000000000e+02
-2.328089617831810010e+00 -8.808816072023818222e+00 3.850000000000000000e+02
-3.053359111424598815e+00 -1.002289356611703397e+01 3.850000000000000000e+02
-3.778628605017387621e+00 -1.123697106021024794e+01 3.850000000000000000e+02
-4.503898098610175538e+00 -1.245104855430346369e+01 3.850000000000000000e+02
-5.229167592202963455e+00 -1.366512604839667944e+01 3.850000000000000000e+02
2.023527343724920158e+00 -1.524351107464529953e+00 3.860000000000000000e+02
1.298257850132131352e+00 -2.738428601557743924e+00 3.860000000000000000e+02
5.729883565393429912e-01 -3.952506095650959672e+00 3.860000000000000000e+02
-1.522811370534454256e-01 -5.166583589744173644e+00 3.860000000000000000e+02
-8.775506306462337314e-01 -6.380661083837388503e+00 3.860000000000000000e+02
-1.602820124239022093e+00 -7.594738577930604251e+00 3.860000000000000000e+02
-2.328089617831810010e+00 -8.808816072023818222e+00 3.860000000000000000e+02
-3.053359111424598815e+00 -1.002289356611703397e+01 3.860000000000000000e+02
-3.778628605017387621e+00 -1.123697106021024794e+01 3.860000000000000000e+02
-4.503898098610175538e+00 -1.245104855430346369e+01 3.860000000000000000e+02
-5.229167592202963455e+00 -1.366512604839667944e+01 3.860000000000000000e+02
2.023527343724920158e+00 -1.524351107464529953e+00 3.870000000000000000e+02
1.298257850132131352e+00 -2.738428601557743924e+00 3.870000000000000000e+02
5.729883565393429912e-01 -3.952506095650959672e+00 3.870000000000000000e+02
-1.522811370534454256e-01 -5.166583589744173644e+00 3.870000000000000000e+02
-8.775506306462337314e-01 -6.380661083837388503e+00 3.870000000000000000e+02
-1.602820124239022093e+00 -7.594738577930604251e+00 3.870000000000000000e+02
-2.328089617831810010e+00 -8.808816072023818222e+00 3.870000000000000000e+02
-3.053359111424598815e+00 -1.002289356611703397e+01 3.870000000000000000e+02
-3.778628605017387621e+00 -1.123697106021024794e+01 3.870000000000000000e+02
-4.503898098610175538e+00 -1.245104855430346369e+01 3.870000000000000000e+02
2.023527343724920158e+00 -1.524351107464529953e+00 3.880000000000000000e+02
1.298257850132131352e+00 -2.738428601557743924e+00 3.880000000000000000e+02
5.729883565393429912e-01 -3.952506095650959672e+00 3.880000000000000000e+02
-1.522811370534454256e-01 -5.166583589744173644e+00 3.880000000000000000e+02
-8.775506306462337314e-01 -6.380661083837388503e+00 3.880000000000000000e+02
-1.602820124239022093e+00 -7.594738577930604251e+00 3.880000000000000000e+02
-2.328089617831810010e+00 -8.808816072023818222e+00 3.880000000000000000e+02
-3.053359111424598815e+00 -1.002289356611703397e+01 3.880000000000000000e+02
-3.778628605017387621e+00 -1.123697106021024794e+01 3.880000000000000000e+02
-4.503898098610175538e+00 -1.245104855430346369e+01 3.880000000000000000e+02
2.023527343724920158e+00 -1.524351107464529953e+00 3.890000000000000000e+02
1.298257850132131352e+00 -2.738428601557743924e+00 3.890000000000000000e+02
5.729883565393429912e-01 -3.952506095650959672e+00 3.890000000000000000e+02
-1.522811370534454256e-01 -5.166583589744173644e+00 3.890000000000000000e+02
-8.775506306462337314e-01 -6.380661083837388503e+00 3.890000000000000000e+02
-1.602820124239022093e+00 -7.594738577930604251e+00 3.890000000000000000e+02
-2.328089617831810010e+00 -8.808816072023818222e+00 3.890000000000000000e+02
-3.053359111424598815e+00 -1.002289356611703397e+01 3.890000000000000000e+02
-3.778628605017387621e+00 -1.123697106021024794e+01 3.890000000000000000e+02
-4.503898098610175538e+00 -1.245104855430346369e+01 3.890000000000000000e+02
2.023527343724920158e+00 -1.524351107464529953e+00 3.900000000000000000e+02
1.298257850132131352e+00 -2.738428601557743924e+00 3.900000000000000000e+02
5.729883565393429912e-01 -3.952506095650959672e+00 3.900000000000000000e+02
-1.522811370534454256e-01 -5.166583589744173644e+00 3.900000000000000000e+02
-8.775506306462337314e-01 -6.380661083837388503e+00 3.900000000000000000e+02
-1.602820124239022093e+00 -7.594738577930604251e+00 3.900000000000000000e+02
-2.328089617831810010e+00 -8.808816072023818222e+00 3.900000000000000000e+02
-3.053359111424598815e+00 -1.002289356611703397e+01 3.900000000000000000e+02
-3.778628605017387621e+00 -1.123697106021024794e+01 3.900000000000000000e+02
-4.503898098610175538e+00 -1.245104855430346369e+01 3.900000000000000000e+02
2.023527343724920158e+00 -1.524351107464529953e+00 3.910000000000000000e+02
1.298257850132131352e+00 -2.738428601557743924e+00 3.910000000000000000e+02
5.729883565393429912e-01 -3.952506095650959672e+00 3.910000000000000000e+02
-1.522811370534454256e-01 -5.166583589744173644e+00 3.910000000000000000e+02
-8.775506306462337314e-01 -6.380661083837388503e+00 3.910000000000000000e+02
-1.602820124239022093e+00 -7.594738577930604251e+00 3.910000000000000000e+02
-2.328089617831810010e+00 -8.808816072023818222e+00 3.910000000000000000e+02
-3.053359111424598815e+00 -1.002289356611703397e+01 3.910000000000000000e+02
-3.778628605017387621e+00 -1.123697106021024794e+01 3.910000000000000000e+02
-4.503898098610175538e+00 -1.245104855430346369e+01 3.910000000000000000e+02
-5.229167592202963455e+00 -1.366512604839667944e+01 3.910000000000000000e+02
2.023527343724920158e+00 -1.524351107464529953e+00 3.920000000000000000e+02
1.298257850132131352e+00 -2.738428601557743924e+00 3.920000000000000000e+02
5.729883565393429912e-01 -3.952506095650959672e+00 3.920000000000000000e+02
-1.522811370534454256e-01 -5.166583589744173644e+00 3.920000000000000000e+02
-8.775506306462337314e-01 -6.380661083837388503e+00 3.920000000000000000e+02
-1.602820124239022093e+00 -7.594738577930604251e+00 3.920000000000000000e+02
-2.328089617831810010e+00 -8.808816072023818222e+00 3.920000000000000000e+02
-3.053359111424598815e+00 -1.002289356611703397e+01 3.920000000000000000e+02
-3.778628605017387621e+00 -1.123697106021024794e+01 3.920000000000000000e+02
-4.503898098610175538e+00 -1.245104855430346369e+01 3.920000000000000000e+02
2.023527343724920158e+00 -1.524351107464529953e+00 3.930000000000000000e+02
1.298257850132131352e+00 -2.738428601557743924e+00 3.930000000000000000e+02
5.729883565393429912e-01 -3.952506095650959672e+00 3.930000000000000000e+02
-1.522811370534454256e-01 -5.166583589744173644e+00 3.930000000000000000e+02
-8.775506306462337314e-01 -6.380661083837388503e+00 3.930000000000000000e+02
-1.602820124239022093e+00 -7.594738577930604251e+00 3.930000000000000000e+02
-2.328089617831810010e+00 -8.808816072023818222e+00 3.930000000000000000e+02
-3.053359111424598815e+00 -1.002289356611703397e+01 3.930000000000000000e+02
-3.778628605017387621e+00 -1.123697106021024794e+01 3.930000000000000000e+02
-4.503898098610175538e+00 -1.245104855430346369e+01 3.930000000000000000e+02
2.023527343724920158e+00 -1.524351107464529953e+00 3.940000000000000000e+02
1.298257850132131352e+00 -2.738428601557743924e+00 3.940000000000000000e+02
5.729883565393429912e-01 -3.952506095650959672e+00 3.940000000000000000e+02
-1.522811370534454256e-01 -5.166583589744173644e+00 3.940000000000000000e+02
-8.775506306462337314e-01 -6.380661083837388503e+00 3.940000000000000000e+02
-1.602820124239022093e+00 -7.594738577930604251e+00 3.940000000000000000e+02
-2.328089617831810010e+00 -8.808816072023818222e+00 3.940000000000000000e+02
-3.053359111424598815e+00 -1.002289356611703397e+01 3.940000000000000000e+02
-3.778628605017387621e+00 -1.123697106021024794e+01 3.940000000000000000e+02
-4.503898098610175538e+00 -1.245104855430346369e+01 3.940000000000000000e+02
2.023527343724920158e+00 -1.524351107464529953e+00 3.950000000000000000e+02
1.298257850132131352e+00 -2.738428601557743924e+00 3.950000000000000000e+02
5.729883565393429912e-01 -3.952506095650959672e+00 3.950000000000000000e+02
-1.522811370534454256e-01 -5.166583589744173644e+00 3.950000000000000000e+02
-8.775506306462337314e-01 -6.380661083837388503e+00 3.950000000000000000e+02
-1.602820124239022093e+00 -7.594738577930604251e+00 3.950000000000000000e+02
-2.328089617831810010e+00 -8.808816072023818222e+00 3.950000000000000000e+02
-3.053359111424598815e+00 -1.002289356611703397e+01 3.950000000000000000e+02
-3.778628605017387621e+00 -1.123697106021024794e+01 3.950000000000000000e+02
-4.503898098610175538e+00 -1.245104855430346369e+01 3.950000000000000000e+02
2.023527343724920158e+00 -1.524351107464529953e+00 3.960000000000000000e+02
1.298257850132131352e+00 -2.738428601557743924e+00 3.960000000000000000e+02
5.729883565393429912e-01 -3.952506095650959672e+00 3.960000000000000000e+02
-1.522811370534454256e-01 -5.166583589744173644e+00 3.960000000000000000e+02
-8.775506306462337314e-01 -6.380661083837388503e+00 3.960000000000000000e+02
-1.602820124239022093e+00 -7.594738577930604251e+00 3.960000000000000000e+02
-2.328089617831810010e+00 -8.808816072023818222e+00 3.960000000000000000e+02
-3.053359111424598815e+00 -1.002289356611703397e+01 3.960000000000000000e+02
-3.778628605017387621e+00 -1.123697106021024794e+01 3.960000000000000000e+02
-4.503898098610175538e+00 -1.245104855430346369e+01 3.960000000000000000e+02
2.023527343724920158e+00 -1.524351107464529953e+00 3.970000000000000000e+02
1.298257850132131352e+00 -2.738428601557743924e+00 3.970000000000000000e+02
5.729883565393429912e-01 -3.952506095650959672e+00 3.970000000000000000e+02
-1.522811370534454256e-01 -5.166583589744173644e+00 3.970000000000000000e+02
-8.775506306462337314e-01 -6.380661083837388503e+00 3.970000000000000000e+02
-1.602820124239022093e+00 -7.594738577930604251e+00 3.970000000000000000e+02
-2.328089617831810010e+00 -8.808816072023818222e+00 3.970000000000000000e+02
-3.053359111424598815e+00 -1.002289356611703397e+01 3.970000000000000000e+02
-3.778628605017387621e+00 -1.123697106021024794e+01 3.970000000000000000e+02
-4.503898098610175538e+00 -1.245104855430346369e+01 3.970000000000000000e+02
2.023527343724920158e+00 -1.524351107464529953e+00 3.980000000000000000e+02
1.298257850132131352e+00 -2.738428601557743924e+00 3.980000000000000000e+02
