3.157821493348793140e+00 -3.109841063172186892e+00 3.190000000000000000e+02
1.998568671900724070e+00 -2.299820757275667038e+00 3.190000000000000000e+02
8.393158504526552210e-01 -1.489800451379147406e+00 3.190000000000000000e+02
-3.199369709954137941e-01 -6.797801454826277734e-01 3.190000000000000000e+02
-1.479189792443482698e+00 1.302401604138920532e-01 3.190000000000000000e+02
-2.638442613891551769e+00 9.402604663104117133e-01 3.190000000000000000e+02
-3.797695435339620840e+00 1.750280772206931346e+00 3.190000000000000000e+02
-4.956948256787690354e+00 2.560301078103451200e+00 3.190000000000000000e+02
5.476327136244931282e+00 -4.729881674965225713e+00 3.200000000000000000e+02
4.317074314796862211e+00 -3.919861369068705859e+00 3.200000000000000000e+02
3.157821493348793140e+00 -3.109841063172186892e+00 3.200000000000000000e+02
1.998568671900724070e+00 -2.299820757275667038e+00 3.200000000000000000e+02
8.393158504526552210e-01 -1.489800451379147406e+00 3.200000000000000000e+02
-3.199369709954137941e-01 -6.797801454826277734e-01 3.200000000000000000e+02
-1.479189792443482698e+00 1.302401604138920532e-01 3.200000000000000000e+02
-2.638442613891551769e+00 9.402604663104117133e-01 3.200000000000000000e+02
-3.797695435339620840e+00 1.750280772206931346e+00 3.200000000000000000e+02
-4.956948256787690354e+00 2.560301078103451200e+00 3.200000000000000000e+02
5.476327136244931282e+00 -4.729881674965225713e+00 3.210000000000000000e+02
4.317074314796862211e+00 -3.919861369068705859e+00 3.210000000000000000e+02
3.157821493348793140e+00 -3.109841063172186892e+00 3.210000000000000000e+02
1.998568671900724070e+00 -2.299820757275667038e+00 3.210000000000000000e+02
8.393158504526552210e-01 -1.489800451379147406e+00 3.210000000000000000e+02
-3.199369709954137941e-01 -6.797801454826277734e-01 3.210000000000000000e+02
-1.479189792443482698e+00 1.302401604138920532e-01 3.210000000000000000e+02
-2.638442613891551769e+00 9.402604663104117133e-01 3.210000000000000000e+02
-3.797695435339620840e+00 1.750280772206931346e+00 3.210000000000000000e+02
-4.956948256787690354e+00 2.560301078103451200e+00 3.210000000000000000e+02
5.476327136244931282e+00 -4.729881674965225713e+00 3.220000000000000000e+02
4.317074314796862211e+00 -3.919861369068705859e+00 3.220000000000000000e+02
3.157821493348793140e+00 -3.109841063172186892e+00 3.220000000000000000e+02
1.998568671900724070e+00 -2.299820757275667038e+00 3.220000000000000000e+02
8.393158504526552210e-01 -1.489800451379147406e+00 3.220000000000000000e+02
-3.199369709954137941e-01 -6.797801454826277734e-01 3.220000000000000000e+02
-1.479189792443482698e+00 1.302401604138920532e-01 3.220000000000000000e+02
-2.638442613891551769e+00 9.402604663104117133e-01 3.220000000000000000e+02
-3.797695435339620840e+00 1.750280772206931346e+00 3.220000000000000000e+02
-4.956948256787690354e+00 2.560301078103451200e+00 3.220000000000000000e+02
-6.116201078235758537e+00 3.370321383999971498e+00 3.220000000000000000e+02
5.476327136244931282e+00 -4.729881674965225713e+00 3.230000000000000000e+02
4.317074314796862211e+00 -3.919861369068705859e+00 3.230000000000000000e+02
3.157821493348793140e+00 -3.109841063172186892e+00 3.230000000000000000e+02
1.998568671900724070e+00 -2.299820757275667038e+00 3.230000000000000000e+02
8.393158504526552210e-01 -1.489800451379147406e+00 3.230000000000000000e+02
-3.199369709954137941e-01 -6.797801454826277734e-01 3.230000000000000000e+02
-1.479189792443482698e+00 1.302401604138920532e-01 3.230000000000000000e+02
-2.638442613891551769e+00 9.402604663104117133e-01 3.230000000000000000e+02
-3.797695435339620840e+00 1.750280772206931346e+00 3.230000000000000000e+02
-4.956948256787690354e+00 2.560301078103451200e+00 3.230000000000000000e+02
-6.116201078235758537e+00 3.370321383999971498e+00 3.230000000000000000e+02
5.476327136244931282e+00 -4.729881674965225713e+00 3.240000000000000000e+02
4.317074314796862211e+00 -3.919861369068705859e+00 3.240000000000000000e+02
3.157821493348793140e+00 -3.109841063172186892e+00 3.240000000000000000e+02
1.998568671900724070e+00 -2.299820757275667038e+00 3.240000000000000000e+02
8.393158504526552210e-01 -1.489800451379147406e+00 3.240000000000000000e+02
-3.199369709954137941e-01 -6.797801454826277734e-01 3.240000000000000000e+02
-1.479189792443482698e+00 1.302401604138920532e-01 3.240000000000000000e+02
-2.638442613891551769e+00 9.402604663104117133e-01 3.240000000000000000e+02
-3.797695435339620840e+00 1.750280772206931346e+00 3.240000000000000000e+02
-4.956948256787690354e+00 2.560301078103451200e+00 3.240000000000000000e+02
5.476327136244931282e+00 -4.729881674965225713e+00 3.250000000000000000e+02
4.317074314796862211e+00 -3.919861369068705859e+00 3.250000000000000000e+02
3.157821493348793140e+00 -3.109841063172186892e+00 3.250000000000000000e+02
1.998568671900724070e+00 -2.299820757275667038e+00 3.250000000000000000e+02
8.393158504526552210e-01 -1.489800451379147406e+00 3.250000000000000000e+02
-3.199369709954137941e-01 -6.797801454826277734e-01 3.250000000000000000e+02
-1.479189792443482698e+00 1.302401604138920532e-01 3.250000000000000000e+02
-2.638442613891551769e+00 9.402604663104117133e-01 3.250000000000000000e+02
-3.797695435339620840e+00 1.750280772206931346e+00 3.250000000000000000e+02
-4.956948256787690354e+00 2.560301078103451200e+00 3.250000000000000000e+02
5.476327136244931282e+00 -4.729881674965225713e+00 3.260000000000000000e+02
4.317074314796862211e+00 -3.919861369068705859e+00 3.260000000000000000e+02
3.157821493348793140e+00 -3.109841063172186892e+00 3.260000000000000000e+02
1.998568671900724070e+00 -2.299820757275667038e+00 3.260000000000000000e+02
8.393158504526552210e-01 -1.489800451379147406e+00 3.260000000000000000e+02
-3.199369709954137941e-01 -6.797801454826277734e-01 3.260000000000000000e+02
-1.479189792443482698e+00 1.302401604138920532e-01 3.260000000000000000e+02
-2.638442613891551769e+00 9.402604663104117133e-01 3.260000000000000000e+02
-3.797695435339620840e+00 1.750280772206931346e+00 3.260000000000000000e+02
-4.956948256787690354e+00 2.560301078103451200e+00 3.260000000000000000e+02
5.476327136244931282e+00 -4.729881674965225713e+00 3.270000000000000000e+02
4.317074314796862211e+00 -3.919861369068705859e+00 3.270000000000000000e+02
3.157821493348793140e+00 -3.109841063172186892e+00 3.270000000000000000e+02
1.998568671900724070e+00 -2.299820757275667038e+00 3.270000000000000000e+02
8.393158504526552210e-01 -1.489800451379147406e+00 3.270000000000000000e+02
-3.199369709954137941e-01 -6.797801454826277734e-01 3.270000000000000000e+02
-1.479189792443482698e+00 1.302401604138920532e-01 3.270000000000000000e+02
-2.638442613891551769e+00 9.402604663104117133e-01 3.270000000000000000e+02
-3.797695435339620840e+00 1.750280772206931346e+00 3.270000000000000000e+02
-4.956948256787690354e+00 2.560301078103451200e+00 3.270000000000000000e+02
-6.116201078235758537e+00 3.370321383999971498e+00 3.270000000000000000e+02
5.476327136244931282e+00 -4.729881674965225713e+00 3.280000000000000000e+02
4.317074314796862211e+00 -3.919861369068705859e+00 3.280000000000000000e+02
3.157821493348793140e+00 -3.109841063172186892e+00 3.280000000000000000e+02
1.998568671900724070e+00 -2.299820757275667038e+00 3.280000000000000000e+02
8.393158504526552210e-01 -1.489800451379147406e+00 3.280000000000000000e+02
-3.199369709954137941e-01 -6.797801454826277734e-01 3.280000000000000000e+02
-1.479189792443482698e+00 1.302401604138920532e-01 3.280000000000000000e+02
-2.638442613891551769e+00 9.402604663104117133e-01 3.280000000000000000e+02
-3.797695435339620840e+00 1.750280772206931346e+00 3.280000000000000000e+02
-4.956948256787690354e+00 2.560301078103451200e+00 3.280000000000000000e+02
-6.116201078235758537e+00 3.370321383999971498e+00 3.280000000000000000e+02
5.476327136244931282e+00 -4.729881674965225713e+00 3.290000000000000000e+02
4.317074314796862211e+00 -3.919861369068705859e+00 3.290000000000000000e+02
3.157821493348793140e+00 -3.109841063172186892e+00 3.290000000000000000e+02
1.998568671900724070e+00 -2.299820757275667038e+00 3.290000000000000000e+02
8.393158504526552210e-01 -1.489800451379147406e+00 3.290000000000000000e+02
-3.199369709954137941e-01 -6.797801454826277734e-01 3.290000000000000000e+02
-1.479189792443482698e+00 1.302401604138920532e-01 3.290000000000000000e+02
-2.638442613891551769e+00 9.402604663104117133e-01 3.290000000000000000e+02
-3.797695435339620840e+00 1.750280772206931346e+00 3.290000000000000000e+02
-4.956948256787690354e+00 2.560301078103451200e+00 3.290000000000000000e+02
-6.116201078235758537e+00 3.370321383999971498e+00 3.290000000000000000e+02
5.476327136244931282e+00 -4.729881674965225713e+00 3.300000000000000000e+02
4.317074314796862211e+00 -3.919861369068705859e+00 3.300000000000000000e+02
3.157821493348793140e+00 -3.109841063172186892e+00 3.300000000000000000e+02
1.998568671900724070e+00 -2.299820757275667038e+00 3.300000000000000000e+02
8.393158504526552210e-01 -1.489800451379147406e+00 3.300000000000000000e+02
-3.199369709954137941e-01 -6.797801454826277734e-01 3.300000000000000000e+02
-1.479189792443482698e+00 1.302401604138920532e-01 3.300000000000000000e+02
-2.638442613891551769e+00 9.402604663104117133e-01 3.300000000000000000e+02
-3.797695435339620840e+00 1.750280772206931346e+00 3.300000000000000000e+02
-4.956948256787690354e+00 2.560301078103451200e+00 3.300000000000000000e+02
-6.116201078235758537e+00 3.370321383999971498e+00 3.300000000000000000e+02
5.476327136244931282e+00 -4.729881674965225713e+00 3.310000000000000000e+02
4.317074314796862211e+00 -3.919861369068705859e+00 3.310000000000000000e+02
3.157821493348793140e+00 -3.109841063172186892e+00 3.310000000000000000e+02
1.998568671900724070e+00 -2.299820757275667038e+00 3.310000000000000000e+02
8.393158504526552210e-01 -1.489800451379147406e+00 3.310000000000000000e+02
-3.199369709954137941e-01 -6.797801454826277734e-01 3.310000000000000000e+02
-1.479189792443482698e+00 1.302401604138920532e-01 3.310000000000000000e+02
-2.638442613891551769e+00 9.402604663104117133e-01 3.310000000000000000e+02
-3.797695435339620840e+00 1.750280772206931346e+00 3.310000000000000000e+02
-4.956948256787690354e+00 2.560301078103451200e+00 3.310000000000000000e+02
-6.116201078235758537e+00 3.370321383999971498e+00 3.310000000000000000e+02
5.476327136244931282e+00 -4.729881674965225713e+00 3.320000000000000000e+02
4.317074314796862211e+00 -3.919861369068705859e+00 3.320000000000000000e+02
3.157821493348793140e+00 -3.109841063172186892e+00 3.320000000000000000e+02
1.998568671900724070e+00 -2.299820757275667038e+00 3.320000000000000000e+02
8.393158504526552210e-01 -1.489800451379147406e+00 3.320000000000000000e+02
-3.199369709954137941e-01 -6.797801454826277734e-01 3.320000000000000000e+02
-1.479189792443482698e+00 1.302401604138920532e-01 3.320000000000000000e+02
-2.638442613891551769e+00 9.402604663104117133e-01 3.320000000000000000e+02
-3.797695435339620840e+00 1.750280772206931346e+00 3.320000000000000000e+02
-4.956948256787690354e+00 2.560301078103451200e+00 3.320000000000000000e+02
-6.116201078235758537e+00 3.370321383999971498e+00 3.320000000000000000e+02
5.476327136244931282e+00 -4.729881674965225713e+00 3.330000000000000000e+02
4.317074314796862211e+00 -3.919861369068705859e+00 3.330000000000000000e+02
3.157821493348793140e+00 -3.109841063172186892e+00 3.330000000000000000e+02
1.998568671900724070e+00 -2.299820757275667038e+00 3.330000000000000000e+02
8.393158504526552210e-01 -1.489800451379147406e+00 3.330000000000000000e+02
-3.199369709954137941e-01 -6.797801454826277734e-01 3.330000000000000000e+02
-1.479189792443482698e+00 1.302401604138920532e-01 3.330000000000000000e+02
-2.638442613891551769e+00 9.402604663104117133e-01 3.330000000000000000e+02
-3.797695435339620840e+00 1.750280772206931346e+00 3.330000000000000000e+02
-4.956948256787690354e+00 2.560301078103451200e+00 3.330000000000000000e+02
-6.116201078235758537e+00 3.370321383999971498e+00 3.330000000000000000e+02
5.476327136244931282e+00 -4.729881674965225713e+00 3.340000000000000000e+02
4.317074314796862211e+00 -3.919861369068705859e+00 3.340000000000000000e+02
3.157821493348793140e+00 -3.109841063172186892e+00 3.340000000000000000e+02
1.998568671900724070e+00 -2.299820757275667038e+00 3.340000000000000000e+02
8.393158504526552210e-01 -1.489800451379147406e+00 3.340000000000000000e+02
-3.199369709954137941e-01 -6.797801454826277734e-01 3.340000000000000000e+02
-1.479189792443482698e+00 1.302401604138920532e-01 3.340000000000000000e+02
-2.638442613891551769e+00 9.402604663104117133e-01 3.340000000000000000e+02
-3.797695435339620840e+00 1.750280772206931346e+00 3.340000000000000000e+02
-4.956948256787690354e+00 2.560301078103451200e+00 3.340000000000000000e+02
-6.116201078235758537e+00 3.370321383999971498e+00 3.340000000000000000e+02
5.476327136244931282e+00 -4.729881674965225713e+00 3.350000000000000000e+02
4.317074314796862211e+00 -3.919861369068705859e+00 3.350000000000000000e+02
3.157821493348793140e+00 -3.109841063172186892e+00 3.350000000000000000e+02
1.998568671900724070e+00 -2.299820757275667038e+00 3.350000000000000000e+02
8.393158504526552210e-01 -1.489800451379147406e+00 3.350000000000000000e+02
-3.199369709954137941e-01 -6.797801454826277734e-01 3.350000000000000000e+02
-1.479189792443482698e+00 1.302401604138920532e-01 3.350000000000000000e+02
-2.638442613891551769e+00 9.402604663104117133e-01 3.350000000000000000e+02
-3.797695435339620840e+00 1.750280772206931346e+00 3.350000000000000000e+02
-4.956948256787690354e+00 2.560301078103451200e+00 3.350000000000000000e+02
-6.116201078235758537e+00 3.370321383999971498e+00 3.350000000000000000e+02
5.476327136244931282e+00 -4.729881674965225713e+00 3.360000000000000000e+02
4.317074314796862211e+00 -3.919861369068705859e+00 3.360000000000000000e+02
3.157821493348793140e+00 -3.109841063172186892e+00 3.360000000000000000e+02
1.998568671900724070e+00 -2.299820757275667038e+00 3.360000000000000000e+02
8.393158504526552210e-01 -1.489800451379147406e+00 3.360000000000000000e+02
-3.199369709954137941e-01 -6.797801454826277734e-01 3.360000000000000000e+02
-1.479189792443482698e+00 1.302401604138920532e-01 3.360000000000000000e+02
-2.638442613891551769e+00 9.402604663104117133e-01 3.360000000000000000e+02
-3.797695435339620840e+00 1.750280772206931346e+00 3.360000000000000000e+02
-4.956948256787690354e+00 2.560301078103451200e+00 3.360000000000000000e+02
-6.116201078235758537e+00 3.370321383999971498e+00 3.360000000000000000e+02
5.301710878469156896e+00 -3.745245111292931028e+00 3.370000000000000000e+02
4.142458057021087825e+00 -2.935224805396412062e+00 3.370000000000000000e+02
2.983205235573018310e+00 -2.125204499499892652e+00 3.370000000000000000e+02
1.823952414124949684e+00 -1.315184193603372798e+00 3.370000000000000000e+02
6.646995926768805019e-01 -5.051638877068529432e-01 3.370000000000000000e+02
-4.945532287711884578e-01 3.048564181896667447e-01 3.370000000000000000e+02
-1.653806050219257529e+00 1.114876724086186321e+00 3.370000000000000000e+02
-2.813058871667326599e+00 1.924897029982706176e+00 3.370000000000000000e+02
-3.972311693115395670e+00 2.734917335879225586e+00 3.370000000000000000e+02
-5.131564514563464741e+00 3.544937641775745885e+00 3.370000000000000000e+02
5.476327136244931282e+00 -4.729881674965225713e+00 3.380000000000000000e+02
4.317074314796862211e+00 -3.919861369068705859e+00 3.380000000000000000e+02
3.157821493348793140e+00 -3.109841063172186892e+00 3.380000000000000000e+02
1.998568671900724070e+00 -2.299820757275667038e+00 3.380000000000000000e+02
8.393158504526552210e-01 -1.489800451379147406e+00 3.380000000000000000e+02
-3.199369709954137941e-01 -6.797801454826277734e-01 3.380000000000000000e+02
-1.479189792443482698e+00 1.302401604138920532e-01 3.380000000000000000e+02
-2.638442613891551769e+00 9.402604663104117133e-01 3.380000000000000000e+02
-3.797695435339620840e+00 1.750280772206931346e+00 3.380000000000000000e+02
-4.956948256787690354e+00 2.560301078103451200e+00 3.380000000000000000e+02
-6.116201078235758537e+00 3.370321383999971498e+00 3.380000000000000000e+02
5.476327136244931282e+00 -4.729881674965225713e+00 3.390000000000000000e+02
4.317074314796862211e+00 -3.919861369068705859e+00 3.390000000000000000e+02
3.157821493348793140e+00 -3.109841063172186892e+00 3.390000000000000000e+02
1.998568671900724070e+00 -2.299820757275667038e+00 3.390000000000000000e+02
8.393158504526552210e-01 -1.489800451379147406e+00 3.390000000000000000e+02
-3.199369709954137941e-01 -6.797801454826277734e-01 3.390000000000000000e+02
-1.479189792443482698e+00 1.302401604138920532e-01 3.390000000000000000e+02
-2.638442613891551769e+00 9.402604663104117133e-01 3.390000000000000000e+02
-3.797695435339620840e+00 1.750280772206931346e+00 3.390000000000000000e+02
-4.956948256787690354e+00 2.560301078103451200e+00 3.390000000000000000e+02
-6.116201078235758537e+00 3.370321383999971498e+00 3.390000000000000000e+02
5.476327136244931282e+00 -4.729881674965225713e+00 3.400000000000000000e+02
4.317074314796862211e+00 -3.919861369068705859e+00 3.400000000000000000e+02
3.157821493348793140e+00 -3.109841063172186892e+00 3.400000000000000000e+02
1.998568671900724070e+00 -2.299820757275667038e+00 3.400000000000000000e+02
8.393158504526552210e-01 -1.489800451379147406e+00 3.400000000000000000e+02
-3.199369709954137941e-01 -6.797801454826277734e-01 3.400000000000000000e+02
-1.479189792443482698e+00 1.302401604138920532e-01 3.400000000000000000e+02
-2.638442613891551769e+00 9.402604663104117133e-01 3.400000000000000000e+02
-3.797695435339620840e+00 1.750280772206931346e+00 3.400000000000000000e+02
-4.956948256787690354e+00 2.560301078103451200e+00 3.400000000000000000e+02
-6.116201078235758537e+00 3.370321383999971498e+00 3.400000000000000000e+02
5.476327136244931282e+00 -4.729881674965225713e+00 3.410000000000000000e+02
4.317074314796862211e+00 -3.919861369068705859e+00 3.410000000000000000e+02
3.157821493348793140e+00 -3.109841063172186892e+00 3.410000000000000000e+02
1.998568671900724070e+00 -2.299820757275667038e+00 3.410000000000000000e+02
8.393158504526552210e-01 -1.489800451379147406e+00 3.410000000000000000e+02
-3.199369709954137941e-01 -6.797801454826277734e-01 3.410000000000000000e+02
-1.479189792443482698e+00 1.302401604138920532e-01 3.410000000000000000e+02
-2.638442613891551769e+00 9.402604663104117133e-01 3.410000000000000000e+02
-3.797695435339620840e+00 1.750280772206931346e+00 3.410000000000000000e+02
-4.956948256787690354e+00 2.560301078103451200e+00 3.410000000000000000e+02
-6.116201078235758537e+00 3.370321383999971498e+00 3.410000000000000000e+02
5.476327136244931282e+00 -4.729881674965225713e+00 3.420000000000000000e+02
4.317074314796862211e+00 -3.919861369068705859e+00 3.420000000000000000e+02
3.157821493348793140e+00 -3.109841063172186892e+00 3.420000000000000000e+02
1.998568671900724070e+00 -2.299820757275667038e+00 3.420000000000000000e+02
8.393158504526552210e-01 -1.489800451379147406e+00 3.420000000000000000e+02
-3.199369709954137941e-01 -6.797801454826277734e-01 3.420000000000000000e+02
-1.479189792443482698e+00 1.302401604138920532e-01 3.420000000000000000e+02
-2.638442613891551769e+00 9.402604663104117133e-01 3.420000000000000000e+02
-3.797695435339620840e+00 1.750280772206931346e+00 3.420000000000000000e+02
-4.956948256787690354e+00 2.560301078103451200e+00 3.420000000000000000e+02
-6.116201078235758537e+00 3.370321383999971498e+00 3.420000000000000000e+02
5.476327136244931282e+00 -4.729881674965225713e+00 3.430000000000000000e+02
4.317074314796862211e+00 -3.919861369068705859e+00 3.430000000000000000e+02
3.157821493348793140e+00 -3.109841063172186892e+00 3.430000000000000000e+02
1.998568671900724070e+00 -2.299820757275667038e+00 3.430000000000000000e+02
8.393158504526552210e-01 -1.489800451379147406e+00 3.430000000000000000e+02
-3.199369709954137941e-01 -6.797801454826277734e-01 3.430000000000000000e+02
-1.479189792443482698e+00 1.302401604138920532e-01 3.430000000000000000e+02
-2.638442613891551769e+00 9.402604663104117133e-01 3.430000000000000000e+02
-3.797695435339620840e+00 1.750280772206931346e+00 3.430000000000000000e+02
-4.956948256787690354e+00 2.560301078103451200e+00 3.430000000000000000e+02
-6.116201078235758537e+00 3.370321383999971498e+00 3.430000000000000000e+02
5.476327136244931282e+00 -4.729881674965225713e+00 3.440000000000000000e+02
4.317074314796862211e+00 -3.919861369068705859e+00 3.440000000000000000e+02
3.157821493348793140e+00 -3.109841063172186892e+00 3.440000000000000000e+02
1.998568671900724070e+00 -2.299820757275667038e+00 3.440000000000000000e+02
8.393158504526552210e-01 -1.489800451379147406e+00 3.440000000000000000e+02
-3.199369709954137941e-01 -6.797801454826277734e-01 3.440000000000000000e+02
-1.479189792443482698e+00 1.302401604138920532e-01 3.440000000000000000e+02
-2.638442613891551769e+00 9.402604663104117133e-01 3.440000000000000000e+02
-3.797695435339620840e+00 1.750280772206931346e+00 3.440000000000000000e+02
-4.956948256787690354e+00 2.560301078103451200e+00 3.440000000000000000e+02
-6.116201078235758537e+00 3.370321383999971498e+00 3.440000000000000000e+02
5.476327136244931282e+00 -4.729881674965225713e+00 3.450000000000000000e+02
4.317074314796862211e+00 -3.919861369068705859e+00 3.450000000000000000e+02
3.157821493348793140e+00 -3.109841063172186892e+00 3.450000000000000000e+02
1.998568671900724070e+00 -2.299820757275667038e+00 3.450000000000000000e+02
8.393158504526552210e-01 -1.489800451379147406e+00 3.450000000000000000e+02
-3.199369709954137941e-01 -6.797801454826277734e-01 3.450000000000000000e+02
-1.479189792443482698e+00 1.302401604138920532e-01 3.450000000000000000e+02
-2.638442613891551769e+00 9.402604663104117133e-01 3.450000000000000000e+02
-3.797695435339620840e+00 1.750280772206931346e+00 3.450000000000000000e+02
-4.956948256787690354e+00 2.560301078103451200e+00 3.450000000000000000e+02
5.476327136244931282e+00 -4.729881674965225713e+00 3.460000000000000000e+02
4.317074314796862211e+00 -3.919861369068705859e+00 3.460000000000000000e+02
3.157821493348793140e+00 -3.109841063172186892e+00 3.460000000000000000e+02
1.998568671900724070e+00 -2.299820757275667038e+00 3.460000000000000000e+02
8.393158504526552210e-01 -1.489800451379147406e+00 3.460000000000000000e+02
-3.199369709954137941e-01 -6.797801454826277734e-01 3.460000000000000000e+02
-1.479189792443482698e+00 1.302401604138920532e-01 3.460000000000000000e+02
-2.638442613891551769e+00 9.402604663104117133e-01 3.460000000000000000e+02
-3.797695435339620840e+00 1.750280772206931346e+00 3.460000000000000000e+02
-4.956948256787690354e+00 2.560301078103451200e+00 3.460000000000000000e+02
5.301710878469156896e+00 -3.745245111292931028e+00 3.470000000000000000e+02
4.142458057021087825e+00 -2.935224805396412062e+00 3.470000000000000000e+02
2.983205235573018310e+00 -2.125204499499892652e+00 3.470000000000000000e+02
1.823952414124949684e+00 -1.315184193603372798e+00 3.470000000000000000e+02
6.646995926768805019e-01 -5.051638877068529432e-01 3.470000000000000000e+02
-4.945532287711884578e-01 3.048564181896667447e-01 3.470000000000000000e+02
-1.653806050219257529e+00 1.114876724086186321e+00 3.470000000000000000e+02
-2.813058871667326599e+00 1.924897029982706176e+00 3.470000000000000000e+02
-3.972311693115395670e+00 2.734917335879225586e+00 3.470000000000000000e+02
-5.131564514563464741e+00 3.544937641775745885e+00 3.470000000000000000e+02
5.301710878469156896e+00 -3.745245111292931028e+00 3.480000000000000000e+02
4.142458057021087825e+00 -2.935224805396412062e+00 3.480000000000000000e+02
2.983205235573018310e+00 -2.125204499499892652e+00 3.480000000000000000e+02
1.823952414124949684e+00 -1.315184193603372798e+00 3.480000000000000000e+02
6.646995926768805019e-01 -5.051638877068529432e-01 3.480000000000000000e+02
-4.945532287711884578e-01 3.048564181896667447e-01 3.480000000000000000e+02
-1.653806050219257529e+00 1.114876724086186321e+00 3.480000000000000000e+02
-2.813058871667326599e+00 1.924897029982706176e+00 3.480000000000000000e+02
-3.972311693115395670e+00 2.734917335879225586e+00 3.480000000000000000e+02
-5.131564514563464741e+00 3.544937641775745885e+00 3.480000000000000000e+02
5.476327136244931282e+00 -4.729881674965225713e+00 3.490000000000000000e+02
4.317074314796862211e+00 -3.919861369068705859e+00 3.490000000000000000e+02
3.157821493348793140e+00 -3.109841063172186892e+00 3.490000000000000000e+02
1.998568671900724070e+00 -2.299820757275667038e+00 3.490000000000000000e+02
8.393158504526552210e-01 -1.489800451379147406e+00 3.490000000000000000e+02
-3.199369709954137941e-01 -6.797801454826277734e-01 3.490000000000000000e+02
-1.479189792443482698e+00 1.302401604138920532e-01 3.490000000000000000e+02
-2.638442613891551769e+00 9.402604663104117133e-01 3.490000000000000000e+02
-3.797695435339620840e+00 1.750280772206931346e+00 3.490000000000000000e+02
-4.956948256787690354e+00 2.560301078103451200e+00 3.490000000000000000e+02
-6.116201078235758537e+00 3.370321383999971498e+00 3.490000000000000000e+02
5.476327136244931282e+00 -4.729881674965225713e+00 3.500000000000000000e+02
4.317074314796862211e+00 -3.919861369068705859e+00 3.500000000000000000e+02
3.157821493348793140e+00 -3.109841063172186892e+00 3.500000000000000000e+02
1.998568671900724070e+00 -2.299820757275667038e+00 3.500000000000000000e+02
8.393158504526552210e-01 -1.489800451379147406e+00 3.500000000000000000e+02
-3.199369709954137941e-01 -6.797801454826277734e-01 3.500000000000000000e+02
-1.479189792443482698e+00 1.302401604138920532e-01 3.500000000000000000e+02
-2.638442613891551769e+00 9.402604663104117133e-01 3.500000000000000000e+02
-3.797695435339620840e+00 1.750280772206931346e+00 3.500000000000000000e+02
-4.956948256787690354e+00 2.560301078103451200e+00 3.500000000000000000e+02
-6.116201078235758537e+00 3.370321383999971498e+00 3.500000000000000000e+02
5.476327136244931282e+00 -4.729881674965225713e+00 3.510000000000000000e+02
4.317074314796862211e+00 -3.919861369068705859e+00 3.510000000000000000e+02
3.157821493348793140e+00 -3.109841063172186892e+00 3.510000000000000000e+02
1.998568671900724070e+00 -2.299820757275667038e+00 3.510000000000000000e+02
8.393158504526552210e-01 -1.489800451379147406e+00 3.510000000000000000e+02
-3.199369709954137941e-01 -6.797801454826277734e-01 3.510000000000000000e+02
-1.479189792443482698e+00 1.302401604138920532e-01 3.510000000000000000e+02
-2.638442613891551769e+00 9.402604663104117133e-01 3.510000000000000000e+02
-3.797695435339620840e+00 1.750280772206931346e+00 3.510000000000000000e+02
-4.956948256787690354e+00 2.560301078103451200e+00 3.510000000000000000e+02
5.301710878469156896e+00 -3.745245111292931028e+00 3.520000000000000000e+02
4.142458057021087825e+00 -2.935224805396412062e+00 3.520000000000000000e+02
2.983205235573018310e+00 -2.125204499499892652e+00 3.520000000000000000e+02
1.823952414124949684e+00 -1.315184193603372798e+00 3.520000000000000000e+02
6.646995926768805019e-01 -5.051638877068529432e-01 3.520000000000000000e+02
-4.945532287711884578e-01 3.048564181896667447e-01 3.520000000000000000e+02
-1.653806050219257529e+00 1.114876724086186321e+00 3.520000000000000000e+02
-2.813058871667326599e+00 1.924897029982706176e+00 3.520000000000000000e+02
-3.972311693115395670e+00 2.734917335879225586e+00 3.520000000000000000e+02
-5.131564514563464741e+00 3.544937641775745885e+00 3.520000000000000000e+02
5.301710878469156896e+00 -3.745245111292931028e+00 3.530000000000000000e+02
4.142458057021087825e+00 -2.935224805396412062e+00 3.530000000000000000e+02
2.983205235573018310e+00 -2.125204499499892652e+00 3.530000000000000000e+02
1.823952414124949684e+00 -1.315184193603372798e+00 3.530000000000000000e+02
6.646995926768805019e-01 -5.051638877068529432e-01 3.530000000000000000e+02
-4.945532287711884578e-01 3.048564181896667447e-01 3.530000000000000000e+02
-1.653806050219257529e+00 1.114876724086186321e+00 3.530000000000000000e+02
-2.813058871667326599e+00 1.924897029982706176e+00 3.530000000000000000e+02
-3.972311693115395670e+00 2.734917335879225586e+00 3.530000000000000000e+02
-5.131564514563464741e+00 3.544937641775745885e+00 3.530000000000000000e+02
5.301710878469156896e+00 -3.745245111292931028e+00 3.540000000000000000e+02
4.142458057021087825e+00 -2.935224805396412062e+00 3.540000000000000000e+02
2.983205235573018310e+00 -2.125204499499892652e+00 3.540000000000000000e+02
1.823952414124949684e+00 -1.315184193603372798e+00 3.540000000000000000e+02
6.646995926768805019e-01 -5.051638877068529432e-01 3.540000000000000000e+02
-4.945532287711884578e-01 3.048564181896667447e-01 3.540000000000000000e+02
-1.653806050219257529e+00 1.114876724086186321e+00 3.540000000000000000e+02
-2.813058871667326599e+00 1.924897029982706176e+00 3.540000000000000000e+02
-3.972311693115395670e+00 2.734917335879225586e+00 3.540000000000000000e+02
-5.131564514563464741e+00 3.544937641775745885e+00 3.540000000000000000e+02
5.301710878469156896e+00 -3.745245111292931028e+00 3.550000000000000000e+02
4.142458057021087825e+00 -2.935224805396412062e+00 3.550000000000000000e+02
2.983205235573018310e+00 -2.125204499499892652e+00 3.550000000000000000e+02
1.823952414124949684e+00 -1.315184193603372798e+00 3.550000000000000000e+02
6.646995926768805019e-01 -5.051638877068529432e-01 3.550000000000000000e+02
-4.945532287711884578e-01 3.048564181896667447e-01 3.550000000000000000e+02
-1.653806050219257529e+00 1.114876724086186321e+00 3.550000000000000000e+02
-2.813058871667326599e+00 1.924897029982706176e+00 3.550000000000000000e+02
-3.972311693115395670e+00 2.734917335879225586e+00 3.550000000000000000e+02
-5.131564514563464741e+00 3.544937641775745885e+00 3.550000000000000000e+02
5.301710878469156896e+00 -3.745245111292931028e+00 3.560000000000000000e+02
4.142458057021087825e+00 -2.935224805396412062e+00 3.560000000000000000e+02
2.983205235573018310e+00 -2.125204499499892652e+00 3.560000000000000000e+02
1.823952414124949684e+00 -1.315184193603372798e+00 3.560000000000000000e+02
6.646995926768805019e-01 -5.051638877068529432e-01 3.560000000000000000e+02
-4.945532287711884578e-01 3.048564181896667447e-01 3.560000000000000000e+02
-1.653806050219257529e+00 1.114876724086186321e+00 3.560000000000000000e+02
-2.813058871667326599e+00 1.924897029982706176e+00 3.560000000000000000e+02
-3.972311693115395670e+00 2.734917335879225586e+00 3.560000000000000000e+02
-5.131564514563464741e+00 3.544937641775745885e+00 3.560000000000000000e+02
5.476327136244931282e+00 -4.729881674965225713e+00 3.570000000000000000e+02
4.317074314796862211e+00 -3.919861369068705859e+00 3.570000000000000000e+02
3.157821493348793140e+00 -3.109841063172186892e+00 3.570000000000000000e+02
1.998568671900724070e+00 -2.299820757275667038e+00 3.570000000000000000e+02
8.393158504526552210e-01 -1.489800451379147406e+00 3.570000000000000000e+02
-3.199369709954137941e-01 -6.797801454826277734e-01 3.570000000000000000e+02
-1.479189792443482698e+00 1.302401604138920532e-01 3.570000000000000000e+02
-2.638442613891551769e+00 9.402604663104117133e-01 3.570000000000000000e+02
-3.797695435339620840e+00 1.750280772206931346e+00 3.570000000000000000e+02
-4.956948256787690354e+00 2.560301078103451200e+00 3.570000000000000000e+02
-6.116201078235758537e+00 3.370321383999971498e+00 3.570000000000000000e+02
5.476327136244931282e+00 -4.729881674965225713e+00 3.580000000000000000e+02
4.317074314796862211e+00 -3.919861369068705859e+00 3.580000000000000000e+02
3.157821493348793140e+00 -3.109841063172186892e+00 3.580000000000000000e+02
1.998568671900724070e+00 -2.299820757275667038e+00 3.580000000000000000e+02
8.393158504526552210e-01 -1.489800451379147406e+00 3.580000000000000000e+02
-3.199369709954137941e-01 -6.797801454826277734e-01 3.580000000000000000e+02
-1.479189792443482698e+00 1.302401604138920532e-01 3.580000000000000000e+02
-2.638442613891551769e+00 9.402604663104117133e-01 3.580000000000000000e+02
-3.797695435339620840e+00 1.750280772206931346e+00 3.580000000000000000e+02
-4.956948256787690354e+00 2.560301078103451200e+00 3.580000000000000000e+02
-6.116201078235758537e+00 3.370321383999971498e+00 3.580000000000000000e+02
5.476327136244931282e+00 -4.729881674965225713e+00 3.590000000000000000e+02
4.317074314796862211e+00 -3.919861369068705859e+00 3.590000000000000000e+02
3.157821493348793140e+00 -3.109841063172186892e+00 3.590000000000000000e+02
1.998568671900724070e+00 -2.299820757275667038e+00 3.590000000000000000e+02
8.393158504526552210e-01 -1.489800451379147406e+00 3.590000000000000000e+02
-3.199369709954137941e-01 -6.797801454826277734e-01 3.590000000000000000e+02
-1.479189792443482698e+00 1.302401604138920532e-01 3.590000000000000000e+02
-2.638442613891551769e+00 9.402604663104117133e-01 3.590000000000000000e+02
-3.797695435339620840e+00 1.750280772206931346e+00 3.590000000000000000e+02
-4.956948256787690354e+00 2.560301078103451200e+00 3.590000000000000000e+02
5.301710878469156896e+00 -3.745245111292931028e+00 3.600000000000000000e+02
4.142458057021087825e+00 -2.935224805396412062e+00 3.600000000000000000e+02
2.983205235573018310e+00 -2.125204499499892652e+00 3.600000000000000000e+02
1.823952414124949684e+00 -1.315184193603372798e+00 3.600000000000000000e+02
6.646995926768805019e-01 -5.051638877068529432e-01 3.600000000000000000e+02
-4.945532287711884578e-01 3.048564181896667447e-01 3.600000000000000000e+02
-1.653806050219257529e+00 1.114876724086186321e+00 3.600000000000000000e+02
-2.813058871667326599e+00 1.924897029982706176e+00 3.600000000000000000e+02
-3.972311693115395670e+00 2.734917335879225586e+00 3.600000000000000000e+02
-5.131564514563464741e+00 3.544937641775745885e+00 3.600000000000000000e+02
5.301710878469156896e+00 -3.745245111292931028e+00 3.610000000000000000e+02
4.142458057021087825e+00 -2.935224805396412062e+00 3.610000000000000000e+02
2.983205235573018310e+00 -2.125204499499892652e+00 3.610000000000000000e+02
1.823952414124949684e+00 -1.315184193603372798e+00 3.610000000000000000e+02
6.646995926768805019e-01 -5.051638877068529432e-01 3.610000000000000000e+02
-4.945532287711884578e-01 3.048564181896667447e-01 3.610000000000000000e+02
-1.653806050219257529e+00 1.114876724086186321e+00 3.610000000000000000e+02
-2.813058871667326599e+00 1.924897029982706176e+00 3.610000000000000000e+02
-3.972311693115395670e+00 2.734917335879225586e+00 3.610000000000000000e+02
-5.131564514563464741e+00 3.544937641775745885e+00 3.610000000000000000e+02
5.301710878469156896e+00 -3.745245111292931028e+00 3.620000000000000000e+02
4.142458057021087825e+00 -2.935224805396412062e+00 3.620000000000000000e+02
2.983205235573018310e+00 -2.125204499499892652e+00 3.620000000000000000e+02
1.823952414124949684e+00 -1.315184193603372798e+00 3.620000000000000000e+02
6.646995926768805019e-01 -5.051638877068529432e-01 3.620000000000000000e+02
-4.945532287711884578e-01 3.048564181896667447e-01 3.620000000000000000e+02
-1.653806050219257529e+00 1.114876724086186321e+00 3.620000000000000000e+02
-2.813058871667326599e+00 1.924897029982706176e+00 3.620000000000000000e+02
-3.972311693115395670e+00 2.734917335879225586e+00 3.620000000000000000e+02
-5.131564514563464741e+00 3.544937641775745885e+00 3.620000000000000000e+02
-6.290817336011533811e+00 4.354957947672265739e+00 3.620000000000000000e+02
5.301710878469156896e+00 -3.745245111292931028e+00 3.630000000000000000e+02
4.142458057021087825e+00 -2.935224805396412062e+00 3.630000000000000000e+02
2.983205235573018310e+00 -2.125204499499892652e+00 3.630000000000000000e+02
1.823952414124949684e+00 -1.315184193603372798e+00 3.630000000000000000e+02
6.646995926768805019e-01 -5.051638877068529432e-01 3.630000000000000000e+02
-4.945532287711884578e-01 3.048564181896667447e-01 3.630000000000000000e+02
-1.653806050219257529e+00 1.114876724086186321e+00 3.630000000000000000e+02
-2.813058871667326599e+00 1.924897029982706176e+00 3.630000000000000000e+02
-3.972311693115395670e+00 2.734917335879225586e+00 3.630000000000000000e+02
-5.131564514563464741e+00 3.544937641775745885e+00 3.630000000000000000e+02
-6.290817336011533811e+00 4.354957947672265739e+00 3.630000000000000000e+02
5.301710878469156896e+00 -3.745245111292931028e+00 3.640000000000000000e+02
4.142458057021087825e+00 -2.935224805396412062e+00 3.640000000000000000e+02
2.983205235573018310e+00 -2.125204499499892652e+00 3.640000000000000000e+02
1.823952414124949684e+00 -1.315184193603372798e+00 3.640000000000000000e+02
6.646995926768805019e-01 -5.051638877068529432e-01 3.640000000000000000e+02
-4.945532287711884578e-01 3.048564181896667447e-01 3.640000000000000000e+02
-1.653806050219257529e+00 1.114876724086186321e+00 3.640000000000000000e+02
-2.813058871667326599e+00 1.924897029982706176e+00 3.640000000000000000e+02
-3.972311693115395670e+00 2.734917335879225586e+00 3.640000000000000000e+02
-5.131564514563464741e+00 3.544937641775745885e+00 3.640000000000000000e+02
-6.290817336011533811e+00 4.354957947672265739e+00 3.640000000000000000e+02
5.301710878469156896e+00 -3.745245111292931028e+00 3.650000000000000000e+02
4.142458057021087825e+00 -2.935224805396412062e+00 3.650000000000000000e+02
2.983205235573018310e+00 -2.125204499499892652e+00 3.650000000000000000e+02
1.823952414124949684e+00 -1.315184193603372798e+00 3.650000000000000000e+02
6.646995926768805019e-01 -5.051638877068529432e-01 3.650000000000000000e+02
-4.945532287711884578e-01 3.048564181896667447e-01 3.650000000000000000e+02
-1.653806050219257529e+00 1.114876724086186321e+00 3.650000000000000000e+02
-2.813058871667326599e+00 1.924897029982706176e+00 3.650000000000000000e+02
-3.972311693115395670e+00 2.734917335879225586e+00 3.650000000000000000e+02
-5.131564514563464741e+00 3.544937641775745885e+00 3.650000000000000000e+02
-6.290817336011533811e+00 4.354957947672265739e+00 3.650000000000000000e+02
5.301710878469156896e+00 -3.745245111292931028e+00 3.660000000000000000e+02
4.142458057021087825e+00 -2.935224805396412062e+00 3.660000000000000000e+02
2.983205235573018310e+00 -2.125204499499892652e+00 3.660000000000000000e+02
1.823952414124949684e+00 -1.315184193603372798e+00 3.660000000000000000e+02
6.646995926768805019e-01 -5.051638877068529432e-01 3.660000000000000000e+02
-4.945532287711884578e-01 3.048564181896667447e-01 3.660000000000000000e+02
-1.653806050219257529e+00 1.114876724086186321e+00 3.660000000000000000e+02
-2.813058871667326599e+00 1.924897029982706176e+00 3.660000000000000000e+02
-3.972311693115395670e+00 2.734917335879225586e+00 3.660000000000000000e+02
-5.131564514563464741e+00 3.544937641775745885e+00 3.660000000000000000e+02
-6.290817336011533811e+00 4.354957947672265739e+00 3.660000000000000000e+02
5.301710878469156896e+00 -3.745245111292931028e+00 3.670000000000000000e+02
4.142458057021087825e+00 -2.935224805396412062e+00 3.670000000000000000e+02
2.983205235573018310e+00 -2.125204499499892652e+00 3.670000000000000000e+02
1.823952414124949684e+00 -1.315184193603372798e+00 3.670000000000000000e+02
6.646995926768805019e-01 -5.051638877068529432e-01 3.670000000000000000e+02
-4.945532287711884578e-01 3.048564181896667447e-01 3.670000000000000000e+02
-1.653806050219257529e+00 1.114876724086186321e+00 3.670000000000000000e+02
-2.813058871667326599e+00 1.924897029982706176e+00 3.670000000000000000e+02
-3.972311693115395670e+00 2.734917335879225586e+00 3.670000000000000000e+02
-5.131564514563464741e+00 3.544937641775745885e+00 3.670000000000000000e+02
-6.290817336011533811e+00 4.354957947672265739e+00 3.670000000000000000e+02
5.301710878469156896e+00 -3.745245111292931028e+00 3.680000000000000000e+02
4.142458057021087825e+00 -2.935224805396412062e+00 3.680000000000000000e+02
2.983205235573018310e+00 -2.125204499499892652e+00 3.680000000000000000e+02
1.823952414124949684e+00 -1.315184193603372798e+00 3.680000000000000000e+02
6.646995926768805019e-01 -5.051638877068529432e-01 3.680000000000000000e+02
-4.945532287711884578e-01 3.048564181896667447e-01 3.680000000000000000e+02
-1.653806050219257529e+00 1.114876724086186321e+00 3.680000000000000000e+02
-2.813058871667326599e+00 1.924897029982706176e+00 3.680000000000000000e+02
-3.972311693115395670e+00 2.734917335879225586e+00 3.680000000000000000e+02
-5.131564514563464741e+00 3.544937641775745885e+00 3.680000000000000000e+02
-6.290817336011533811e+00 4.354957947672265739e+00 3.680000000000000000e+02
5.301710878469156896e+00 -3.745245111292931028e+00 3.690000000000000000e+02
4.142458057021087825e+00 -2.935224805396412062e+00 3.690000000000000000e+02
2.983205235573018310e+00 -2.125204499499892652e+00 3.690000000000000000e+02
1.823952414124949684e+00 -1.315184193603372798e+00 3.690000000000000000e+02
6.646995926768805019e-01 -5.051638877068529432e-01 3.690000000000000000e+02
-4.945532287711884578e-01 3.048564181896667447e-01 3.690000000000000000e+02
-1.653806050219257529e+00 1.114876724086186321e+00 3.690000000000000000e+02
-2.813058871667326599e+00 1.924897029982706176e+00 3.690000000000000000e+02
-3.972311693115395670e+00 2.734917335879225586e+00 3.690000000000000000e+02
-5.131564514563464741e+00 3.544937641775745885e+00 3.690000000000000000e+02
-6.290817336011533811e+00 4.354957947672265739e+00 3.690000000000000000e+02
5.301710878469156896e+00 -3.745245111292931028e+00 3.700000000000000000e+02
4.142458057021087825e+00 -2.935224805396412062e+00 3.700000000000000000e+02
2.983205235573018310e+00 -2.125204499499892652e+00 3.700000000000000000e+02
1.823952414124949684e+00 -1.315184193603372798e+00 3.700000000000000000e+02
6.646995926768805019e-01 -5.051638877068529432e-01 3.700000000000000000e+02
-4.945532287711884578e-01 3.048564181896667447e-01 3.700000000000000000e+02
-1.653806050219257529e+00 1.114876724086186321e+00 3.700000000000000000e+02
-2.813058871667326599e+00 1.924897029982706176e+00 3.700000000000000000e+02
-3.972311693115395670e+00 2.734917335879225586e+00 3.700000000000000000e+02
-5.131564514563464741e+00 3.544937641775745885e+00 3.700000000000000000e+02
-6.290817336011533811e+00 4.354957947672265739e+00 3.700000000000000000e+02
5.301710878469156896e+00 -3.745245111292931028e+00 3.710000000000000000e+02
4.142458057021087825e+00 -2.935224805396412062e+00 3.710000000000000000e+02
2.983205235573018310e+00 -2.125204499499892652e+00 3.710000000000000000e+02
1.823952414124949684e+00 -1.315184193603372798e+00 3.710000000000000000e+02
6.646995926768805019e-01 -5.051638877068529432e-01 3.710000000000000000e+02
-4.945532287711884578e-01 3.048564181896667447e-01 3.710000000000000000e+02
-1.653806050219257529e+00 1.114876724086186321e+00 3.710000000000000000e+02
-2.813058871667326599e+00 1.924897029982706176e+00 3.710000000000000000e+02
-3.972311693115395670e+00 2.734917335879225586e+00 3.710000000000000000e+02
-5.131564514563464741e+00 3.544937641775745885e+00 3.710000000000000000e+02
-6.290817336011533811e+00 4.354957947672265739e+00 3.710000000000000000e+02
5.301710878469156896e+00 -3.745245111292931028e+00 3.720000000000000000e+02
4.142458057021087825e+00 -2.935224805396412062e+00 3.720000000000000000e+02
2.983205235573018310e+00 -2.125204499499892652e+00 3.720000000000000000e+02
1.823952414124949684e+00 -1.315184193603372798e+00 3.720000000000000000e+02
6.646995926768805019e-01 -5.051638877068529432e-01 3.720000000000000000e+02
-4.945532287711884578e-01 3.048564181896667447e-01 3.720000000000000000e+02
-1.653806050219257529e+00 1.114876724086186321e+00 3.720000000000000000e+02
-2.813058871667326599e+00 1.924897029982706176e+00 3.720000000000000000e+02
-3.972311693115395670e+00 2.734917335879225586e+00 3.720000000000000000e+02
-5.131564514563464741e+00 3.544937641775745885e+00 3.720000000000000000e+02
-6.290817336011533811e+00 4.354957947672265739e+00 3.720000000000000000e+02
5.301710878469156896e+00 -3.745245111292931028e+00 3.730000000000000000e+02
4.142458057021087825e+00 -2.935224805396412062e+00 3.730000000000000000e+02
2.983205235573018310e+00 -2.125204499499892652e+00 3.730000000000000000e+02
1.823952414124949684e+00 -1.315184193603372798e+00 3.730000000000000000e+02
6.646995926768805019e-01 -5.051638877068529432e-01 3.730000000000000000e+02
-4.945532287711884578e-01 3.048564181896667447e-01 3.730000000000000000e+02
-1.653806050219257529e+00 1.114876724086186321e+00 3.730000000000000000e+02
-2.813058871667326599e+00 1.924897029982706176e+00 3.730000000000000000e+02
-3.972311693115395670e+00 2.734917335879225586e+00 3.730000000000000000e+02
-5.131564514563464741e+00 3.544937641775745885e+00 3.730000000000000000e+02
-6.290817336011533811e+00 4.354957947672265739e+00 3.730000000000000000e+02
5.301710878469156896e+00 -3.745245111292931028e+00 3.740000000000000000e+02
4.142458057021087825e+00 -2.935224805396412062e+00 3.740000000000000000e+02
2.983205235573018310e+00 -2.125204499499892652e+00 3.740000000000000000e+02
1.823952414124949684e+00 -1.315184193603372798e+00 3.740000000000000000e+02
6.646995926768805019e-01 -5.051638877068529432e-01 3.740000000000000000e+02
-4.945532287711884578e-01 3.048564181896667447e-01 3.740000000000000000e+02
-1.653806050219257529e+00 1.114876724086186321e+00 3.740000000000000000e+02
-2.813058871667326599e+00 1.924897029982706176e+00 3.740000000000000000e+02
-3.972311693115395670e+00 2.734917335879225586e+00 3.740000000000000000e+02
-5.131564514563464741e+00 3.544937641775745885e+00 3.740000000000000000e+02
-6.290817336011533811e+00 4.354957947672265739e+00 3.740000000000000000e+02
5.301710878469156896e+00 -3.745245111292931028e+00 3.750000000000000000e+02
4.142458057021087825e+00 -2.935224805396412062e+00 3.750000000000000000e+02
2.983205235573018310e+00 -2.125204499499892652e+00 3.750000000000000000e+02
1.823952414124949684e+00 -1.315184193603372798e+00 3.750000000000000000e+02
6.646995926768805019e-01 -5.051638877068529432e-01 3.750000000000000000e+02
-4.945532287711884578e-01 3.048564181896667447e-01 3.750000000000000000e+02
-1.653806050219257529e+00 1.114876724086186321e+00 3.750000000000000000e+02
-2.813058871667326599e+00 1.924897029982706176e+00 3.750000000000000000e+02
-3.972311693115395670e+00 2.734917335879225586e+00 3.750000000000000000e+02
-5.131564514563464741e+00 3.544937641775745885e+00 3.750000000000000000e+02
-6.290817336011533811e+00 4.354957947672265739e+00 3.750000000000000000e+02
5.301710878469156896e+00 -3.745245111292931028e+00 3.760000000000000000e+02
4.142458057021087825e+00 -2.935224805396412062e+00 3.760000000000000000e+02
2.983205235573018310e+00 -2.125204499499892652e+00 3.760000000000000000e+02
1.823952414124949684e+00 -1.315184193603372798e+00 3.760000000000000000e+02
6.646995926768805019e-01 -5.051638877068529432e-01 3.760000000000000000e+02
-4.945532287711884578e-01 3.048564181896667447e-01 3.760000000000000000e+02
-1.653806050219257529e+00 1.114876724086186321e+00 3.760000000000000000e+02
-2.813058871667326599e+00 1.924897029982706176e+00 3.760000000000000000e+02
-3.972311693115395670e+00 2.734917335879225586e+00 3.760000000000000000e+02
-5.131564514563464741e+00 3.544937641775745885e+00 3.760000000000000000e+02
-6.290817336011533811e+00 4.354957947672265739e+00 3.760000000000000000e+02
5.301710878469156896e+00 -3.745245111292931028e+00 3.770000000000000000e+02
4.142458057021087825e+00 -2.935224805396412062e+00 3.770000000000000000e+02
2.983205235573018310e+00 -2.125204499499892652e+00 3.770000000000000000e+02
1.823952414124949684e+00 -1.315184193603372798e+00 3.770000000000000000e+02
6.646995926768805019e-01 -5.051638877068529432e-01 3.770000000000000000e+02
-4.945532287711884578e-01 3.048564181896667447e-01 3.770000000000000000e+02
-1.653806050219257529e+00 1.114876724086186321e+00 3.770000000000000000e+02
-2.813058871667326599e+00 1.924897029982706176e+00 3.770000000000000000e+02
-3.972311693115395670e+00 2.734917335879225586e+00 3.770000000000000000e+02
-5.131564514563464741e+00 3.544937641775745885e+00 3.770000000000000000e+02
-6.290817336011533811e+00 4.354957947672265739e+00 3.770000000000000000e+02
5.301710878469156896e+00 -3.745245111292931028e+00 3.780000000000000000e+02
4.142458057021087825e+00 -2.935224805396412062e+00 3.780000000000000000e+02
2.983205235573018310e+00 -2.125204499499892652e+00 3.780000000000000000e+02
1.823952414124949684e+00 -1.315184193603372798e+00 3.780000000000000000e+02
