1.117428251308405063e+00 -1.954956109250995944e+00 2.050000000000000000e+02
7.577955149766761878e-01 -3.322678411093936912e+00 2.050000000000000000e+02
3.981627786449475348e-01 -4.690400712936877881e+00 2.050000000000000000e+02
3.853004231321899287e-02 -6.058123014779819293e+00 2.050000000000000000e+02
-3.211026940185096601e-01 -7.425845316622760706e+00 2.050000000000000000e+02
1.477060987640133494e+00 -5.872338074080545312e-01 2.060000000000000000e+02
1.117428251308405063e+00 -1.954956109250995944e+00 2.060000000000000000e+02
7.577955149766761878e-01 -3.322678411093936912e+00 2.060000000000000000e+02
3.981627786449475348e-01 -4.690400712936877881e+00 2.060000000000000000e+02
3.853004231321899287e-02 -6.058123014779819293e+00 2.060000000000000000e+02
-3.211026940185096601e-01 -7.425845316622760706e+00 2.060000000000000000e+02
1.477060987640133494e+00 -5.872338074080545312e-01 2.070000000000000000e+02
1.117428251308405063e+00 -1.954956109250995944e+00 2.070000000000000000e+02
7.577955149766761878e-01 -3.322678411093936912e+00 2.070000000000000000e+02
3.981627786449475348e-01 -4.690400712936877881e+00 2.070000000000000000e+02
3.853004231321899287e-02 -6.058123014779819293e+00 2.070000000000000000e+02
-3.211026940185096601e-01 -7.425845316622760706e+00 2.070000000000000000e+02
1.477060987640133494e+00 -5.872338074080545312e-01 2.080000000000000000e+02
1.117428251308405063e+00 -1.954956109250995944e+00 2.080000000000000000e+02
7.577955149766761878e-01 -3.322678411093936912e+00 2.080000000000000000e+02
3.981627786449475348e-01 -4.690400712936877881e+00 2.080000000000000000e+02
3.853004231321899287e-02 -6.058123014779819293e+00 2.080000000000000000e+02
-3.211026940185096601e-01 -7.425845316622760706e+00 2.080000000000000000e+02
1.477060987640133494e+00 -5.872338074080545312e-01 2.090000000000000000e+02
1.117428251308405063e+00 -1.954956109250995944e+00 2.090000000000000000e+02
7.577955149766761878e-01 -3.322678411093936912e+00 2.090000000000000000e+02
3.981627786449475348e-01 -4.690400712936877881e+00 2.090000000000000000e+02
3.853004231321899287e-02 -6.058123014779819293e+00 2.090000000000000000e+02
-3.211026940185096601e-01 -7.425845316622760706e+00 2.090000000000000000e+02
1.477060987640133494e+00 -5.872338074080545312e-01 2.100000000000000000e+02
1.117428251308405063e+00 -1.954956109250995944e+00 2.100000000000000000e+02
7.577955149766761878e-01 -3.322678411093936912e+00 2.100000000000000000e+02
3.981627786449475348e-01 -4.690400712936877881e+00 2.100000000000000000e+02
3.853004231321899287e-02 -6.058123014779819293e+00 2.100000000000000000e+02
-3.211026940185096601e-01 -7.425845316622760706e+00 2.100000000000000000e+02
1.477060987640133494e+00 -5.872338074080545312e-01 2.110000000000000000e+02
1.117428251308405063e+00 -1.954956109250995944e+00 2.110000000000000000e+02
7.577955149766761878e-01 -3.322678411093936912e+00 2.110000000000000000e+02
3.981627786449475348e-01 -4.690400712936877881e+00 2.110000000000000000e+02
3.853004231321899287e-02 -6.058123014779819293e+00 2.110000000000000000e+02
-3.211026940185096601e-01 -7.425845316622760706e+00 2.110000000000000000e+02
1.477060987640133494e+00 -5.872338074080545312e-01 2.120000000000000000e+02
1.117428251308405063e+00 -1.954956109250995944e+00 2.120000000000000000e+02
7.577955149766761878e-01 -3.322678411093936912e+00 2.120000000000000000e+02
3.981627786449475348e-01 -4.690400712936877881e+00 2.120000000000000000e+02
3.853004231321899287e-02 -6.058123014779819293e+00 2.120000000000000000e+02
-3.211026940185096601e-01 -7.425845316622760706e+00 2.120000000000000000e+02
1.477060987640133494e+00 -5.872338074080545312e-01 2.130000000000000000e+02
1.117428251308405063e+00 -1.954956109250995944e+00 2.130000000000000000e+02
7.577955149766761878e-01 -3.322678411093936912e+00 2.130000000000000000e+02
3.981627786449475348e-01 -4.690400712936877881e+00 2.130000000000000000e+02
3.853004231321899287e-02 -6.058123014779819293e+00 2.130000000000000000e+02
-3.211026940185096601e-01 -7.425845316622760706e+00 2.130000000000000000e+02
1.477060987640133494e+00 -5.872338074080545312e-01 2.140000000000000000e+02
1.117428251308405063e+00 -1.954956109250995944e+00 2.140000000000000000e+02
7.577955149766761878e-01 -3.322678411093936912e+00 2.140000000000000000e+02
3.981627786449475348e-01 -4.690400712936877881e+00 2.140000000000000000e+02
3.853004231321899287e-02 -6.058123014779819293e+00 2.140000000000000000e+02
-3.211026940185096601e-01 -7.425845316622760706e+00 2.140000000000000000e+02
1.477060987640133494e+00 -5.872338074080545312e-01 2.150000000000000000e+02
1.117428251308405063e+00 -1.954956109250995944e+00 2.150000000000000000e+02
7.577955149766761878e-01 -3.322678411093936912e+00 2.150000000000000000e+02
3.981627786449475348e-01 -4.690400712936877881e+00 2.150000000000000000e+02
3.853004231321899287e-02 -6.058123014779819293e+00 2.150000000000000000e+02
-3.211026940185096601e-01 -7.425845316622760706e+00 2.150000000000000000e+02
1.477060987640133494e+00 -5.872338074080545312e-01 2.160000000000000000e+02
1.117428251308405063e+00 -1.954956109250995944e+00 2.160000000000000000e+02
7.577955149766761878e-01 -3.322678411093936912e+00 2.160000000000000000e+02
3.981627786449475348e-01 -4.690400712936877881e+00 2.160000000000000000e+02
3.853004231321899287e-02 -6.058123014779819293e+00 2.160000000000000000e+02
-3.211026940185096601e-01 -7.425845316622760706e+00 2.160000000000000000e+02
2.340738506727468415e+00 -8.318902465244804034e-02 2.170000000000000000e+02
1.981105770395739984e+00 -1.450911326495389453e+00 2.170000000000000000e+02
1.621473034064011109e+00 -2.818633628338330865e+00 2.170000000000000000e+02
1.261840297732282457e+00 -4.186355930181271390e+00 2.170000000000000000e+02
9.022075614005539146e-01 -5.554078232024212802e+00 2.170000000000000000e+02
5.425748250688252616e-01 -6.921800533867154215e+00 2.170000000000000000e+02
1.829420887370966087e-01 -8.289522835710094739e+00 2.170000000000000000e+02
1.477060987640133494e+00 -5.872338074080545312e-01 2.180000000000000000e+02
1.117428251308405063e+00 -1.954956109250995944e+00 2.180000000000000000e+02
7.577955149766761878e-01 -3.322678411093936912e+00 2.180000000000000000e+02
3.981627786449475348e-01 -4.690400712936877881e+00 2.180000000000000000e+02
3.853004231321899287e-02 -6.058123014779819293e+00 2.180000000000000000e+02
-3.211026940185096601e-01 -7.425845316622760706e+00 2.180000000000000000e+02
2.340738506727468415e+00 -8.318902465244804034e-02 2.190000000000000000e+02
1.981105770395739984e+00 -1.450911326495389453e+00 2.190000000000000000e+02
1.621473034064011109e+00 -2.818633628338330865e+00 2.190000000000000000e+02
1.261840297732282457e+00 -4.186355930181271390e+00 2.190000000000000000e+02
9.022075614005539146e-01 -5.554078232024212802e+00 2.190000000000000000e+02
5.425748250688252616e-01 -6.921800533867154215e+00 2.190000000000000000e+02
1.829420887370966087e-01 -8.289522835710094739e+00 2.190000000000000000e+02
1.477060987640133494e+00 -5.872338074080545312e-01 2.200000000000000000e+02
1.117428251308405063e+00 -1.954956109250995944e+00 2.200000000000000000e+02
7.577955149766761878e-01 -3.322678411093936912e+00 2.200000000000000000e+02
3.981627786449475348e-01 -4.690400712936877881e+00 2.200000000000000000e+02
3.853004231321899287e-02 -6.058123014779819293e+00 2.200000000000000000e+02
-3.211026940185096601e-01 -7.425845316622760706e+00 2.200000000000000000e+02
2.340738506727468415e+00 -8.318902465244804034e-02 2.210000000000000000e+02
1.981105770395739984e+00 -1.450911326495389453e+00 2.210000000000000000e+02
1.621473034064011109e+00 -2.818633628338330865e+00 2.210000000000000000e+02
1.261840297732282457e+00 -4.186355930181271390e+00 2.210000000000000000e+02
9.022075614005539146e-01 -5.554078232024212802e+00 2.210000000000000000e+02
5.425748250688252616e-01 -6.921800533867154215e+00 2.210000000000000000e+02
1.829420887370966087e-01 -8.289522835710094739e+00 2.210000000000000000e+02
2.340738506727468415e+00 -8.318902465244804034e-02 2.220000000000000000e+02
1.981105770395739984e+00 -1.450911326495389453e+00 2.220000000000000000e+02
1.621473034064011109e+00 -2.818633628338330865e+00 2.220000000000000000e+02
1.261840297732282457e+00 -4.186355930181271390e+00 2.220000000000000000e+02
9.022075614005539146e-01 -5.554078232024212802e+00 2.220000000000000000e+02
5.425748250688252616e-01 -6.921800533867154215e+00 2.220000000000000000e+02
1.829420887370966087e-01 -8.289522835710094739e+00 2.220000000000000000e+02
2.340738506727468415e+00 -8.318902465244804034e-02 2.230000000000000000e+02
1.981105770395739984e+00 -1.450911326495389453e+00 2.230000000000000000e+02
1.621473034064011109e+00 -2.818633628338330865e+00 2.230000000000000000e+02
1.261840297732282457e+00 -4.186355930181271390e+00 2.230000000000000000e+02
9.022075614005539146e-01 -5.554078232024212802e+00 2.230000000000000000e+02
5.425748250688252616e-01 -6.921800533867154215e+00 2.230000000000000000e+02
1.829420887370966087e-01 -8.289522835710094739e+00 2.230000000000000000e+02
2.340738506727468415e+00 -8.318902465244804034e-02 2.240000000000000000e+02
1.981105770395739984e+00 -1.450911326495389453e+00 2.240000000000000000e+02
1.621473034064011109e+00 -2.818633628338330865e+00 2.240000000000000000e+02
1.261840297732282457e+00 -4.186355930181271390e+00 2.240000000000000000e+02
9.022075614005539146e-01 -5.554078232024212802e+00 2.240000000000000000e+02
5.425748250688252616e-01 -6.921800533867154215e+00 2.240000000000000000e+02
1.829420887370966087e-01 -8.289522835710094739e+00 2.240000000000000000e+02
1.477060987640133494e+00 -5.872338074080545312e-01 2.250000000000000000e+02
1.117428251308405063e+00 -1.954956109250995944e+00 2.250000000000000000e+02
7.577955149766761878e-01 -3.322678411093936912e+00 2.250000000000000000e+02
3.981627786449475348e-01 -4.690400712936877881e+00 2.250000000000000000e+02
3.853004231321899287e-02 -6.058123014779819293e+00 2.250000000000000000e+02
-3.211026940185096601e-01 -7.425845316622760706e+00 2.250000000000000000e+02
1.477060987640133494e+00 -5.872338074080545312e-01 2.260000000000000000e+02
1.117428251308405063e+00 -1.954956109250995944e+00 2.260000000000000000e+02
7.577955149766761878e-01 -3.322678411093936912e+00 2.260000000000000000e+02
3.981627786449475348e-01 -4.690400712936877881e+00 2.260000000000000000e+02
3.853004231321899287e-02 -6.058123014779819293e+00 2.260000000000000000e+02
-3.211026940185096601e-01 -7.425845316622760706e+00 2.260000000000000000e+02
1.477060987640133494e+00 -5.872338074080545312e-01 2.270000000000000000e+02
1.117428251308405063e+00 -1.954956109250995944e+00 2.270000000000000000e+02
7.577955149766761878e-01 -3.322678411093936912e+00 2.270000000000000000e+02
3.981627786449475348e-01 -4.690400712936877881e+00 2.270000000000000000e+02
3.853004231321899287e-02 -6.058123014779819293e+00 2.270000000000000000e+02
-1.113971569621871271e+00 -2.099368155674873559e+00 2.300000000000000000e+02
6.133834685527986830e-01 -1.091278590163661022e+00 2.310000000000000000e+02
2.537507322210700300e-01 -2.459000892006601990e+00 2.310000000000000000e+02
-1.058820041106586229e-01 -3.826723193849542959e+00 2.310000000000000000e+02
-4.655147404423872759e-01 -5.194445495692484371e+00 2.310000000000000000e+02
1.477060987640133494e+00 -5.872338074080545312e-01 2.320000000000000000e+02
1.117428251308405063e+00 -1.954956109250995944e+00 2.320000000000000000e+02
7.577955149766761878e-01 -3.322678411093936912e+00 2.320000000000000000e+02
3.981627786449475348e-01 -4.690400712936877881e+00 2.320000000000000000e+02
3.853004231321899287e-02 -6.058123014779819293e+00 2.320000000000000000e+02
-3.211026940185096601e-01 -7.425845316622760706e+00 2.320000000000000000e+02
1.477060987640133494e+00 -5.872338074080545312e-01 2.330000000000000000e+02
1.117428251308405063e+00 -1.954956109250995944e+00 2.330000000000000000e+02
7.577955149766761878e-01 -3.322678411093936912e+00 2.330000000000000000e+02
3.981627786449475348e-01 -4.690400712936877881e+00 2.330000000000000000e+02
3.853004231321899287e-02 -6.058123014779819293e+00 2.330000000000000000e+02
-3.211026940185096601e-01 -7.425845316622760706e+00 2.330000000000000000e+02
2.340738506727468415e+00 -8.318902465244804034e-02 2.340000000000000000e+02
1.981105770395739984e+00 -1.450911326495389453e+00 2.340000000000000000e+02
1.621473034064011109e+00 -2.818633628338330865e+00 2.340000000000000000e+02
1.261840297732282457e+00 -4.186355930181271390e+00 2.340000000000000000e+02
9.022075614005539146e-01 -5.554078232024212802e+00 2.340000000000000000e+02
5.425748250688252616e-01 -6.921800533867154215e+00 2.340000000000000000e+02
1.829420887370966087e-01 -8.289522835710094739e+00 2.340000000000000000e+02
2.340738506727468415e+00 -8.318902465244804034e-02 2.350000000000000000e+02
1.981105770395739984e+00 -1.450911326495389453e+00 2.350000000000000000e+02
1.621473034064011109e+00 -2.818633628338330865e+00 2.350000000000000000e+02
1.261840297732282457e+00 -4.186355930181271390e+00 2.350000000000000000e+02
9.022075614005539146e-01 -5.554078232024212802e+00 2.350000000000000000e+02
5.425748250688252616e-01 -6.921800533867154215e+00 2.350000000000000000e+02
1.829420887370966087e-01 -8.289522835710094739e+00 2.350000000000000000e+02
2.340738506727468415e+00 -8.318902465244804034e-02 2.360000000000000000e+02
1.981105770395739984e+00 -1.450911326495389453e+00 2.360000000000000000e+02
1.621473034064011109e+00 -2.818633628338330865e+00 2.360000000000000000e+02
1.261840297732282457e+00 -4.186355930181271390e+00 2.360000000000000000e+02
9.022075614005539146e-01 -5.554078232024212802e+00 2.360000000000000000e+02
5.425748250688252616e-01 -6.921800533867154215e+00 2.360000000000000000e+02
1.829420887370966087e-01 -8.289522835710094739e+00 2.360000000000000000e+02
2.340738506727468415e+00 -8.318902465244804034e-02 2.370000000000000000e+02
1.981105770395739984e+00 -1.450911326495389453e+00 2.370000000000000000e+02
1.621473034064011109e+00 -2.818633628338330865e+00 2.370000000000000000e+02
1.261840297732282457e+00 -4.186355930181271390e+00 2.370000000000000000e+02
9.022075614005539146e-01 -5.554078232024212802e+00 2.370000000000000000e+02
5.425748250688252616e-01 -6.921800533867154215e+00 2.370000000000000000e+02
1.829420887370966087e-01 -8.289522835710094739e+00 2.370000000000000000e+02
2.340738506727468415e+00 -8.318902465244804034e-02 2.380000000000000000e+02
1.981105770395739984e+00 -1.450911326495389453e+00 2.380000000000000000e+02
1.621473034064011109e+00 -2.818633628338330865e+00 2.380000000000000000e+02
1.261840297732282457e+00 -4.186355930181271390e+00 2.380000000000000000e+02
9.022075614005539146e-01 -5.554078232024212802e+00 2.380000000000000000e+02
5.425748250688252616e-01 -6.921800533867154215e+00 2.380000000000000000e+02
1.829420887370966087e-01 -8.289522835710094739e+00 2.380000000000000000e+02
2.340738506727468415e+00 -8.318902465244804034e-02 2.390000000000000000e+02
1.981105770395739984e+00 -1.450911326495389453e+00 2.390000000000000000e+02
1.621473034064011109e+00 -2.818633628338330865e+00 2.390000000000000000e+02
1.261840297732282457e+00 -4.186355930181271390e+00 2.390000000000000000e+02
9.022075614005539146e-01 -5.554078232024212802e+00 2.390000000000000000e+02
5.425748250688252616e-01 -6.921800533867154215e+00 2.390000000000000000e+02
1.829420887370966087e-01 -8.289522835710094739e+00 2.390000000000000000e+02
2.340738506727468415e+00 -8.318902465244804034e-02 2.400000000000000000e+02
1.981105770395739984e+00 -1.450911326495389453e+00 2.400000000000000000e+02
1.621473034064011109e+00 -2.818633628338330865e+00 2.400000000000000000e+02
1.261840297732282457e+00 -4.186355930181271390e+00 2.400000000000000000e+02
9.022075614005539146e-01 -5.554078232024212802e+00 2.400000000000000000e+02
5.425748250688252616e-01 -6.921800533867154215e+00 2.400000000000000000e+02
1.829420887370966087e-01 -8.289522835710094739e+00 2.400000000000000000e+02
2.340738506727468415e+00 -8.318902465244804034e-02 2.410000000000000000e+02
1.981105770395739984e+00 -1.450911326495389453e+00 2.410000000000000000e+02
1.621473034064011109e+00 -2.818633628338330865e+00 2.410000000000000000e+02
1.261840297732282457e+00 -4.186355930181271390e+00 2.410000000000000000e+02
9.022075614005539146e-01 -5.554078232024212802e+00 2.410000000000000000e+02
5.425748250688252616e-01 -6.921800533867154215e+00 2.410000000000000000e+02
1.829420887370966087e-01 -8.289522835710094739e+00 2.410000000000000000e+02
1.477060987640133494e+00 -5.872338074080545312e-01 2.420000000000000000e+02
1.117428251308405063e+00 -1.954956109250995944e+00 2.420000000000000000e+02
7.577955149766761878e-01 -3.322678411093936912e+00 2.420000000000000000e+02
3.981627786449475348e-01 -4.690400712936877881e+00 2.420000000000000000e+02
3.853004231321899287e-02 -6.058123014779819293e+00 2.420000000000000000e+02
-3.211026940185096601e-01 -7.425845316622760706e+00 2.420000000000000000e+02
1.477060987640133494e+00 -5.872338074080545312e-01 2.430000000000000000e+02
1.117428251308405063e+00 -1.954956109250995944e+00 2.430000000000000000e+02
7.577955149766761878e-01 -3.322678411093936912e+00 2.430000000000000000e+02
3.981627786449475348e-01 -4.690400712936877881e+00 2.430000000000000000e+02
3.853004231321899287e-02 -6.058123014779819293e+00 2.430000000000000000e+02
-3.211026940185096601e-01 -7.425845316622760706e+00 2.430000000000000000e+02
1.477060987640133494e+00 -5.872338074080545312e-01 2.440000000000000000e+02
1.117428251308405063e+00 -1.954956109250995944e+00 2.440000000000000000e+02
7.577955149766761878e-01 -3.322678411093936912e+00 2.440000000000000000e+02
3.981627786449475348e-01 -4.690400712936877881e+00 2.440000000000000000e+02
3.853004231321899287e-02 -6.058123014779819293e+00 2.440000000000000000e+02
-3.211026940185096601e-01 -7.425845316622760706e+00 2.440000000000000000e+02
1.477060987640133494e+00 -5.872338074080545312e-01 2.450000000000000000e+02
1.117428251308405063e+00 -1.954956109250995944e+00 2.450000000000000000e+02
7.577955149766761878e-01 -3.322678411093936912e+00 2.450000000000000000e+02
3.981627786449475348e-01 -4.690400712936877881e+00 2.450000000000000000e+02
3.853004231321899287e-02 -6.058123014779819293e+00 2.450000000000000000e+02
1.477060987640133494e+00 -5.872338074080545312e-01 2.460000000000000000e+02
1.117428251308405063e+00 -1.954956109250995944e+00 2.460000000000000000e+02
7.577955149766761878e-01 -3.322678411093936912e+00 2.460000000000000000e+02
3.981627786449475348e-01 -4.690400712936877881e+00 2.460000000000000000e+02
3.853004231321899287e-02 -6.058123014779819293e+00 2.460000000000000000e+02
1.477060987640133494e+00 -5.872338074080545312e-01 2.470000000000000000e+02
1.117428251308405063e+00 -1.954956109250995944e+00 2.470000000000000000e+02
7.577955149766761878e-01 -3.322678411093936912e+00 2.470000000000000000e+02
3.981627786449475348e-01 -4.690400712936877881e+00 2.470000000000000000e+02
3.853004231321899287e-02 -6.058123014779819293e+00 2.470000000000000000e+02
1.477060987640133494e+00 -5.872338074080545312e-01 2.480000000000000000e+02
1.117428251308405063e+00 -1.954956109250995944e+00 2.480000000000000000e+02
7.577955149766761878e-01 -3.322678411093936912e+00 2.480000000000000000e+02
3.981627786449475348e-01 -4.690400712936877881e+00 2.480000000000000000e+02
3.853004231321899287e-02 -6.058123014779819293e+00 2.480000000000000000e+02
-3.211026940185096601e-01 -7.425845316622760706e+00 2.480000000000000000e+02
1.477060987640133494e+00 -5.872338074080545312e-01 2.490000000000000000e+02
1.117428251308405063e+00 -1.954956109250995944e+00 2.490000000000000000e+02
7.577955149766761878e-01 -3.322678411093936912e+00 2.490000000000000000e+02
3.981627786449475348e-01 -4.690400712936877881e+00 2.490000000000000000e+02
3.853004231321899287e-02 -6.058123014779819293e+00 2.490000000000000000e+02
-3.211026940185096601e-01 -7.425845316622760706e+00 2.490000000000000000e+02
1.477060987640133494e+00 -5.872338074080545312e-01 2.500000000000000000e+02
1.117428251308405063e+00 -1.954956109250995944e+00 2.500000000000000000e+02
7.577955149766761878e-01 -3.322678411093936912e+00 2.500000000000000000e+02
3.981627786449475348e-01 -4.690400712936877881e+00 2.500000000000000000e+02
3.853004231321899287e-02 -6.058123014779819293e+00 2.500000000000000000e+02
-3.211026940185096601e-01 -7.425845316622760706e+00 2.500000000000000000e+02
1.477060987640133494e+00 -5.872338074080545312e-01 2.510000000000000000e+02
1.117428251308405063e+00 -1.954956109250995944e+00 2.510000000000000000e+02
7.577955149766761878e-01 -3.322678411093936912e+00 2.510000000000000000e+02
3.981627786449475348e-01 -4.690400712936877881e+00 2.510000000000000000e+02
3.853004231321899287e-02 -6.058123014779819293e+00 2.510000000000000000e+02
-3.211026940185096601e-01 -7.425845316622760706e+00 2.510000000000000000e+02
1.477060987640133494e+00 -5.872338074080545312e-01 2.520000000000000000e+02
1.117428251308405063e+00 -1.954956109250995944e+00 2.520000000000000000e+02
7.577955149766761878e-01 -3.322678411093936912e+00 2.520000000000000000e+02
3.981627786449475348e-01 -4.690400712936877881e+00 2.520000000000000000e+02
3.853004231321899287e-02 -6.058123014779819293e+00 2.520000000000000000e+02
1.477060987640133494e+00 -5.872338074080545312e-01 2.530000000000000000e+02
1.117428251308405063e+00 -1.954956109250995944e+00 2.530000000000000000e+02
7.577955149766761878e-01 -3.322678411093936912e+00 2.530000000000000000e+02
3.981627786449475348e-01 -4.690400712936877881e+00 2.530000000000000000e+02
3.853004231321899287e-02 -6.058123014779819293e+00 2.530000000000000000e+02
-3.211026940185096601e-01 -7.425845316622760706e+00 2.530000000000000000e+02
1.477060987640133494e+00 -5.872338074080545312e-01 2.540000000000000000e+02
1.117428251308405063e+00 -1.954956109250995944e+00 2.540000000000000000e+02
7.577955149766761878e-01 -3.322678411093936912e+00 2.540000000000000000e+02
3.981627786449475348e-01 -4.690400712936877881e+00 2.540000000000000000e+02
3.853004231321899287e-02 -6.058123014779819293e+00 2.540000000000000000e+02
-3.211026940185096601e-01 -7.425845316622760706e+00 2.540000000000000000e+02
1.477060987640133494e+00 -5.872338074080545312e-01 2.550000000000000000e+02
1.117428251308405063e+00 -1.954956109250995944e+00 2.550000000000000000e+02
7.577955149766761878e-01 -3.322678411093936912e+00 2.550000000000000000e+02
3.981627786449475348e-01 -4.690400712936877881e+00 2.550000000000000000e+02
3.853004231321899287e-02 -6.058123014779819293e+00 2.550000000000000000e+02
-3.211026940185096601e-01 -7.425845316622760706e+00 2.550000000000000000e+02
2.340738506727468415e+00 -8.318902465244804034e-02 2.560000000000000000e+02
1.981105770395739984e+00 -1.450911326495389453e+00 2.560000000000000000e+02
1.621473034064011109e+00 -2.818633628338330865e+00 2.560000000000000000e+02
1.261840297732282457e+00 -4.186355930181271390e+00 2.560000000000000000e+02
9.022075614005539146e-01 -5.554078232024212802e+00 2.560000000000000000e+02
5.425748250688252616e-01 -6.921800533867154215e+00 2.560000000000000000e+02
1.829420887370966087e-01 -8.289522835710094739e+00 2.560000000000000000e+02
2.340738506727468415e+00 -8.318902465244804034e-02 2.570000000000000000e+02
1.981105770395739984e+00 -1.450911326495389453e+00 2.570000000000000000e+02
1.621473034064011109e+00 -2.818633628338330865e+00 2.570000000000000000e+02
1.261840297732282457e+00 -4.186355930181271390e+00 2.570000000000000000e+02
9.022075614005539146e-01 -5.554078232024212802e+00 2.570000000000000000e+02
5.425748250688252616e-01 -6.921800533867154215e+00 2.570000000000000000e+02
1.829420887370966087e-01 -8.289522835710094739e+00 2.570000000000000000e+02
1.477060987640133494e+00 -5.872338074080545312e-01 2.580000000000000000e+02
1.117428251308405063e+00 -1.954956109250995944e+00 2.580000000000000000e+02
7.577955149766761878e-01 -3.322678411093936912e+00 2.580000000000000000e+02
3.981627786449475348e-01 -4.690400712936877881e+00 2.580000000000000000e+02
3.853004231321899287e-02 -6.058123014779819293e+00 2.580000000000000000e+02
1.477060987640133494e+00 -5.872338074080545312e-01 2.590000000000000000e+02
1.117428251308405063e+00 -1.954956109250995944e+00 2.590000000000000000e+02
7.577955149766761878e-01 -3.322678411093936912e+00 2.590000000000000000e+02
3.981627786449475348e-01 -4.690400712936877881e+00 2.590000000000000000e+02
3.853004231321899287e-02 -6.058123014779819293e+00 2.590000000000000000e+02
1.477060987640133494e+00 -5.872338074080545312e-01 2.600000000000000000e+02
1.117428251308405063e+00 -1.954956109250995944e+00 2.600000000000000000e+02
7.577955149766761878e-01 -3.322678411093936912e+00 2.600000000000000000e+02
3.981627786449475348e-01 -4.690400712936877881e+00 2.600000000000000000e+02
3.853004231321899287e-02 -6.058123014779819293e+00 2.600000000000000000e+02
-3.211026940185096601e-01 -7.425845316622760706e+00 2.600000000000000000e+02
2.340738506727468415e+00 -8.318902465244804034e-02 2.610000000000000000e+02
1.981105770395739984e+00 -1.450911326495389453e+00 2.610000000000000000e+02
1.621473034064011109e+00 -2.818633628338330865e+00 2.610000000000000000e+02
1.261840297732282457e+00 -4.186355930181271390e+00 2.610000000000000000e+02
9.022075614005539146e-01 -5.554078232024212802e+00 2.610000000000000000e+02
5.425748250688252616e-01 -6.921800533867154215e+00 2.610000000000000000e+02
1.829420887370966087e-01 -8.289522835710094739e+00 2.610000000000000000e+02
2.340738506727468415e+00 -8.318902465244804034e-02 2.620000000000000000e+02
1.981105770395739984e+00 -1.450911326495389453e+00 2.620000000000000000e+02
1.621473034064011109e+00 -2.818633628338330865e+00 2.620000000000000000e+02
1.261840297732282457e+00 -4.186355930181271390e+00 2.620000000000000000e+02
9.022075614005539146e-01 -5.554078232024212802e+00 2.620000000000000000e+02
5.425748250688252616e-01 -6.921800533867154215e+00 2.620000000000000000e+02
1.829420887370966087e-01 -8.289522835710094739e+00 2.620000000000000000e+02
2.340738506727468415e+00 -8.318902465244804034e-02 2.630000000000000000e+02
1.981105770395739984e+00 -1.450911326495389453e+00 2.630000000000000000e+02
1.621473034064011109e+00 -2.818633628338330865e+00 2.630000000000000000e+02
1.261840297732282457e+00 -4.186355930181271390e+00 2.630000000000000000e+02
9.022075614005539146e-01 -5.554078232024212802e+00 2.630000000000000000e+02
5.425748250688252616e-01 -6.921800533867154215e+00 2.630000000000000000e+02
1.829420887370966087e-01 -8.289522835710094739e+00 2.630000000000000000e+02
2.340738506727468415e+00 -8.318902465244804034e-02 2.640000000000000000e+02
1.981105770395739984e+00 -1.450911326495389453e+00 2.640000000000000000e+02
1.621473034064011109e+00 -2.818633628338330865e+00 2.640000000000000000e+02
1.261840297732282457e+00 -4.186355930181271390e+00 2.640000000000000000e+02
9.022075614005539146e-01 -5.554078232024212802e+00 2.640000000000000000e+02
5.425748250688252616e-01 -6.921800533867154215e+00 2.640000000000000000e+02
1.829420887370966087e-01 -8.289522835710094739e+00 2.640000000000000000e+02
2.340738506727468415e+00 -8.318902465244804034e-02 2.650000000000000000e+02
1.981105770395739984e+00 -1.450911326495389453e+00 2.650000000000000000e+02
1.621473034064011109e+00 -2.818633628338330865e+00 2.650000000000000000e+02
1.261840297732282457e+00 -4.186355930181271390e+00 2.650000000000000000e+02
9.022075614005539146e-01 -5.554078232024212802e+00 2.650000000000000000e+02
5.425748250688252616e-01 -6.921800533867154215e+00 2.650000000000000000e+02
1.829420887370966087e-01 -8.289522835710094739e+00 2.650000000000000000e+02
1.477060987640133494e+00 -5.872338074080545312e-01 2.660000000000000000e+02
1.117428251308405063e+00 -1.954956109250995944e+00 2.660000000000000000e+02
7.577955149766761878e-01 -3.322678411093936912e+00 2.660000000000000000e+02
3.981627786449475348e-01 -4.690400712936877881e+00 2.660000000000000000e+02
3.853004231321899287e-02 -6.058123014779819293e+00 2.660000000000000000e+02
-3.211026940185096601e-01 -7.425845316622760706e+00 2.660000000000000000e+02
1.477060987640133494e+00 -5.872338074080545312e-01 2.670000000000000000e+02
1.117428251308405063e+00 -1.954956109250995944e+00 2.670000000000000000e+02
7.577955149766761878e-01 -3.322678411093936912e+00 2.670000000000000000e+02
3.981627786449475348e-01 -4.690400712936877881e+00 2.670000000000000000e+02
3.853004231321899287e-02 -6.058123014779819293e+00 2.670000000000000000e+02
-3.211026940185096601e-01 -7.425845316622760706e+00 2.670000000000000000e+02
1.477060987640133494e+00 -5.872338074080545312e-01 2.680000000000000000e+02
1.117428251308405063e+00 -1.954956109250995944e+00 2.680000000000000000e+02
7.577955149766761878e-01 -3.322678411093936912e+00 2.680000000000000000e+02
3.981627786449475348e-01 -4.690400712936877881e+00 2.680000000000000000e+02
3.853004231321899287e-02 -6.058123014779819293e+00 2.680000000000000000e+02
-3.211026940185096601e-01 -7.425845316622760706e+00 2.680000000000000000e+02
1.477060987640133494e+00 -5.872338074080545312e-01 2.690000000000000000e+02
1.117428251308405063e+00 -1.954956109250995944e+00 2.690000000000000000e+02
7.577955149766761878e-01 -3.322678411093936912e+00 2.690000000000000000e+02
3.981627786449475348e-01 -4.690400712936877881e+00 2.690000000000000000e+02
3.853004231321899287e-02 -6.058123014779819293e+00 2.690000000000000000e+02
-3.211026940185096601e-01 -7.425845316622760706e+00 2.690000000000000000e+02
1.477060987640133494e+00 -5.872338074080545312e-01 2.700000000000000000e+02
1.117428251308405063e+00 -1.954956109250995944e+00 2.700000000000000000e+02
7.577955149766761878e-01 -3.322678411093936912e+00 2.700000000000000000e+02
3.981627786449475348e-01 -4.690400712936877881e+00 2.700000000000000000e+02
3.853004231321899287e-02 -6.058123014779819293e+00 2.700000000000000000e+02
-3.211026940185096601e-01 -7.425845316622760706e+00 2.700000000000000000e+02
1.477060987640133494e+00 -5.872338074080545312e-01 2.710000000000000000e+02
1.117428251308405063e+00 -1.954956109250995944e+00 2.710000000000000000e+02
7.577955149766761878e-01 -3.322678411093936912e+00 2.710000000000000000e+02
3.981627786449475348e-01 -4.690400712936877881e+00 2.710000000000000000e+02
3.853004231321899287e-02 -6.058123014779819293e+00 2.710000000000000000e+02
1.477060987640133494e+00 -5.872338074080545312e-01 2.720000000000000000e+02
1.117428251308405063e+00 -1.954956109250995944e+00 2.720000000000000000e+02
7.577955149766761878e-01 -3.322678411093936912e+00 2.720000000000000000e+02
3.981627786449475348e-01 -4.690400712936877881e+00 2.720000000000000000e+02
3.853004231321899287e-02 -6.058123014779819293e+00 2.720000000000000000e+02
1.477060987640133494e+00 -5.872338074080545312e-01 2.730000000000000000e+02
1.117428251308405063e+00 -1.954956109250995944e+00 2.730000000000000000e+02
7.577955149766761878e-01 -3.322678411093936912e+00 2.730000000000000000e+02
3.981627786449475348e-01 -4.690400712936877881e+00 2.730000000000000000e+02
3.853004231321899287e-02 -6.058123014779819293e+00 2.730000000000000000e+02
-3.211026940185096601e-01 -7.425845316622760706e+00 2.730000000000000000e+02
1.477060987640133494e+00 -5.872338074080545312e-01 2.740000000000000000e+02
1.117428251308405063e+00 -1.954956109250995944e+00 2.740000000000000000e+02
7.577955149766761878e-01 -3.322678411093936912e+00 2.740000000000000000e+02
3.981627786449475348e-01 -4.690400712936877881e+00 2.740000000000000000e+02
3.853004231321899287e-02 -6.058123014779819293e+00 2.740000000000000000e+02
-3.211026940185096601e-01 -7.425845316622760706e+00 2.740000000000000000e+02
1.477060987640133494e+00 -5.872338074080545312e-01 2.750000000000000000e+02
1.117428251308405063e+00 -1.954956109250995944e+00 2.750000000000000000e+02
7.577955149766761878e-01 -3.322678411093936912e+00 2.750000000000000000e+02
3.981627786449475348e-01 -4.690400712936877881e+00 2.750000000000000000e+02
3.853004231321899287e-02 -6.058123014779819293e+00 2.750000000000000000e+02
1.477060987640133494e+00 -5.872338074080545312e-01 2.760000000000000000e+02
1.117428251308405063e+00 -1.954956109250995944e+00 2.760000000000000000e+02
7.577955149766761878e-01 -3.322678411093936912e+00 2.760000000000000000e+02
3.981627786449475348e-01 -4.690400712936877881e+00 2.760000000000000000e+02
3.853004231321899287e-02 -6.058123014779819293e+00 2.760000000000000000e+02
-3.211026940185096601e-01 -7.425845316622760706e+00 2.760000000000000000e+02
1.477060987640133494e+00 -5.872338074080545312e-01 2.770000000000000000e+02
1.117428251308405063e+00 -1.954956109250995944e+00 2.770000000000000000e+02
7.577955149766761878e-01 -3.322678411093936912e+00 2.770000000000000000e+02
3.981627786449475348e-01 -4.690400712936877881e+00 2.770000000000000000e+02
3.853004231321899287e-02 -6.058123014779819293e+00 2.770000000000000000e+02
1.477060987640133494e+00 -5.872338074080545312e-01 2.780000000000000000e+02
1.117428251308405063e+00 -1.954956109250995944e+00 2.780000000000000000e+02
7.577955149766761878e-01 -3.322678411093936912e+00 2.780000000000000000e+02
3.981627786449475348e-01 -4.690400712936877881e+00 2.780000000000000000e+02
3.853004231321899287e-02 -6.058123014779819293e+00 2.780000000000000000e+02
1.477060987640133494e+00 -5.872338074080545312e-01 2.790000000000000000e+02
1.117428251308405063e+00 -1.954956109250995944e+00 2.790000000000000000e+02
7.577955149766761878e-01 -3.322678411093936912e+00 2.790000000000000000e+02
3.981627786449475348e-01 -4.690400712936877881e+00 2.790000000000000000e+02
3.853004231321899287e-02 -6.058123014779819293e+00 2.790000000000000000e+02
1.477060987640133494e+00 -5.872338074080545312e-01 2.800000000000000000e+02
1.117428251308405063e+00 -1.954956109250995944e+00 2.800000000000000000e+02
7.577955149766761878e-01 -3.322678411093936912e+00 2.800000000000000000e+02
3.981627786449475348e-01 -4.690400712936877881e+00 2.800000000000000000e+02
3.853004231321899287e-02 -6.058123014779819293e+00 2.800000000000000000e+02
6.133834685527986830e-01 -1.091278590163661022e+00 2.810000000000000000e+02
2.537507322210700300e-01 -2.459000892006601990e+00 2.810000000000000000e+02
-1.058820041106586229e-01 -3.826723193849542959e+00 2.810000000000000000e+02
1.477060987640133494e+00 -5.872338074080545312e-01 2.820000000000000000e+02
1.117428251308405063e+00 -1.954956109250995944e+00 2.820000000000000000e+02
7.577955149766761878e-01 -3.322678411093936912e+00 2.820000000000000000e+02
3.981627786449475348e-01 -4.690400712936877881e+00 2.820000000000000000e+02
1.477060987640133494e+00 -5.872338074080545312e-01 2.830000000000000000e+02
1.117428251308405063e+00 -1.954956109250995944e+00 2.830000000000000000e+02
7.577955149766761878e-01 -3.322678411093936912e+00 2.830000000000000000e+02
3.981627786449475348e-01 -4.690400712936877881e+00 2.830000000000000000e+02
2.340738506727468415e+00 -8.318902465244804034e-02 2.840000000000000000e+02
1.981105770395739984e+00 -1.450911326495389453e+00 2.840000000000000000e+02
1.621473034064011109e+00 -2.818633628338330865e+00 2.840000000000000000e+02
1.261840297732282457e+00 -4.186355930181271390e+00 2.840000000000000000e+02
9.022075614005539146e-01 -5.554078232024212802e+00 2.840000000000000000e+02
5.425748250688252616e-01 -6.921800533867154215e+00 2.840000000000000000e+02
2.340738506727468415e+00 -8.318902465244804034e-02 2.850000000000000000e+02
1.981105770395739984e+00 -1.450911326495389453e+00 2.850000000000000000e+02
1.621473034064011109e+00 -2.818633628338330865e+00 2.850000000000000000e+02
1.261840297732282457e+00 -4.186355930181271390e+00 2.850000000000000000e+02
9.022075614005539146e-01 -5.554078232024212802e+00 2.850000000000000000e+02
5.425748250688252616e-01 -6.921800533867154215e+00 2.850000000000000000e+02
1.829420887370966087e-01 -8.289522835710094739e+00 2.850000000000000000e+02
2.340738506727468415e+00 -8.318902465244804034e-02 2.860000000000000000e+02
1.981105770395739984e+00 -1.450911326495389453e+00 2.860000000000000000e+02
1.621473034064011109e+00 -2.818633628338330865e+00 2.860000000000000000e+02
1.261840297732282457e+00 -4.186355930181271390e+00 2.860000000000000000e+02
9.022075614005539146e-01 -5.554078232024212802e+00 2.860000000000000000e+02
5.425748250688252616e-01 -6.921800533867154215e+00 2.860000000000000000e+02
1.829420887370966087e-01 -8.289522835710094739e+00 2.860000000000000000e+02
2.340738506727468415e+00 -8.318902465244804034e-02 2.870000000000000000e+02
1.981105770395739984e+00 -1.450911326495389453e+00 2.870000000000000000e+02
1.621473034064011109e+00 -2.818633628338330865e+00 2.870000000000000000e+02
1.261840297732282457e+00 -4.186355930181271390e+00 2.870000000000000000e+02
9.022075614005539146e-01 -5.554078232024212802e+00 2.870000000000000000e+02
5.425748250688252616e-01 -6.921800533867154215e+00 2.870000000000000000e+02
1.829420887370966087e-01 -8.289522835710094739e+00 2.870000000000000000e+02
2.340738506727468415e+00 -8.318902465244804034e-02 2.880000000000000000e+02
1.981105770395739984e+00 -1.450911326495389453e+00 2.880000000000000000e+02
1.621473034064011109e+00 -2.818633628338330865e+00 2.880000000000000000e+02
1.261840297732282457e+00 -4.186355930181271390e+00 2.880000000000000000e+02
9.022075614005539146e-01 -5.554078232024212802e+00 2.880000000000000000e+02
5.425748250688252616e-01 -6.921800533867154215e+00 2.880000000000000000e+02
2.340738506727468415e+00 -8.318902465244804034e-02 2.890000000000000000e+02
1.981105770395739984e+00 -1.450911326495389453e+00 2.890000000000000000e+02
1.621473034064011109e+00 -2.818633628338330865e+00 2.890000000000000000e+02
1.261840297732282457e+00 -4.186355930181271390e+00 2.890000000000000000e+02
9.022075614005539146e-01 -5.554078232024212802e+00 2.890000000000000000e+02
5.425748250688252616e-01 -6.921800533867154215e+00 2.890000000000000000e+02
2.340738506727468415e+00 -8.318902465244804034e-02 2.900000000000000000e+02
1.981105770395739984e+00 -1.450911326495389453e+00 2.900000000000000000e+02
1.621473034064011109e+00 -2.818633628338330865e+00 2.900000000000000000e+02
1.261840297732282457e+00 -4.186355930181271390e+00 2.900000000000000000e+02
9.022075614005539146e-01 -5.554078232024212802e+00 2.900000000000000000e+02
5.425748250688252616e-01 -6.921800533867154215e+00 2.900000000000000000e+02
2.340738506727468415e+00 -8.318902465244804034e-02 2.910000000000000000e+02
1.981105770395739984e+00 -1.450911326495389453e+00 2.910000000000000000e+02
1.621473034064011109e+00 -2.818633628338330865e+00 2.910000000000000000e+02
1.261840297732282457e+00 -4.186355930181271390e+00 2.910000000000000000e+02
9.022075614005539146e-01 -5.554078232024212802e+00 2.910000000000000000e+02
5.425748250688252616e-01 -6.921800533867154215e+00 2.910000000000000000e+02
1.829420887370966087e-01 -8.289522835710094739e+00 2.910000000000000000e+02
2.340738506727468415e+00 -8.318902465244804034e-02 2.920000000000000000e+02
1.981105770395739984e+00 -1.450911326495389453e+00 2.920000000000000000e+02
1.621473034064011109e+00 -2.818633628338330865e+00 2.920000000000000000e+02
1.261840297732282457e+00 -4.186355930181271390e+00 2.920000000000000000e+02
9.022075614005539146e-01 -5.554078232024212802e+00 2.920000000000000000e+02
5.425748250688252616e-01 -6.921800533867154215e+00 2.920000000000000000e+02
1.829420887370966087e-01 -8.289522835710094739e+00 2.920000000000000000e+02
2.340738506727468415e+00 -8.318902465244804034e-02 2.930000000000000000e+02
1.981105770395739984e+00 -1.450911326495389453e+00 2.930000000000000000e+02
1.621473034064011109e+00 -2.818633628338330865e+00 2.930000000000000000e+02
1.261840297732282457e+00 -4.186355930181271390e+00 2.930000000000000000e+02
9.022075614005539146e-01 -5.554078232024212802e+00 2.930000000000000000e+02
5.425748250688252616e-01 -6.921800533867154215e+00 2.930000000000000000e+02
1.829420887370966087e-01 -8.289522835710094739e+00 2.930000000000000000e+02
2.340738506727468415e+00 -8.318902465244804034e-02 2.940000000000000000e+02
1.981105770395739984e+00 -1.450911326495389453e+00 2.940000000000000000e+02
1.621473034064011109e+00 -2.818633628338330865e+00 2.940000000000000000e+02
1.261840297732282457e+00 -4.186355930181271390e+00 2.940000000000000000e+02
9.022075614005539146e-01 -5.554078232024212802e+00 2.940000000000000000e+02
5.425748250688252616e-01 -6.921800533867154215e+00 2.940000000000000000e+02
1.829420887370966087e-01 -8.289522835710094739e+00 2.940000000000000000e+02
2.340738506727468415e+00 -8.318902465244804034e-02 2.950000000000000000e+02
1.981105770395739984e+00 -1.450911326495389453e+00 2.950000000000000000e+02
1.621473034064011109e+00 -2.818633628338330865e+00 2.950000000000000000e+02
1.261840297732282457e+00 -4.186355930181271390e+00 2.950000000000000000e+02
9.022075614005539146e-01 -5.554078232024212802e+00 2.950000000000000000e+02
5.425748250688252616e-01 -6.921800533867154215e+00 2.950000000000000000e+02
1.829420887370966087e-01 -8.289522835710094739e+00 2.950000000000000000e+02
2.340738506727468415e+00 -8.318902465244804034e-02 2.960000000000000000e+02
1.981105770395739984e+00 -1.450911326495389453e+00 2.960000000000000000e+02
1.621473034064011109e+00 -2.818633628338330865e+00 2.960000000000000000e+02
1.261840297732282457e+00 -4.186355930181271390e+00 2.960000000000000000e+02
9.022075614005539146e-01 -5.554078232024212802e+00 2.960000000000000000e+02
5.425748250688252616e-01 -6.921800533867154215e+00 2.960000000000000000e+02
1.829420887370966087e-01 -8.289522835710094739e+00 2.960000000000000000e+02
2.340738506727468415e+00 -8.318902465244804034e-02 2.970000000000000000e+02
1.981105770395739984e+00 -1.450911326495389453e+00 2.970000000000000000e+02
1.621473034064011109e+00 -2.818633628338330865e+00 2.970000000000000000e+02
1.261840297732282457e+00 -4.186355930181271390e+00 2.970000000000000000e+02
9.022075614005539146e-01 -5.554078232024212802e+00 2.970000000000000000e+02
5.425748250688252616e-01 -6.921800533867154215e+00 2.970000000000000000e+02
1.829420887370966087e-01 -8.289522835710094739e+00 2.970000000000000000e+02
2.340738506727468415e+00 -8.318902465244804034e-02 2.980000000000000000e+02
1.981105770395739984e+00 -1.450911326495389453e+00 2.980000000000000000e+02
1.621473034064011109e+00 -2.818633628338330865e+00 2.980000000000000000e+02
1.261840297732282457e+00 -4.186355930181271390e+00 2.980000000000000000e+02
9.022075614005539146e-01 -5.554078232024212802e+00 2.980000000000000000e+02
5.425748250688252616e-01 -6.921800533867154215e+00 2.980000000000000000e+02
1.829420887370966087e-01 -8.289522835710094739e+00 2.980000000000000000e+02
2.340738506727468415e+00 -8.318902465244804034e-02 2.990000000000000000e+02
1.981105770395739984e+00 -1.450911326495389453e+00 2.990000000000000000e+02
1.621473034064011109e+00 -2.818633628338330865e+00 2.990000000000000000e+02
1.261840297732282457e+00 -4.186355930181271390e+00 2.990000000000000000e+02
9.022075614005539146e-01 -5.554078232024212802e+00 2.990000000000000000e+02
5.425748250688252616e-01 -6.921800533867154215e+00 2.990000000000000000e+02
1.829420887370966087e-01 -8.289522835710094739e+00 2.990000000000000000e+02
2.340738506727468415e+00 -8.318902465244804034e-02 3.000000000000000000e+02
1.981105770395739984e+00 -1.450911326495389453e+00 3.000000000000000000e+02
1.621473034064011109e+00 -2.818633628338330865e+00 3.000000000000000000e+02
1.261840297732282457e+00 -4.186355930181271390e+00 3.000000000000000000e+02
9.022075614005539146e-01 -5.554078232024212802e+00 3.000000000000000000e+02
5.425748250688252616e-01 -6.921800533867154215e+00 3.000000000000000000e+02
1.829420887370966087e-01 -8.289522835710094739e+00 3.000000000000000000e+02
2.340738506727468415e+00 -8.318902465244804034e-02 3.010000000000000000e+02
1.981105770395739984e+00 -1.450911326495389453e+00 3.010000000000000000e+02
1.621473034064011109e+00 -2.818633628338330865e+00 3.010000000000000000e+02
1.261840297732282457e+00 -4.186355930181271390e+00 3.010000000000000000e+02
9.022075614005539146e-01 -5.554078232024212802e+00 3.010000000000000000e+02
5.425748250688252616e-01 -6.921800533867154215e+00 3.010000000000000000e+02
1.829420887370966087e-01 -8.289522835710094739e+00 3.010000000000000000e+02
2.340738506727468415e+00 -8.318902465244804034e-02 3.020000000000000000e+02
1.981105770395739984e+00 -1.450911326495389453e+00 3.020000000000000000e+02
1.621473034064011109e+00 -2.818633628338330865e+00 3.020000000000000000e+02
1.261840297732282457e+00 -4.186355930181271390e+00 3.020000000000000000e+02
9.022075614005539146e-01 -5.554078232024212802e+00 3.020000000000000000e+02
5.425748250688252616e-01 -6.921800533867154215e+00 3.020000000000000000e+02
1.829420887370966087e-01 -8.289522835710094739e+00 3.020000000000000000e+02
2.340738506727468415e+00 -8.318902465244804034e-02 3.030000000000000000e+02
1.981105770395739984e+00 -1.450911326495389453e+00 3.030000000000000000e+02
1.621473034064011109e+00 -2.818633628338330865e+00 3.030000000000000000e+02
1.261840297732282457e+00 -4.186355930181271390e+00 3.030000000000000000e+02
9.022075614005539146e-01 -5.554078232024212802e+00 3.030000000000000000e+02
5.425748250688252616e-01 -6.921800533867154215e+00 3.030000000000000000e+02
1.829420887370966087e-01 -8.289522835710094739e+00 3.030000000000000000e+02
2.340738506727468415e+00 -8.318902465244804034e-02 3.040000000000000000e+02
1.981105770395739984e+00 -1.450911326495389453e+00 3.040000000000000000e+02
1.621473034064011109e+00 -2.818633628338330865e+00 3.040000000000000000e+02
1.261840297732282457e+00 -4.186355930181271390e+00 3.040000000000000000e+02
9.022075614005539146e-01 -5.554078232024212802e+00 3.040000000000000000e+02
5.425748250688252616e-01 -6.921800533867154215e+00 3.040000000000000000e+02
1.829420887370966087e-01 -8.289522835710094739e+00 3.040000000000000000e+02
3.204416025814803337e+00 4.208557581031584505e-01 3.050000000000000000e+02
2.844783289483074906e+00 -9.468665437397829621e-01 3.050000000000000000e+02
2.485150553151346031e+00 -2.314588845582724375e+00 3.050000000000000000e+02
2.125517816819617600e+00 -3.682311147425665787e+00 3.050000000000000000e+02
1.765885080487888725e+00 -5.050033449268607200e+00 3.050000000000000000e+02
1.406252344156160294e+00 -6.417755751111547724e+00 3.050000000000000000e+02
1.046619607824431419e+00 -7.785478052954489137e+00 3.050000000000000000e+02
6.869868714927026554e-01 -9.153200354797430549e+00 3.050000000000000000e+02
3.204416025814803337e+00 4.208557581031584505e-01 3.060000000000000000e+02
2.844783289483074906e+00 -9.468665437397829621e-01 3.060000000000000000e+02
2.485150553151346031e+00 -2.314588845582724375e+00 3.060000000000000000e+02
2.125517816819617600e+00 -3.682311147425665787e+00 3.060000000000000000e+02
1.765885080487888725e+00 -5.050033449268607200e+00 3.060000000000000000e+02
1.406252344156160294e+00 -6.417755751111547724e+00 3.060000000000000000e+02
1.046619607824431419e+00 -7.785478052954489137e+00 3.060000000000000000e+02
6.869868714927026554e-01 -9.153200354797430549e+00 3.060000000000000000e+02
3.204416025814803337e+00 4.208557581031584505e-01 3.070000000000000000e+02
2.844783289483074906e+00 -9.468665437397829621e-01 3.070000000000000000e+02
2.485150553151346031e+00 -2.314588845582724375e+00 3.070000000000000000e+02
2.125517816819617600e+00 -3.682311147425665787e+00 3.070000000000000000e+02
1.765885080487888725e+00 -5.050033449268607200e+00 3.070000000000000000e+02
1.406252344156160294e+00 -6.417755751111547724e+00 3.070000000000000000e+02
1.046619607824431419e+00 -7.785478052954489137e+00 3.070000000000000000e+02
6.869868714927026554e-01 -9.153200354797430549e+00 3.070000000000000000e+02
3.204416025814803337e+00 4.208557581031584505e-01 3.080000000000000000e+02
2.844783289483074906e+00 -9.468665437397829621e-01 3.080000000000000000e+02
2.485150553151346031e+00 -2.314588845582724375e+00 3.080000000000000000e+02
2.125517816819617600e+00 -3.682311147425665787e+00 3.080000000000000000e+02
1.765885080487888725e+00 -5.050033449268607200e+00 3.080000000000000000e+02
1.406252344156160294e+00 -6.417755751111547724e+00 3.080000000000000000e+02
1.046619607824431419e+00 -7.785478052954489137e+00 3.080000000000000000e+02
6.869868714927026554e-01 -9.153200354797430549e+00 3.080000000000000000e+02
3.204416025814803337e+00 4.208557581031584505e-01 3.090000000000000000e+02
2.844783289483074906e+00 -9.468665437397829621e-01 3.090000000000000000e+02
