2.089512427248223503e-01 6.751930033410636156e+01 2.340000000000000000e+02
-1.003263201078072875e+00 6.824767945395785773e+01 2.340000000000000000e+02
-2.215477644880968988e+00 6.897605857380935390e+01 2.340000000000000000e+02
-3.427692088683863325e+00 6.970443769366085007e+01 2.340000000000000000e+02
-4.639906532486759438e+00 7.043281681351234624e+01 2.340000000000000000e+02
-5.852120976289653775e+00 7.116119593336382820e+01 2.340000000000000000e+02
1.112413350479966567e+01 6.921009783401186155e+01 2.350000000000000000e+02
9.911919060996769559e+00 6.993847695386335772e+01 2.350000000000000000e+02
8.699704617193875222e+00 7.066685607371485389e+01 2.350000000000000000e+02
7.487490173390979997e+00 7.139523519356635006e+01 2.350000000000000000e+02
6.275275729588084772e+00 7.212361431341784623e+01 2.350000000000000000e+02
5.063061285785190435e+00 7.285199343326934240e+01 2.350000000000000000e+02
3.850846841982295210e+00 7.358037255312083857e+01 2.350000000000000000e+02
2.638632398179400429e+00 7.430875167297233475e+01 2.350000000000000000e+02
1.112413350479966567e+01 6.921009783401186155e+01 2.360000000000000000e+02
9.911919060996769559e+00 6.993847695386335772e+01 2.360000000000000000e+02
8.699704617193875222e+00 7.066685607371485389e+01 2.360000000000000000e+02
7.487490173390979997e+00 7.139523519356635006e+01 2.360000000000000000e+02
6.275275729588084772e+00 7.212361431341784623e+01 2.360000000000000000e+02
5.063061285785190435e+00 7.285199343326934240e+01 2.360000000000000000e+02
3.850846841982295210e+00 7.358037255312083857e+01 2.360000000000000000e+02
2.638632398179400429e+00 7.430875167297233475e+01 2.360000000000000000e+02
1.112413350479966567e+01 6.921009783401186155e+01 2.370000000000000000e+02
9.911919060996769559e+00 6.993847695386335772e+01 2.370000000000000000e+02
8.699704617193875222e+00 7.066685607371485389e+01 2.370000000000000000e+02
7.487490173390979997e+00 7.139523519356635006e+01 2.370000000000000000e+02
6.275275729588084772e+00 7.212361431341784623e+01 2.370000000000000000e+02
5.063061285785190435e+00 7.285199343326934240e+01 2.370000000000000000e+02
3.850846841982295210e+00 7.358037255312083857e+01 2.370000000000000000e+02
2.638632398179400429e+00 7.430875167297233475e+01 2.370000000000000000e+02
1.426417954376505648e+00 7.503713079282383092e+01 2.370000000000000000e+02
1.112413350479966567e+01 6.921009783401186155e+01 2.380000000000000000e+02
9.911919060996769559e+00 6.993847695386335772e+01 2.380000000000000000e+02
8.699704617193875222e+00 7.066685607371485389e+01 2.380000000000000000e+02
7.487490173390979997e+00 7.139523519356635006e+01 2.380000000000000000e+02
6.275275729588084772e+00 7.212361431341784623e+01 2.380000000000000000e+02
5.063061285785190435e+00 7.285199343326934240e+01 2.380000000000000000e+02
3.850846841982295210e+00 7.358037255312083857e+01 2.380000000000000000e+02
2.638632398179400429e+00 7.430875167297233475e+01 2.380000000000000000e+02
1.426417954376505648e+00 7.503713079282383092e+01 2.380000000000000000e+02
1.112413350479966567e+01 6.921009783401186155e+01 2.390000000000000000e+02
9.911919060996769559e+00 6.993847695386335772e+01 2.390000000000000000e+02
8.699704617193875222e+00 7.066685607371485389e+01 2.390000000000000000e+02
7.487490173390979997e+00 7.139523519356635006e+01 2.390000000000000000e+02
6.275275729588084772e+00 7.212361431341784623e+01 2.390000000000000000e+02
5.063061285785190435e+00 7.285199343326934240e+01 2.390000000000000000e+02
3.850846841982295210e+00 7.358037255312083857e+01 2.390000000000000000e+02
2.638632398179400429e+00 7.430875167297233475e+01 2.390000000000000000e+02
1.426417954376505648e+00 7.503713079282383092e+01 2.390000000000000000e+02
1.112413350479966567e+01 6.921009783401186155e+01 2.400000000000000000e+02
9.911919060996769559e+00 6.993847695386335772e+01 2.400000000000000000e+02
8.699704617193875222e+00 7.066685607371485389e+01 2.400000000000000000e+02
7.487490173390979997e+00 7.139523519356635006e+01 2.400000000000000000e+02
6.275275729588084772e+00 7.212361431341784623e+01 2.400000000000000000e+02
5.063061285785190435e+00 7.285199343326934240e+01 2.400000000000000000e+02
3.850846841982295210e+00 7.358037255312083857e+01 2.400000000000000000e+02
2.638632398179400429e+00 7.430875167297233475e+01 2.400000000000000000e+02
1.426417954376505648e+00 7.503713079282383092e+01 2.400000000000000000e+02
1.112413350479966567e+01 6.921009783401186155e+01 2.410000000000000000e+02
9.911919060996769559e+00 6.993847695386335772e+01 2.410000000000000000e+02
8.699704617193875222e+00 7.066685607371485389e+01 2.410000000000000000e+02
7.487490173390979997e+00 7.139523519356635006e+01 2.410000000000000000e+02
6.275275729588084772e+00 7.212361431341784623e+01 2.410000000000000000e+02
5.063061285785190435e+00 7.285199343326934240e+01 2.410000000000000000e+02
3.850846841982295210e+00 7.358037255312083857e+01 2.410000000000000000e+02
2.638632398179400429e+00 7.430875167297233475e+01 2.410000000000000000e+02
1.426417954376505648e+00 7.503713079282383092e+01 2.410000000000000000e+02
2.142035105736104228e-01 7.576550991267532709e+01 2.410000000000000000e+02
1.088221584282396392e+01 7.018039461583906302e+01 2.420000000000000000e+02
9.670001399021071364e+00 7.090877373569055919e+01 2.420000000000000000e+02
8.457786955218175251e+00 7.163715285554205536e+01 2.420000000000000000e+02
7.245572511415280026e+00 7.236553197539355153e+01 2.420000000000000000e+02
6.033358067612384801e+00 7.309391109524504770e+01 2.420000000000000000e+02
4.821143623809490464e+00 7.382229021509652966e+01 2.420000000000000000e+02
3.608929180006595239e+00 7.455066933494802583e+01 2.420000000000000000e+02
2.396714736203700458e+00 7.527904845479952201e+01 2.420000000000000000e+02
1.184500292400805677e+00 7.600742757465101818e+01 2.420000000000000000e+02
-2.771415140208954853e-02 7.673580669450251435e+01 2.420000000000000000e+02
1.088221584282396392e+01 7.018039461583906302e+01 2.430000000000000000e+02
9.670001399021071364e+00 7.090877373569055919e+01 2.430000000000000000e+02
8.457786955218175251e+00 7.163715285554205536e+01 2.430000000000000000e+02
7.245572511415280026e+00 7.236553197539355153e+01 2.430000000000000000e+02
6.033358067612384801e+00 7.309391109524504770e+01 2.430000000000000000e+02
4.821143623809490464e+00 7.382229021509652966e+01 2.430000000000000000e+02
3.608929180006595239e+00 7.455066933494802583e+01 2.430000000000000000e+02
2.396714736203700458e+00 7.527904845479952201e+01 2.430000000000000000e+02
1.184500292400805677e+00 7.600742757465101818e+01 2.430000000000000000e+02
-2.771415140208954853e-02 7.673580669450251435e+01 2.430000000000000000e+02
1.088221584282396392e+01 7.018039461583906302e+01 2.440000000000000000e+02
9.670001399021071364e+00 7.090877373569055919e+01 2.440000000000000000e+02
8.457786955218175251e+00 7.163715285554205536e+01 2.440000000000000000e+02
7.245572511415280026e+00 7.236553197539355153e+01 2.440000000000000000e+02
6.033358067612384801e+00 7.309391109524504770e+01 2.440000000000000000e+02
4.821143623809490464e+00 7.382229021509652966e+01 2.440000000000000000e+02
3.608929180006595239e+00 7.455066933494802583e+01 2.440000000000000000e+02
2.396714736203700458e+00 7.527904845479952201e+01 2.440000000000000000e+02
1.184500292400805677e+00 7.600742757465101818e+01 2.440000000000000000e+02
-2.771415140208954853e-02 7.673580669450251435e+01 2.440000000000000000e+02
1.088221584282396392e+01 7.018039461583906302e+01 2.450000000000000000e+02
9.670001399021071364e+00 7.090877373569055919e+01 2.450000000000000000e+02
8.457786955218175251e+00 7.163715285554205536e+01 2.450000000000000000e+02
7.245572511415280026e+00 7.236553197539355153e+01 2.450000000000000000e+02
6.033358067612384801e+00 7.309391109524504770e+01 2.450000000000000000e+02
4.821143623809490464e+00 7.382229021509652966e+01 2.450000000000000000e+02
3.608929180006595239e+00 7.455066933494802583e+01 2.450000000000000000e+02
2.396714736203700458e+00 7.527904845479952201e+01 2.450000000000000000e+02
1.184500292400805677e+00 7.600742757465101818e+01 2.450000000000000000e+02
-2.771415140208954853e-02 7.673580669450251435e+01 2.450000000000000000e+02
1.088221584282396392e+01 7.018039461583906302e+01 2.460000000000000000e+02
9.670001399021071364e+00 7.090877373569055919e+01 2.460000000000000000e+02
8.457786955218175251e+00 7.163715285554205536e+01 2.460000000000000000e+02
7.245572511415280026e+00 7.236553197539355153e+01 2.460000000000000000e+02
6.033358067612384801e+00 7.309391109524504770e+01 2.460000000000000000e+02
4.821143623809490464e+00 7.382229021509652966e+01 2.460000000000000000e+02
3.608929180006595239e+00 7.455066933494802583e+01 2.460000000000000000e+02
2.396714736203700458e+00 7.527904845479952201e+01 2.460000000000000000e+02
1.184500292400805677e+00 7.600742757465101818e+01 2.460000000000000000e+02
-2.771415140208954853e-02 7.673580669450251435e+01 2.460000000000000000e+02
1.088221584282396392e+01 7.018039461583906302e+01 2.470000000000000000e+02
9.670001399021071364e+00 7.090877373569055919e+01 2.470000000000000000e+02
8.457786955218175251e+00 7.163715285554205536e+01 2.470000000000000000e+02
7.245572511415280026e+00 7.236553197539355153e+01 2.470000000000000000e+02
6.033358067612384801e+00 7.309391109524504770e+01 2.470000000000000000e+02
4.821143623809490464e+00 7.382229021509652966e+01 2.470000000000000000e+02
3.608929180006595239e+00 7.455066933494802583e+01 2.470000000000000000e+02
2.396714736203700458e+00 7.527904845479952201e+01 2.470000000000000000e+02
1.184500292400805677e+00 7.600742757465101818e+01 2.470000000000000000e+02
-2.771415140208954853e-02 7.673580669450251435e+01 2.470000000000000000e+02
1.088221584282396392e+01 7.018039461583906302e+01 2.480000000000000000e+02
9.670001399021071364e+00 7.090877373569055919e+01 2.480000000000000000e+02
8.457786955218175251e+00 7.163715285554205536e+01 2.480000000000000000e+02
7.245572511415280026e+00 7.236553197539355153e+01 2.480000000000000000e+02
6.033358067612384801e+00 7.309391109524504770e+01 2.480000000000000000e+02
4.821143623809490464e+00 7.382229021509652966e+01 2.480000000000000000e+02
3.608929180006595239e+00 7.455066933494802583e+01 2.480000000000000000e+02
2.396714736203700458e+00 7.527904845479952201e+01 2.480000000000000000e+02
1.184500292400805677e+00 7.600742757465101818e+01 2.480000000000000000e+02
-2.771415140208954853e-02 7.673580669450251435e+01 2.480000000000000000e+02
1.088221584282396392e+01 7.018039461583906302e+01 2.490000000000000000e+02
9.670001399021071364e+00 7.090877373569055919e+01 2.490000000000000000e+02
8.457786955218175251e+00 7.163715285554205536e+01 2.490000000000000000e+02
7.245572511415280026e+00 7.236553197539355153e+01 2.490000000000000000e+02
6.033358067612384801e+00 7.309391109524504770e+01 2.490000000000000000e+02
4.821143623809490464e+00 7.382229021509652966e+01 2.490000000000000000e+02
3.608929180006595239e+00 7.455066933494802583e+01 2.490000000000000000e+02
2.396714736203700458e+00 7.527904845479952201e+01 2.490000000000000000e+02
1.184500292400805677e+00 7.600742757465101818e+01 2.490000000000000000e+02
-2.771415140208954853e-02 7.673580669450251435e+01 2.490000000000000000e+02
1.088221584282396392e+01 7.018039461583906302e+01 2.500000000000000000e+02
9.670001399021071364e+00 7.090877373569055919e+01 2.500000000000000000e+02
8.457786955218175251e+00 7.163715285554205536e+01 2.500000000000000000e+02
7.245572511415280026e+00 7.236553197539355153e+01 2.500000000000000000e+02
6.033358067612384801e+00 7.309391109524504770e+01 2.500000000000000000e+02
4.821143623809490464e+00 7.382229021509652966e+01 2.500000000000000000e+02
3.608929180006595239e+00 7.455066933494802583e+01 2.500000000000000000e+02
2.396714736203700458e+00 7.527904845479952201e+01 2.500000000000000000e+02
1.184500292400805677e+00 7.600742757465101818e+01 2.500000000000000000e+02
-2.771415140208954853e-02 7.673580669450251435e+01 2.500000000000000000e+02
1.088221584282396392e+01 7.018039461583906302e+01 2.510000000000000000e+02
9.670001399021071364e+00 7.090877373569055919e+01 2.510000000000000000e+02
8.457786955218175251e+00 7.163715285554205536e+01 2.510000000000000000e+02
7.245572511415280026e+00 7.236553197539355153e+01 2.510000000000000000e+02
6.033358067612384801e+00 7.309391109524504770e+01 2.510000000000000000e+02
4.821143623809490464e+00 7.382229021509652966e+01 2.510000000000000000e+02
3.608929180006595239e+00 7.455066933494802583e+01 2.510000000000000000e+02
2.396714736203700458e+00 7.527904845479952201e+01 2.510000000000000000e+02
1.184500292400805677e+00 7.600742757465101818e+01 2.510000000000000000e+02
-2.771415140208954853e-02 7.673580669450251435e+01 2.510000000000000000e+02
1.088221584282396392e+01 7.018039461583906302e+01 2.520000000000000000e+02
9.670001399021071364e+00 7.090877373569055919e+01 2.520000000000000000e+02
8.457786955218175251e+00 7.163715285554205536e+01 2.520000000000000000e+02
7.245572511415280026e+00 7.236553197539355153e+01 2.520000000000000000e+02
6.033358067612384801e+00 7.309391109524504770e+01 2.520000000000000000e+02
4.821143623809490464e+00 7.382229021509652966e+01 2.520000000000000000e+02
3.608929180006595239e+00 7.455066933494802583e+01 2.520000000000000000e+02
2.396714736203700458e+00 7.527904845479952201e+01 2.520000000000000000e+02
1.184500292400805677e+00 7.600742757465101818e+01 2.520000000000000000e+02
-2.771415140208954853e-02 7.673580669450251435e+01 2.520000000000000000e+02
1.088221584282396392e+01 7.018039461583906302e+01 2.530000000000000000e+02
9.670001399021071364e+00 7.090877373569055919e+01 2.530000000000000000e+02
8.457786955218175251e+00 7.163715285554205536e+01 2.530000000000000000e+02
7.245572511415280026e+00 7.236553197539355153e+01 2.530000000000000000e+02
6.033358067612384801e+00 7.309391109524504770e+01 2.530000000000000000e+02
4.821143623809490464e+00 7.382229021509652966e+01 2.530000000000000000e+02
3.608929180006595239e+00 7.455066933494802583e+01 2.530000000000000000e+02
2.396714736203700458e+00 7.527904845479952201e+01 2.530000000000000000e+02
1.184500292400805677e+00 7.600742757465101818e+01 2.530000000000000000e+02
-2.771415140208954853e-02 7.673580669450251435e+01 2.530000000000000000e+02
1.088221584282396392e+01 7.018039461583906302e+01 2.540000000000000000e+02
9.670001399021071364e+00 7.090877373569055919e+01 2.540000000000000000e+02
8.457786955218175251e+00 7.163715285554205536e+01 2.540000000000000000e+02
7.245572511415280026e+00 7.236553197539355153e+01 2.540000000000000000e+02
6.033358067612384801e+00 7.309391109524504770e+01 2.540000000000000000e+02
4.821143623809490464e+00 7.382229021509652966e+01 2.540000000000000000e+02
3.608929180006595239e+00 7.455066933494802583e+01 2.540000000000000000e+02
2.396714736203700458e+00 7.527904845479952201e+01 2.540000000000000000e+02
1.184500292400805677e+00 7.600742757465101818e+01 2.540000000000000000e+02
-2.771415140208954853e-02 7.673580669450251435e+01 2.540000000000000000e+02
1.088221584282396392e+01 7.018039461583906302e+01 2.550000000000000000e+02
9.670001399021071364e+00 7.090877373569055919e+01 2.550000000000000000e+02
8.457786955218175251e+00 7.163715285554205536e+01 2.550000000000000000e+02
7.245572511415280026e+00 7.236553197539355153e+01 2.550000000000000000e+02
6.033358067612384801e+00 7.309391109524504770e+01 2.550000000000000000e+02
4.821143623809490464e+00 7.382229021509652966e+01 2.550000000000000000e+02
3.608929180006595239e+00 7.455066933494802583e+01 2.550000000000000000e+02
2.396714736203700458e+00 7.527904845479952201e+01 2.550000000000000000e+02
1.184500292400805677e+00 7.600742757465101818e+01 2.550000000000000000e+02
-2.771415140208954853e-02 7.673580669450251435e+01 2.550000000000000000e+02
1.088221584282396392e+01 7.018039461583906302e+01 2.560000000000000000e+02
9.670001399021071364e+00 7.090877373569055919e+01 2.560000000000000000e+02
8.457786955218175251e+00 7.163715285554205536e+01 2.560000000000000000e+02
7.245572511415280026e+00 7.236553197539355153e+01 2.560000000000000000e+02
6.033358067612384801e+00 7.309391109524504770e+01 2.560000000000000000e+02
4.821143623809490464e+00 7.382229021509652966e+01 2.560000000000000000e+02
3.608929180006595239e+00 7.455066933494802583e+01 2.560000000000000000e+02
2.396714736203700458e+00 7.527904845479952201e+01 2.560000000000000000e+02
1.184500292400805677e+00 7.600742757465101818e+01 2.560000000000000000e+02
-2.771415140208954853e-02 7.673580669450251435e+01 2.560000000000000000e+02
1.088221584282396392e+01 7.018039461583906302e+01 2.570000000000000000e+02
9.670001399021071364e+00 7.090877373569055919e+01 2.570000000000000000e+02
8.457786955218175251e+00 7.163715285554205536e+01 2.570000000000000000e+02
7.245572511415280026e+00 7.236553197539355153e+01 2.570000000000000000e+02
6.033358067612384801e+00 7.309391109524504770e+01 2.570000000000000000e+02
4.821143623809490464e+00 7.382229021509652966e+01 2.570000000000000000e+02
3.608929180006595239e+00 7.455066933494802583e+01 2.570000000000000000e+02
2.396714736203700458e+00 7.527904845479952201e+01 2.570000000000000000e+02
1.184500292400805677e+00 7.600742757465101818e+01 2.570000000000000000e+02
-2.771415140208954853e-02 7.673580669450251435e+01 2.570000000000000000e+02
1.088221584282396392e+01 7.018039461583906302e+01 2.580000000000000000e+02
9.670001399021071364e+00 7.090877373569055919e+01 2.580000000000000000e+02
8.457786955218175251e+00 7.163715285554205536e+01 2.580000000000000000e+02
7.245572511415280026e+00 7.236553197539355153e+01 2.580000000000000000e+02
6.033358067612384801e+00 7.309391109524504770e+01 2.580000000000000000e+02
4.821143623809490464e+00 7.382229021509652966e+01 2.580000000000000000e+02
3.608929180006595239e+00 7.455066933494802583e+01 2.580000000000000000e+02
2.396714736203700458e+00 7.527904845479952201e+01 2.580000000000000000e+02
1.184500292400805677e+00 7.600742757465101818e+01 2.580000000000000000e+02
-2.771415140208954853e-02 7.673580669450251435e+01 2.580000000000000000e+02
1.088221584282396392e+01 7.018039461583906302e+01 2.590000000000000000e+02
9.670001399021071364e+00 7.090877373569055919e+01 2.590000000000000000e+02
8.457786955218175251e+00 7.163715285554205536e+01 2.590000000000000000e+02
7.245572511415280026e+00 7.236553197539355153e+01 2.590000000000000000e+02
6.033358067612384801e+00 7.309391109524504770e+01 2.590000000000000000e+02
4.821143623809490464e+00 7.382229021509652966e+01 2.590000000000000000e+02
3.608929180006595239e+00 7.455066933494802583e+01 2.590000000000000000e+02
2.396714736203700458e+00 7.527904845479952201e+01 2.590000000000000000e+02
1.184500292400805677e+00 7.600742757465101818e+01 2.590000000000000000e+02
-2.771415140208954853e-02 7.673580669450251435e+01 2.590000000000000000e+02
1.088221584282396392e+01 7.018039461583906302e+01 2.600000000000000000e+02
9.670001399021071364e+00 7.090877373569055919e+01 2.600000000000000000e+02
8.457786955218175251e+00 7.163715285554205536e+01 2.600000000000000000e+02
7.245572511415280026e+00 7.236553197539355153e+01 2.600000000000000000e+02
6.033358067612384801e+00 7.309391109524504770e+01 2.600000000000000000e+02
4.821143623809490464e+00 7.382229021509652966e+01 2.600000000000000000e+02
3.608929180006595239e+00 7.455066933494802583e+01 2.600000000000000000e+02
2.396714736203700458e+00 7.527904845479952201e+01 2.600000000000000000e+02
1.184500292400805677e+00 7.600742757465101818e+01 2.600000000000000000e+02
-2.771415140208954853e-02 7.673580669450251435e+01 2.600000000000000000e+02
1.088221584282396392e+01 7.018039461583906302e+01 2.610000000000000000e+02
9.670001399021071364e+00 7.090877373569055919e+01 2.610000000000000000e+02
8.457786955218175251e+00 7.163715285554205536e+01 2.610000000000000000e+02
7.245572511415280026e+00 7.236553197539355153e+01 2.610000000000000000e+02
6.033358067612384801e+00 7.309391109524504770e+01 2.610000000000000000e+02
4.821143623809490464e+00 7.382229021509652966e+01 2.610000000000000000e+02
3.608929180006595239e+00 7.455066933494802583e+01 2.610000000000000000e+02
2.396714736203700458e+00 7.527904845479952201e+01 2.610000000000000000e+02
1.184500292400805677e+00 7.600742757465101818e+01 2.610000000000000000e+02
-2.771415140208954853e-02 7.673580669450251435e+01 2.610000000000000000e+02
1.088221584282396392e+01 7.018039461583906302e+01 2.620000000000000000e+02
9.670001399021071364e+00 7.090877373569055919e+01 2.620000000000000000e+02
8.457786955218175251e+00 7.163715285554205536e+01 2.620000000000000000e+02
7.245572511415280026e+00 7.236553197539355153e+01 2.620000000000000000e+02
6.033358067612384801e+00 7.309391109524504770e+01 2.620000000000000000e+02
4.821143623809490464e+00 7.382229021509652966e+01 2.620000000000000000e+02
3.608929180006595239e+00 7.455066933494802583e+01 2.620000000000000000e+02
2.396714736203700458e+00 7.527904845479952201e+01 2.620000000000000000e+02
1.184500292400805677e+00 7.600742757465101818e+01 2.620000000000000000e+02
-2.771415140208954853e-02 7.673580669450251435e+01 2.620000000000000000e+02
1.088221584282396392e+01 7.018039461583906302e+01 2.630000000000000000e+02
9.670001399021071364e+00 7.090877373569055919e+01 2.630000000000000000e+02
8.457786955218175251e+00 7.163715285554205536e+01 2.630000000000000000e+02
7.245572511415280026e+00 7.236553197539355153e+01 2.630000000000000000e+02
6.033358067612384801e+00 7.309391109524504770e+01 2.630000000000000000e+02
4.821143623809490464e+00 7.382229021509652966e+01 2.630000000000000000e+02
3.608929180006595239e+00 7.455066933494802583e+01 2.630000000000000000e+02
2.396714736203700458e+00 7.527904845479952201e+01 2.630000000000000000e+02
1.184500292400805677e+00 7.600742757465101818e+01 2.630000000000000000e+02
-2.771415140208954853e-02 7.673580669450251435e+01 2.630000000000000000e+02
1.064029818084826573e+01 7.115069139766626449e+01 2.640000000000000000e+02
9.428083737045369617e+00 7.187907051751774645e+01 2.640000000000000000e+02
8.215869293242475280e+00 7.260744963736924262e+01 2.640000000000000000e+02
7.003654849439580055e+00 7.333582875722073879e+01 2.640000000000000000e+02
5.791440405636684829e+00 7.406420787707223496e+01 2.640000000000000000e+02
4.579225961833790493e+00 7.479258699692373114e+01 2.640000000000000000e+02
3.367011518030895267e+00 7.552096611677522731e+01 2.640000000000000000e+02
2.154797074228000042e+00 7.624934523662672348e+01 2.640000000000000000e+02
9.425826304251057053e-01 7.697772435647821965e+01 2.640000000000000000e+02
1.064029818084826573e+01 7.115069139766626449e+01 2.650000000000000000e+02
9.428083737045369617e+00 7.187907051751774645e+01 2.650000000000000000e+02
8.215869293242475280e+00 7.260744963736924262e+01 2.650000000000000000e+02
7.003654849439580055e+00 7.333582875722073879e+01 2.650000000000000000e+02
5.791440405636684829e+00 7.406420787707223496e+01 2.650000000000000000e+02
4.579225961833790493e+00 7.479258699692373114e+01 2.650000000000000000e+02
3.367011518030895267e+00 7.552096611677522731e+01 2.650000000000000000e+02
2.154797074228000042e+00 7.624934523662672348e+01 2.650000000000000000e+02
9.425826304251057053e-01 7.697772435647821965e+01 2.650000000000000000e+02
1.064029818084826573e+01 7.115069139766626449e+01 2.660000000000000000e+02
9.428083737045369617e+00 7.187907051751774645e+01 2.660000000000000000e+02
8.215869293242475280e+00 7.260744963736924262e+01 2.660000000000000000e+02
7.003654849439580055e+00 7.333582875722073879e+01 2.660000000000000000e+02
5.791440405636684829e+00 7.406420787707223496e+01 2.660000000000000000e+02
4.579225961833790493e+00 7.479258699692373114e+01 2.660000000000000000e+02
3.367011518030895267e+00 7.552096611677522731e+01 2.660000000000000000e+02
2.154797074228000042e+00 7.624934523662672348e+01 2.660000000000000000e+02
9.425826304251057053e-01 7.697772435647821965e+01 2.660000000000000000e+02
1.064029818084826573e+01 7.115069139766626449e+01 2.670000000000000000e+02
9.428083737045369617e+00 7.187907051751774645e+01 2.670000000000000000e+02
8.215869293242475280e+00 7.260744963736924262e+01 2.670000000000000000e+02
7.003654849439580055e+00 7.333582875722073879e+01 2.670000000000000000e+02
5.791440405636684829e+00 7.406420787707223496e+01 2.670000000000000000e+02
4.579225961833790493e+00 7.479258699692373114e+01 2.670000000000000000e+02
3.367011518030895267e+00 7.552096611677522731e+01 2.670000000000000000e+02
2.154797074228000042e+00 7.624934523662672348e+01 2.670000000000000000e+02
9.425826304251057053e-01 7.697772435647821965e+01 2.670000000000000000e+02
1.088221584282396392e+01 7.018039461583906302e+01 2.680000000000000000e+02
9.670001399021071364e+00 7.090877373569055919e+01 2.680000000000000000e+02
8.457786955218175251e+00 7.163715285554205536e+01 2.680000000000000000e+02
7.245572511415280026e+00 7.236553197539355153e+01 2.680000000000000000e+02
6.033358067612384801e+00 7.309391109524504770e+01 2.680000000000000000e+02
4.821143623809490464e+00 7.382229021509652966e+01 2.680000000000000000e+02
3.608929180006595239e+00 7.455066933494802583e+01 2.680000000000000000e+02
2.396714736203700458e+00 7.527904845479952201e+01 2.680000000000000000e+02
1.184500292400805677e+00 7.600742757465101818e+01 2.680000000000000000e+02
-2.771415140208954853e-02 7.673580669450251435e+01 2.680000000000000000e+02
1.088221584282396392e+01 7.018039461583906302e+01 2.690000000000000000e+02
9.670001399021071364e+00 7.090877373569055919e+01 2.690000000000000000e+02
8.457786955218175251e+00 7.163715285554205536e+01 2.690000000000000000e+02
7.245572511415280026e+00 7.236553197539355153e+01 2.690000000000000000e+02
6.033358067612384801e+00 7.309391109524504770e+01 2.690000000000000000e+02
4.821143623809490464e+00 7.382229021509652966e+01 2.690000000000000000e+02
3.608929180006595239e+00 7.455066933494802583e+01 2.690000000000000000e+02
2.396714736203700458e+00 7.527904845479952201e+01 2.690000000000000000e+02
1.184500292400805677e+00 7.600742757465101818e+01 2.690000000000000000e+02
-2.771415140208954853e-02 7.673580669450251435e+01 2.690000000000000000e+02
1.088221584282396392e+01 7.018039461583906302e+01 2.700000000000000000e+02
9.670001399021071364e+00 7.090877373569055919e+01 2.700000000000000000e+02
8.457786955218175251e+00 7.163715285554205536e+01 2.700000000000000000e+02
7.245572511415280026e+00 7.236553197539355153e+01 2.700000000000000000e+02
6.033358067612384801e+00 7.309391109524504770e+01 2.700000000000000000e+02
4.821143623809490464e+00 7.382229021509652966e+01 2.700000000000000000e+02
3.608929180006595239e+00 7.455066933494802583e+01 2.700000000000000000e+02
2.396714736203700458e+00 7.527904845479952201e+01 2.700000000000000000e+02
1.184500292400805677e+00 7.600742757465101818e+01 2.700000000000000000e+02
-2.771415140208954853e-02 7.673580669450251435e+01 2.700000000000000000e+02
1.088221584282396392e+01 7.018039461583906302e+01 2.710000000000000000e+02
9.670001399021071364e+00 7.090877373569055919e+01 2.710000000000000000e+02
8.457786955218175251e+00 7.163715285554205536e+01 2.710000000000000000e+02
7.245572511415280026e+00 7.236553197539355153e+01 2.710000000000000000e+02
6.033358067612384801e+00 7.309391109524504770e+01 2.710000000000000000e+02
4.821143623809490464e+00 7.382229021509652966e+01 2.710000000000000000e+02
3.608929180006595239e+00 7.455066933494802583e+01 2.710000000000000000e+02
2.396714736203700458e+00 7.527904845479952201e+01 2.710000000000000000e+02
1.184500292400805677e+00 7.600742757465101818e+01 2.710000000000000000e+02
-2.771415140208954853e-02 7.673580669450251435e+01 2.710000000000000000e+02
1.088221584282396392e+01 7.018039461583906302e+01 2.720000000000000000e+02
9.670001399021071364e+00 7.090877373569055919e+01 2.720000000000000000e+02
8.457786955218175251e+00 7.163715285554205536e+01 2.720000000000000000e+02
7.245572511415280026e+00 7.236553197539355153e+01 2.720000000000000000e+02
6.033358067612384801e+00 7.309391109524504770e+01 2.720000000000000000e+02
4.821143623809490464e+00 7.382229021509652966e+01 2.720000000000000000e+02
3.608929180006595239e+00 7.455066933494802583e+01 2.720000000000000000e+02
2.396714736203700458e+00 7.527904845479952201e+01 2.720000000000000000e+02
1.184500292400805677e+00 7.600742757465101818e+01 2.720000000000000000e+02
-2.771415140208954853e-02 7.673580669450251435e+01 2.720000000000000000e+02
1.088221584282396392e+01 7.018039461583906302e+01 2.730000000000000000e+02
9.670001399021071364e+00 7.090877373569055919e+01 2.730000000000000000e+02
8.457786955218175251e+00 7.163715285554205536e+01 2.730000000000000000e+02
7.245572511415280026e+00 7.236553197539355153e+01 2.730000000000000000e+02
6.033358067612384801e+00 7.309391109524504770e+01 2.730000000000000000e+02
4.821143623809490464e+00 7.382229021509652966e+01 2.730000000000000000e+02
3.608929180006595239e+00 7.455066933494802583e+01 2.730000000000000000e+02
2.396714736203700458e+00 7.527904845479952201e+01 2.730000000000000000e+02
1.184500292400805677e+00 7.600742757465101818e+01 2.730000000000000000e+02
-2.771415140208954853e-02 7.673580669450251435e+01 2.730000000000000000e+02
1.088221584282396392e+01 7.018039461583906302e+01 2.740000000000000000e+02
9.670001399021071364e+00 7.090877373569055919e+01 2.740000000000000000e+02
8.457786955218175251e+00 7.163715285554205536e+01 2.740000000000000000e+02
7.245572511415280026e+00 7.236553197539355153e+01 2.740000000000000000e+02
6.033358067612384801e+00 7.309391109524504770e+01 2.740000000000000000e+02
4.821143623809490464e+00 7.382229021509652966e+01 2.740000000000000000e+02
3.608929180006595239e+00 7.455066933494802583e+01 2.740000000000000000e+02
2.396714736203700458e+00 7.527904845479952201e+01 2.740000000000000000e+02
1.184500292400805677e+00 7.600742757465101818e+01 2.740000000000000000e+02
-2.771415140208954853e-02 7.673580669450251435e+01 2.740000000000000000e+02
1.088221584282396392e+01 7.018039461583906302e+01 2.750000000000000000e+02
9.670001399021071364e+00 7.090877373569055919e+01 2.750000000000000000e+02
8.457786955218175251e+00 7.163715285554205536e+01 2.750000000000000000e+02
7.245572511415280026e+00 7.236553197539355153e+01 2.750000000000000000e+02
6.033358067612384801e+00 7.309391109524504770e+01 2.750000000000000000e+02
4.821143623809490464e+00 7.382229021509652966e+01 2.750000000000000000e+02
3.608929180006595239e+00 7.455066933494802583e+01 2.750000000000000000e+02
2.396714736203700458e+00 7.527904845479952201e+01 2.750000000000000000e+02
1.184500292400805677e+00 7.600742757465101818e+01 2.750000000000000000e+02
-2.771415140208954853e-02 7.673580669450251435e+01 2.750000000000000000e+02
1.088221584282396392e+01 7.018039461583906302e+01 2.760000000000000000e+02
9.670001399021071364e+00 7.090877373569055919e+01 2.760000000000000000e+02
8.457786955218175251e+00 7.163715285554205536e+01 2.760000000000000000e+02
7.245572511415280026e+00 7.236553197539355153e+01 2.760000000000000000e+02
6.033358067612384801e+00 7.309391109524504770e+01 2.760000000000000000e+02
4.821143623809490464e+00 7.382229021509652966e+01 2.760000000000000000e+02
3.608929180006595239e+00 7.455066933494802583e+01 2.760000000000000000e+02
2.396714736203700458e+00 7.527904845479952201e+01 2.760000000000000000e+02
1.184500292400805677e+00 7.600742757465101818e+01 2.760000000000000000e+02
-2.771415140208954853e-02 7.673580669450251435e+01 2.760000000000000000e+02
1.088221584282396392e+01 7.018039461583906302e+01 2.770000000000000000e+02
9.670001399021071364e+00 7.090877373569055919e+01 2.770000000000000000e+02
8.457786955218175251e+00 7.163715285554205536e+01 2.770000000000000000e+02
7.245572511415280026e+00 7.236553197539355153e+01 2.770000000000000000e+02
6.033358067612384801e+00 7.309391109524504770e+01 2.770000000000000000e+02
4.821143623809490464e+00 7.382229021509652966e+01 2.770000000000000000e+02
3.608929180006595239e+00 7.455066933494802583e+01 2.770000000000000000e+02
2.396714736203700458e+00 7.527904845479952201e+01 2.770000000000000000e+02
1.184500292400805677e+00 7.600742757465101818e+01 2.770000000000000000e+02
-2.771415140208954853e-02 7.673580669450251435e+01 2.770000000000000000e+02
1.088221584282396392e+01 7.018039461583906302e+01 2.780000000000000000e+02
9.670001399021071364e+00 7.090877373569055919e+01 2.780000000000000000e+02
8.457786955218175251e+00 7.163715285554205536e+01 2.780000000000000000e+02
7.245572511415280026e+00 7.236553197539355153e+01 2.780000000000000000e+02
6.033358067612384801e+00 7.309391109524504770e+01 2.780000000000000000e+02
4.821143623809490464e+00 7.382229021509652966e+01 2.780000000000000000e+02
3.608929180006595239e+00 7.455066933494802583e+01 2.780000000000000000e+02
2.396714736203700458e+00 7.527904845479952201e+01 2.780000000000000000e+02
1.184500292400805677e+00 7.600742757465101818e+01 2.780000000000000000e+02
-2.771415140208954853e-02 7.673580669450251435e+01 2.780000000000000000e+02
1.088221584282396392e+01 7.018039461583906302e+01 2.790000000000000000e+02
9.670001399021071364e+00 7.090877373569055919e+01 2.790000000000000000e+02
8.457786955218175251e+00 7.163715285554205536e+01 2.790000000000000000e+02
7.245572511415280026e+00 7.236553197539355153e+01 2.790000000000000000e+02
6.033358067612384801e+00 7.309391109524504770e+01 2.790000000000000000e+02
4.821143623809490464e+00 7.382229021509652966e+01 2.790000000000000000e+02
3.608929180006595239e+00 7.455066933494802583e+01 2.790000000000000000e+02
2.396714736203700458e+00 7.527904845479952201e+01 2.790000000000000000e+02
1.184500292400805677e+00 7.600742757465101818e+01 2.790000000000000000e+02
-2.771415140208954853e-02 7.673580669450251435e+01 2.790000000000000000e+02
1.088221584282396392e+01 7.018039461583906302e+01 2.800000000000000000e+02
9.670001399021071364e+00 7.090877373569055919e+01 2.800000000000000000e+02
8.457786955218175251e+00 7.163715285554205536e+01 2.800000000000000000e+02
7.245572511415280026e+00 7.236553197539355153e+01 2.800000000000000000e+02
6.033358067612384801e+00 7.309391109524504770e+01 2.800000000000000000e+02
4.821143623809490464e+00 7.382229021509652966e+01 2.800000000000000000e+02
3.608929180006595239e+00 7.455066933494802583e+01 2.800000000000000000e+02
2.396714736203700458e+00 7.527904845479952201e+01 2.800000000000000000e+02
1.184500292400805677e+00 7.600742757465101818e+01 2.800000000000000000e+02
-2.771415140208954853e-02 7.673580669450251435e+01 2.800000000000000000e+02
1.088221584282396392e+01 7.018039461583906302e+01 2.810000000000000000e+02
9.670001399021071364e+00 7.090877373569055919e+01 2.810000000000000000e+02
8.457786955218175251e+00 7.163715285554205536e+01 2.810000000000000000e+02
7.245572511415280026e+00 7.236553197539355153e+01 2.810000000000000000e+02
6.033358067612384801e+00 7.309391109524504770e+01 2.810000000000000000e+02
4.821143623809490464e+00 7.382229021509652966e+01 2.810000000000000000e+02
3.608929180006595239e+00 7.455066933494802583e+01 2.810000000000000000e+02
2.396714736203700458e+00 7.527904845479952201e+01 2.810000000000000000e+02
1.184500292400805677e+00 7.600742757465101818e+01 2.810000000000000000e+02
-2.771415140208954853e-02 7.673580669450251435e+01 2.810000000000000000e+02
1.064029818084826573e+01 7.115069139766626449e+01 2.820000000000000000e+02
9.428083737045369617e+00 7.187907051751774645e+01 2.820000000000000000e+02
8.215869293242475280e+00 7.260744963736924262e+01 2.820000000000000000e+02
7.003654849439580055e+00 7.333582875722073879e+01 2.820000000000000000e+02
5.791440405636684829e+00 7.406420787707223496e+01 2.820000000000000000e+02
4.579225961833790493e+00 7.479258699692373114e+01 2.820000000000000000e+02
3.367011518030895267e+00 7.552096611677522731e+01 2.820000000000000000e+02
2.154797074228000042e+00 7.624934523662672348e+01 2.820000000000000000e+02
9.425826304251057053e-01 7.697772435647821965e+01 2.820000000000000000e+02
-2.696318133777895198e-01 7.770610347632971582e+01 2.820000000000000000e+02
1.088221584282396392e+01 7.018039461583906302e+01 2.830000000000000000e+02
9.670001399021071364e+00 7.090877373569055919e+01 2.830000000000000000e+02
8.457786955218175251e+00 7.163715285554205536e+01 2.830000000000000000e+02
7.245572511415280026e+00 7.236553197539355153e+01 2.830000000000000000e+02
6.033358067612384801e+00 7.309391109524504770e+01 2.830000000000000000e+02
4.821143623809490464e+00 7.382229021509652966e+01 2.830000000000000000e+02
3.608929180006595239e+00 7.455066933494802583e+01 2.830000000000000000e+02
2.396714736203700458e+00 7.527904845479952201e+01 2.830000000000000000e+02
1.184500292400805677e+00 7.600742757465101818e+01 2.830000000000000000e+02
-2.771415140208954853e-02 7.673580669450251435e+01 2.830000000000000000e+02
-1.239928595204984774e+00 7.746418581435401052e+01 2.830000000000000000e+02
1.088221584282396392e+01 7.018039461583906302e+01 2.840000000000000000e+02
9.670001399021071364e+00 7.090877373569055919e+01 2.840000000000000000e+02
8.457786955218175251e+00 7.163715285554205536e+01 2.840000000000000000e+02
7.245572511415280026e+00 7.236553197539355153e+01 2.840000000000000000e+02
6.033358067612384801e+00 7.309391109524504770e+01 2.840000000000000000e+02
4.821143623809490464e+00 7.382229021509652966e+01 2.840000000000000000e+02
3.608929180006595239e+00 7.455066933494802583e+01 2.840000000000000000e+02
2.396714736203700458e+00 7.527904845479952201e+01 2.840000000000000000e+02
1.184500292400805677e+00 7.600742757465101818e+01 2.840000000000000000e+02
-2.771415140208954853e-02 7.673580669450251435e+01 2.840000000000000000e+02
1.088221584282396392e+01 7.018039461583906302e+01 2.850000000000000000e+02
9.670001399021071364e+00 7.090877373569055919e+01 2.850000000000000000e+02
8.457786955218175251e+00 7.163715285554205536e+01 2.850000000000000000e+02
7.245572511415280026e+00 7.236553197539355153e+01 2.850000000000000000e+02
6.033358067612384801e+00 7.309391109524504770e+01 2.850000000000000000e+02
4.821143623809490464e+00 7.382229021509652966e+01 2.850000000000000000e+02
3.608929180006595239e+00 7.455066933494802583e+01 2.850000000000000000e+02
2.396714736203700458e+00 7.527904845479952201e+01 2.850000000000000000e+02
1.184500292400805677e+00 7.600742757465101818e+01 2.850000000000000000e+02
-2.771415140208954853e-02 7.673580669450251435e+01 2.850000000000000000e+02
1.088221584282396392e+01 7.018039461583906302e+01 2.860000000000000000e+02
9.670001399021071364e+00 7.090877373569055919e+01 2.860000000000000000e+02
8.457786955218175251e+00 7.163715285554205536e+01 2.860000000000000000e+02
7.245572511415280026e+00 7.236553197539355153e+01 2.860000000000000000e+02
6.033358067612384801e+00 7.309391109524504770e+01 2.860000000000000000e+02
4.821143623809490464e+00 7.382229021509652966e+01 2.860000000000000000e+02
3.608929180006595239e+00 7.455066933494802583e+01 2.860000000000000000e+02
2.396714736203700458e+00 7.527904845479952201e+01 2.860000000000000000e+02
1.184500292400805677e+00 7.600742757465101818e+01 2.860000000000000000e+02
-2.771415140208954853e-02 7.673580669450251435e+01 2.860000000000000000e+02
-1.239928595204984774e+00 7.746418581435401052e+01 2.860000000000000000e+02
1.088221584282396392e+01 7.018039461583906302e+01 2.870000000000000000e+02
9.670001399021071364e+00 7.090877373569055919e+01 2.870000000000000000e+02
8.457786955218175251e+00 7.163715285554205536e+01 2.870000000000000000e+02
7.245572511415280026e+00 7.236553197539355153e+01 2.870000000000000000e+02
6.033358067612384801e+00 7.309391109524504770e+01 2.870000000000000000e+02
4.821143623809490464e+00 7.382229021509652966e+01 2.870000000000000000e+02
3.608929180006595239e+00 7.455066933494802583e+01 2.870000000000000000e+02
2.396714736203700458e+00 7.527904845479952201e+01 2.870000000000000000e+02
1.184500292400805677e+00 7.600742757465101818e+01 2.870000000000000000e+02
-2.771415140208954853e-02 7.673580669450251435e+01 2.870000000000000000e+02
-1.239928595204984774e+00 7.746418581435401052e+01 2.870000000000000000e+02
1.088221584282396392e+01 7.018039461583906302e+01 2.880000000000000000e+02
9.670001399021071364e+00 7.090877373569055919e+01 2.880000000000000000e+02
8.457786955218175251e+00 7.163715285554205536e+01 2.880000000000000000e+02
7.245572511415280026e+00 7.236553197539355153e+01 2.880000000000000000e+02
6.033358067612384801e+00 7.309391109524504770e+01 2.880000000000000000e+02
4.821143623809490464e+00 7.382229021509652966e+01 2.880000000000000000e+02
3.608929180006595239e+00 7.455066933494802583e+01 2.880000000000000000e+02
2.396714736203700458e+00 7.527904845479952201e+01 2.880000000000000000e+02
1.184500292400805677e+00 7.600742757465101818e+01 2.880000000000000000e+02
-2.771415140208954853e-02 7.673580669450251435e+01 2.880000000000000000e+02
1.088221584282396392e+01 7.018039461583906302e+01 2.890000000000000000e+02
9.670001399021071364e+00 7.090877373569055919e+01 2.890000000000000000e+02
8.457786955218175251e+00 7.163715285554205536e+01 2.890000000000000000e+02
7.245572511415280026e+00 7.236553197539355153e+01 2.890000000000000000e+02
6.033358067612384801e+00 7.309391109524504770e+01 2.890000000000000000e+02
4.821143623809490464e+00 7.382229021509652966e+01 2.890000000000000000e+02
3.608929180006595239e+00 7.455066933494802583e+01 2.890000000000000000e+02
2.396714736203700458e+00 7.527904845479952201e+01 2.890000000000000000e+02
1.184500292400805677e+00 7.600742757465101818e+01 2.890000000000000000e+02
-2.771415140208954853e-02 7.673580669450251435e+01 2.890000000000000000e+02
1.088221584282396392e+01 7.018039461583906302e+01 2.900000000000000000e+02
9.670001399021071364e+00 7.090877373569055919e+01 2.900000000000000000e+02
8.457786955218175251e+00 7.163715285554205536e+01 2.900000000000000000e+02
7.245572511415280026e+00 7.236553197539355153e+01 2.900000000000000000e+02
6.033358067612384801e+00 7.309391109524504770e+01 2.900000000000000000e+02
4.821143623809490464e+00 7.382229021509652966e+01 2.900000000000000000e+02
3.608929180006595239e+00 7.455066933494802583e+01 2.900000000000000000e+02
2.396714736203700458e+00 7.527904845479952201e+01 2.900000000000000000e+02
1.184500292400805677e+00 7.600742757465101818e+01 2.900000000000000000e+02
-2.771415140208954853e-02 7.673580669450251435e+01 2.900000000000000000e+02
1.088221584282396392e+01 7.018039461583906302e+01 2.910000000000000000e+02
9.670001399021071364e+00 7.090877373569055919e+01 2.910000000000000000e+02
8.457786955218175251e+00 7.163715285554205536e+01 2.910000000000000000e+02
7.245572511415280026e+00 7.236553197539355153e+01 2.910000000000000000e+02
6.033358067612384801e+00 7.309391109524504770e+01 2.910000000000000000e+02
4.821143623809490464e+00 7.382229021509652966e+01 2.910000000000000000e+02
3.608929180006595239e+00 7.455066933494802583e+01 2.910000000000000000e+02
2.396714736203700458e+00 7.527904845479952201e+01 2.910000000000000000e+02
1.184500292400805677e+00 7.600742757465101818e+01 2.910000000000000000e+02
-2.771415140208954853e-02 7.673580669450251435e+01 2.910000000000000000e+02
1.088221584282396392e+01 7.018039461583906302e+01 2.920000000000000000e+02
9.670001399021071364e+00 7.090877373569055919e+01 2.920000000000000000e+02
8.457786955218175251e+00 7.163715285554205536e+01 2.920000000000000000e+02
7.245572511415280026e+00 7.236553197539355153e+01 2.920000000000000000e+02
6.033358067612384801e+00 7.309391109524504770e+01 2.920000000000000000e+02
4.821143623809490464e+00 7.382229021509652966e+01 2.920000000000000000e+02
3.608929180006595239e+00 7.455066933494802583e+01 2.920000000000000000e+02
2.396714736203700458e+00 7.527904845479952201e+01 2.920000000000000000e+02
1.184500292400805677e+00 7.600742757465101818e+01 2.920000000000000000e+02
-2.771415140208954853e-02 7.673580669450251435e+01 2.920000000000000000e+02
1.064029818084826573e+01 7.115069139766626449e+01 2.930000000000000000e+02
9.428083737045369617e+00 7.187907051751774645e+01 2.930000000000000000e+02
8.215869293242475280e+00 7.260744963736924262e+01 2.930000000000000000e+02
7.003654849439580055e+00 7.333582875722073879e+01 2.930000000000000000e+02
5.791440405636684829e+00 7.406420787707223496e+01 2.930000000000000000e+02
4.579225961833790493e+00 7.479258699692373114e+01 2.930000000000000000e+02
3.367011518030895267e+00 7.552096611677522731e+01 2.930000000000000000e+02
2.154797074228000042e+00 7.624934523662672348e+01 2.930000000000000000e+02
9.425826304251057053e-01 7.697772435647821965e+01 2.930000000000000000e+02
1.088221584282396392e+01 7.018039461583906302e+01 2.940000000000000000e+02
9.670001399021071364e+00 7.090877373569055919e+01 2.940000000000000000e+02
8.457786955218175251e+00 7.163715285554205536e+01 2.940000000000000000e+02
7.245572511415280026e+00 7.236553197539355153e+01 2.940000000000000000e+02
6.033358067612384801e+00 7.309391109524504770e+01 2.940000000000000000e+02
4.821143623809490464e+00 7.382229021509652966e+01 2.940000000000000000e+02
3.608929180006595239e+00 7.455066933494802583e+01 2.940000000000000000e+02
2.396714736203700458e+00 7.527904845479952201e+01 2.940000000000000000e+02
1.184500292400805677e+00 7.600742757465101818e+01 2.940000000000000000e+02
-2.771415140208954853e-02 7.673580669450251435e+01 2.940000000000000000e+02
-1.239928595204984774e+00 7.746418581435401052e+01 2.940000000000000000e+02
1.088221584282396392e+01 7.018039461583906302e+01 2.950000000000000000e+02
9.670001399021071364e+00 7.090877373569055919e+01 2.950000000000000000e+02
8.457786955218175251e+00 7.163715285554205536e+01 2.950000000000000000e+02
7.245572511415280026e+00 7.236553197539355153e+01 2.950000000000000000e+02
6.033358067612384801e+00 7.309391109524504770e+01 2.950000000000000000e+02
4.821143623809490464e+00 7.382229021509652966e+01 2.950000000000000000e+02
3.608929180006595239e+00 7.455066933494802583e+01 2.950000000000000000e+02
2.396714736203700458e+00 7.527904845479952201e+01 2.950000000000000000e+02
1.184500292400805677e+00 7.600742757465101818e+01 2.950000000000000000e+02
-2.771415140208954853e-02 7.673580669450251435e+01 2.950000000000000000e+02
-1.239928595204984774e+00 7.746418581435401052e+01 2.950000000000000000e+02
1.088221584282396392e+01 7.018039461583906302e+01 2.960000000000000000e+02
9.670001399021071364e+00 7.090877373569055919e+01 2.960000000000000000e+02
8.457786955218175251e+00 7.163715285554205536e+01 2.960000000000000000e+02
7.245572511415280026e+00 7.236553197539355153e+01 2.960000000000000000e+02
6.033358067612384801e+00 7.309391109524504770e+01 2.960000000000000000e+02
4.821143623809490464e+00 7.382229021509652966e+01 2.960000000000000000e+02
3.608929180006595239e+00 7.455066933494802583e+01 2.960000000000000000e+02
2.396714736203700458e+00 7.527904845479952201e+01 2.960000000000000000e+02
1.184500292400805677e+00 7.600742757465101818e+01 2.960000000000000000e+02
-2.771415140208954853e-02 7.673580669450251435e+01 2.960000000000000000e+02
1.088221584282396392e+01 7.018039461583906302e+01 2.970000000000000000e+02
9.670001399021071364e+00 7.090877373569055919e+01 2.970000000000000000e+02
8.457786955218175251e+00 7.163715285554205536e+01 2.970000000000000000e+02
7.245572511415280026e+00 7.236553197539355153e+01 2.970000000000000000e+02
6.033358067612384801e+00 7.309391109524504770e+01 2.970000000000000000e+02
4.821143623809490464e+00 7.382229021509652966e+01 2.970000000000000000e+02
3.608929180006595239e+00 7.455066933494802583e+01 2.970000000000000000e+02
2.396714736203700458e+00 7.527904845479952201e+01 2.970000000000000000e+02
1.184500292400805677e+00 7.600742757465101818e+01 2.970000000000000000e+02
-2.771415140208954853e-02 7.673580669450251435e+01 2.970000000000000000e+02
1.088221584282396392e+01 7.018039461583906302e+01 2.980000000000000000e+02
9.670001399021071364e+00 7.090877373569055919e+01 2.980000000000000000e+02
8.457786955218175251e+00 7.163715285554205536e+01 2.980000000000000000e+02
7.245572511415280026e+00 7.236553197539355153e+01 2.980000000000000000e+02
6.033358067612384801e+00 7.309391109524504770e+01 2.980000000000000000e+02
4.821143623809490464e+00 7.382229021509652966e+01 2.980000000000000000e+02
3.608929180006595239e+00 7.455066933494802583e+01 2.980000000000000000e+02
2.396714736203700458e+00 7.527904845479952201e+01 2.980000000000000000e+02
1.184500292400805677e+00 7.600742757465101818e+01 2.980000000000000000e+02
-2.771415140208954853e-02 7.673580669450251435e+01 2.980000000000000000e+02
1.064029818084826573e+01 7.115069139766626449e+01 2.990000000000000000e+02
