6.559846977677380453e-01 -1.300488099228768624e+00 3.320000000000000000e+02
1.424937794058841245e+00 -2.487379474083403430e+00 3.320000000000000000e+02
2.193890890349944556e+00 -3.674270848938037570e+00 3.320000000000000000e+02
-3.188780783687779952e+00 4.633968775044404964e+00 3.330000000000000000e+02
-2.419827687396676197e+00 3.447077400189769936e+00 3.330000000000000000e+02
-1.650874591105572886e+00 2.260186025335134907e+00 3.330000000000000000e+02
-8.819214948144692423e-01 1.073294650480500545e+00 3.330000000000000000e+02
-1.129683985233658206e-01 -1.135967243741340948e-01 3.330000000000000000e+02
6.559846977677380453e-01 -1.300488099228768624e+00 3.330000000000000000e+02
1.424937794058841245e+00 -2.487379474083403430e+00 3.330000000000000000e+02
2.193890890349944556e+00 -3.674270848938037570e+00 3.330000000000000000e+02
-3.188780783687779952e+00 4.633968775044404964e+00 3.340000000000000000e+02
-2.419827687396676197e+00 3.447077400189769936e+00 3.340000000000000000e+02
-1.650874591105572886e+00 2.260186025335134907e+00 3.340000000000000000e+02
-8.819214948144692423e-01 1.073294650480500545e+00 3.340000000000000000e+02
-1.129683985233658206e-01 -1.135967243741340948e-01 3.340000000000000000e+02
6.559846977677380453e-01 -1.300488099228768624e+00 3.340000000000000000e+02
1.424937794058841245e+00 -2.487379474083403430e+00 3.340000000000000000e+02
2.193890890349944556e+00 -3.674270848938037570e+00 3.340000000000000000e+02
-3.188780783687779952e+00 4.633968775044404964e+00 3.350000000000000000e+02
-2.419827687396676197e+00 3.447077400189769936e+00 3.350000000000000000e+02
-1.650874591105572886e+00 2.260186025335134907e+00 3.350000000000000000e+02
-8.819214948144692423e-01 1.073294650480500545e+00 3.350000000000000000e+02
-1.129683985233658206e-01 -1.135967243741340948e-01 3.350000000000000000e+02
6.559846977677380453e-01 -1.300488099228768624e+00 3.350000000000000000e+02
1.424937794058841245e+00 -2.487379474083403430e+00 3.350000000000000000e+02
2.193890890349944556e+00 -3.674270848938037570e+00 3.350000000000000000e+02
-2.979811644406014537e+00 5.611891010617273245e+00 3.360000000000000000e+02
-2.210858548114910782e+00 4.424999635762639549e+00 3.360000000000000000e+02
-1.441905451823807249e+00 3.238108260908004077e+00 3.360000000000000000e+02
-6.729523555327037165e-01 2.051216886053369493e+00 3.360000000000000000e+02
9.600074075839970522e-02 8.643255111987349082e-01 3.360000000000000000e+02
8.649538370495034600e-01 -3.225658636558996206e-01 3.360000000000000000e+02
1.633906933340607104e+00 -1.509457238510534260e+00 3.360000000000000000e+02
2.402860029631710415e+00 -2.696348613365168845e+00 3.360000000000000000e+02
3.171813125922813281e+00 -3.883239988219803873e+00 3.360000000000000000e+02
-3.188780783687779952e+00 4.633968775044404964e+00 3.370000000000000000e+02
-2.419827687396676197e+00 3.447077400189769936e+00 3.370000000000000000e+02
-1.650874591105572886e+00 2.260186025335134907e+00 3.370000000000000000e+02
-8.819214948144692423e-01 1.073294650480500545e+00 3.370000000000000000e+02
-1.129683985233658206e-01 -1.135967243741340948e-01 3.370000000000000000e+02
6.559846977677380453e-01 -1.300488099228768624e+00 3.370000000000000000e+02
1.424937794058841245e+00 -2.487379474083403430e+00 3.370000000000000000e+02
2.193890890349944556e+00 -3.674270848938037570e+00 3.370000000000000000e+02
-3.188780783687779952e+00 4.633968775044404964e+00 3.380000000000000000e+02
-2.419827687396676197e+00 3.447077400189769936e+00 3.380000000000000000e+02
-1.650874591105572886e+00 2.260186025335134907e+00 3.380000000000000000e+02
-8.819214948144692423e-01 1.073294650480500545e+00 3.380000000000000000e+02
-1.129683985233658206e-01 -1.135967243741340948e-01 3.380000000000000000e+02
6.559846977677380453e-01 -1.300488099228768624e+00 3.380000000000000000e+02
1.424937794058841245e+00 -2.487379474083403430e+00 3.380000000000000000e+02
2.193890890349944556e+00 -3.674270848938037570e+00 3.380000000000000000e+02
-3.188780783687779952e+00 4.633968775044404964e+00 3.390000000000000000e+02
-2.419827687396676197e+00 3.447077400189769936e+00 3.390000000000000000e+02
-1.650874591105572886e+00 2.260186025335134907e+00 3.390000000000000000e+02
-8.819214948144692423e-01 1.073294650480500545e+00 3.390000000000000000e+02
-1.129683985233658206e-01 -1.135967243741340948e-01 3.390000000000000000e+02
6.559846977677380453e-01 -1.300488099228768624e+00 3.390000000000000000e+02
1.424937794058841245e+00 -2.487379474083403430e+00 3.390000000000000000e+02
2.193890890349944556e+00 -3.674270848938037570e+00 3.390000000000000000e+02
-3.188780783687779952e+00 4.633968775044404964e+00 3.400000000000000000e+02
-2.419827687396676197e+00 3.447077400189769936e+00 3.400000000000000000e+02
-1.650874591105572886e+00 2.260186025335134907e+00 3.400000000000000000e+02
-8.819214948144692423e-01 1.073294650480500545e+00 3.400000000000000000e+02
-1.129683985233658206e-01 -1.135967243741340948e-01 3.400000000000000000e+02
6.559846977677380453e-01 -1.300488099228768624e+00 3.400000000000000000e+02
1.424937794058841245e+00 -2.487379474083403430e+00 3.400000000000000000e+02
2.193890890349944556e+00 -3.674270848938037570e+00 3.400000000000000000e+02
-3.188780783687779952e+00 4.633968775044404964e+00 3.410000000000000000e+02
-2.419827687396676197e+00 3.447077400189769936e+00 3.410000000000000000e+02
-1.650874591105572886e+00 2.260186025335134907e+00 3.410000000000000000e+02
-8.819214948144692423e-01 1.073294650480500545e+00 3.410000000000000000e+02
-1.129683985233658206e-01 -1.135967243741340948e-01 3.410000000000000000e+02
6.559846977677380453e-01 -1.300488099228768624e+00 3.410000000000000000e+02
1.424937794058841245e+00 -2.487379474083403430e+00 3.410000000000000000e+02
2.193890890349944556e+00 -3.674270848938037570e+00 3.410000000000000000e+02
-3.188780783687779952e+00 4.633968775044404964e+00 3.420000000000000000e+02
-2.419827687396676197e+00 3.447077400189769936e+00 3.420000000000000000e+02
-1.650874591105572886e+00 2.260186025335134907e+00 3.420000000000000000e+02
-8.819214948144692423e-01 1.073294650480500545e+00 3.420000000000000000e+02
-1.129683985233658206e-01 -1.135967243741340948e-01 3.420000000000000000e+02
6.559846977677380453e-01 -1.300488099228768624e+00 3.420000000000000000e+02
1.424937794058841245e+00 -2.487379474083403430e+00 3.420000000000000000e+02
2.193890890349944556e+00 -3.674270848938037570e+00 3.420000000000000000e+02
-3.188780783687779952e+00 4.633968775044404964e+00 3.430000000000000000e+02
-2.419827687396676197e+00 3.447077400189769936e+00 3.430000000000000000e+02
-1.650874591105572886e+00 2.260186025335134907e+00 3.430000000000000000e+02
-8.819214948144692423e-01 1.073294650480500545e+00 3.430000000000000000e+02
-1.129683985233658206e-01 -1.135967243741340948e-01 3.430000000000000000e+02
6.559846977677380453e-01 -1.300488099228768624e+00 3.430000000000000000e+02
1.424937794058841245e+00 -2.487379474083403430e+00 3.430000000000000000e+02
2.193890890349944556e+00 -3.674270848938037570e+00 3.430000000000000000e+02
-3.188780783687779952e+00 4.633968775044404964e+00 3.440000000000000000e+02
-2.419827687396676197e+00 3.447077400189769936e+00 3.440000000000000000e+02
-1.650874591105572886e+00 2.260186025335134907e+00 3.440000000000000000e+02
-8.819214948144692423e-01 1.073294650480500545e+00 3.440000000000000000e+02
-1.129683985233658206e-01 -1.135967243741340948e-01 3.440000000000000000e+02
6.559846977677380453e-01 -1.300488099228768624e+00 3.440000000000000000e+02
1.424937794058841245e+00 -2.487379474083403430e+00 3.440000000000000000e+02
2.193890890349944556e+00 -3.674270848938037570e+00 3.440000000000000000e+02
-3.188780783687779952e+00 4.633968775044404964e+00 3.450000000000000000e+02
-2.419827687396676197e+00 3.447077400189769936e+00 3.450000000000000000e+02
-1.650874591105572886e+00 2.260186025335134907e+00 3.450000000000000000e+02
-8.819214948144692423e-01 1.073294650480500545e+00 3.450000000000000000e+02
-1.129683985233658206e-01 -1.135967243741340948e-01 3.450000000000000000e+02
6.559846977677380453e-01 -1.300488099228768624e+00 3.450000000000000000e+02
1.424937794058841245e+00 -2.487379474083403430e+00 3.450000000000000000e+02
2.193890890349944556e+00 -3.674270848938037570e+00 3.450000000000000000e+02
-3.188780783687779952e+00 4.633968775044404964e+00 3.460000000000000000e+02
-2.419827687396676197e+00 3.447077400189769936e+00 3.460000000000000000e+02
-1.650874591105572886e+00 2.260186025335134907e+00 3.460000000000000000e+02
-8.819214948144692423e-01 1.073294650480500545e+00 3.460000000000000000e+02
-1.129683985233658206e-01 -1.135967243741340948e-01 3.460000000000000000e+02
6.559846977677380453e-01 -1.300488099228768624e+00 3.460000000000000000e+02
1.424937794058841245e+00 -2.487379474083403430e+00 3.460000000000000000e+02
2.193890890349944556e+00 -3.674270848938037570e+00 3.460000000000000000e+02
-3.188780783687779952e+00 4.633968775044404964e+00 3.470000000000000000e+02
-2.419827687396676197e+00 3.447077400189769936e+00 3.470000000000000000e+02
-1.650874591105572886e+00 2.260186025335134907e+00 3.470000000000000000e+02
-8.819214948144692423e-01 1.073294650480500545e+00 3.470000000000000000e+02
-1.129683985233658206e-01 -1.135967243741340948e-01 3.470000000000000000e+02
6.559846977677380453e-01 -1.300488099228768624e+00 3.470000000000000000e+02
1.424937794058841245e+00 -2.487379474083403430e+00 3.470000000000000000e+02
2.193890890349944556e+00 -3.674270848938037570e+00 3.470000000000000000e+02
-3.188780783687779952e+00 4.633968775044404964e+00 3.480000000000000000e+02
-2.419827687396676197e+00 3.447077400189769936e+00 3.480000000000000000e+02
-1.650874591105572886e+00 2.260186025335134907e+00 3.480000000000000000e+02
-8.819214948144692423e-01 1.073294650480500545e+00 3.480000000000000000e+02
-1.129683985233658206e-01 -1.135967243741340948e-01 3.480000000000000000e+02
6.559846977677380453e-01 -1.300488099228768624e+00 3.480000000000000000e+02
1.424937794058841245e+00 -2.487379474083403430e+00 3.480000000000000000e+02
2.193890890349944556e+00 -3.674270848938037570e+00 3.480000000000000000e+02
-3.188780783687779952e+00 4.633968775044404964e+00 3.490000000000000000e+02
-2.419827687396676197e+00 3.447077400189769936e+00 3.490000000000000000e+02
-1.650874591105572886e+00 2.260186025335134907e+00 3.490000000000000000e+02
-8.819214948144692423e-01 1.073294650480500545e+00 3.490000000000000000e+02
-1.129683985233658206e-01 -1.135967243741340948e-01 3.490000000000000000e+02
6.559846977677380453e-01 -1.300488099228768624e+00 3.490000000000000000e+02
1.424937794058841245e+00 -2.487379474083403430e+00 3.490000000000000000e+02
2.193890890349944556e+00 -3.674270848938037570e+00 3.490000000000000000e+02
-3.188780783687779952e+00 4.633968775044404964e+00 3.500000000000000000e+02
-2.419827687396676197e+00 3.447077400189769936e+00 3.500000000000000000e+02
-1.650874591105572886e+00 2.260186025335134907e+00 3.500000000000000000e+02
-8.819214948144692423e-01 1.073294650480500545e+00 3.500000000000000000e+02
-1.129683985233658206e-01 -1.135967243741340948e-01 3.500000000000000000e+02
6.559846977677380453e-01 -1.300488099228768624e+00 3.500000000000000000e+02
1.424937794058841245e+00 -2.487379474083403430e+00 3.500000000000000000e+02
2.193890890349944556e+00 -3.674270848938037570e+00 3.500000000000000000e+02
-3.188780783687779952e+00 4.633968775044404964e+00 3.510000000000000000e+02
-2.419827687396676197e+00 3.447077400189769936e+00 3.510000000000000000e+02
-1.650874591105572886e+00 2.260186025335134907e+00 3.510000000000000000e+02
-8.819214948144692423e-01 1.073294650480500545e+00 3.510000000000000000e+02
-1.129683985233658206e-01 -1.135967243741340948e-01 3.510000000000000000e+02
6.559846977677380453e-01 -1.300488099228768624e+00 3.510000000000000000e+02
1.424937794058841245e+00 -2.487379474083403430e+00 3.510000000000000000e+02
2.193890890349944556e+00 -3.674270848938037570e+00 3.510000000000000000e+02
-3.188780783687779952e+00 4.633968775044404964e+00 3.520000000000000000e+02
-2.419827687396676197e+00 3.447077400189769936e+00 3.520000000000000000e+02
-1.650874591105572886e+00 2.260186025335134907e+00 3.520000000000000000e+02
-8.819214948144692423e-01 1.073294650480500545e+00 3.520000000000000000e+02
-1.129683985233658206e-01 -1.135967243741340948e-01 3.520000000000000000e+02
6.559846977677380453e-01 -1.300488099228768624e+00 3.520000000000000000e+02
1.424937794058841245e+00 -2.487379474083403430e+00 3.520000000000000000e+02
2.193890890349944556e+00 -3.674270848938037570e+00 3.520000000000000000e+02
-3.188780783687779952e+00 4.633968775044404964e+00 3.530000000000000000e+02
-2.419827687396676197e+00 3.447077400189769936e+00 3.530000000000000000e+02
-1.650874591105572886e+00 2.260186025335134907e+00 3.530000000000000000e+02
-8.819214948144692423e-01 1.073294650480500545e+00 3.530000000000000000e+02
-1.129683985233658206e-01 -1.135967243741340948e-01 3.530000000000000000e+02
6.559846977677380453e-01 -1.300488099228768624e+00 3.530000000000000000e+02
1.424937794058841245e+00 -2.487379474083403430e+00 3.530000000000000000e+02
2.193890890349944556e+00 -3.674270848938037570e+00 3.530000000000000000e+02
-3.188780783687779952e+00 4.633968775044404964e+00 3.540000000000000000e+02
-2.419827687396676197e+00 3.447077400189769936e+00 3.540000000000000000e+02
-1.650874591105572886e+00 2.260186025335134907e+00 3.540000000000000000e+02
-8.819214948144692423e-01 1.073294650480500545e+00 3.540000000000000000e+02
-1.129683985233658206e-01 -1.135967243741340948e-01 3.540000000000000000e+02
6.559846977677380453e-01 -1.300488099228768624e+00 3.540000000000000000e+02
1.424937794058841245e+00 -2.487379474083403430e+00 3.540000000000000000e+02
2.193890890349944556e+00 -3.674270848938037570e+00 3.540000000000000000e+02
-3.188780783687779952e+00 4.633968775044404964e+00 3.550000000000000000e+02
-2.419827687396676197e+00 3.447077400189769936e+00 3.550000000000000000e+02
-1.650874591105572886e+00 2.260186025335134907e+00 3.550000000000000000e+02
-8.819214948144692423e-01 1.073294650480500545e+00 3.550000000000000000e+02
-1.129683985233658206e-01 -1.135967243741340948e-01 3.550000000000000000e+02
6.559846977677380453e-01 -1.300488099228768624e+00 3.550000000000000000e+02
1.424937794058841245e+00 -2.487379474083403430e+00 3.550000000000000000e+02
2.193890890349944556e+00 -3.674270848938037570e+00 3.550000000000000000e+02
-3.188780783687779952e+00 4.633968775044404964e+00 3.560000000000000000e+02
-2.419827687396676197e+00 3.447077400189769936e+00 3.560000000000000000e+02
-1.650874591105572886e+00 2.260186025335134907e+00 3.560000000000000000e+02
-8.819214948144692423e-01 1.073294650480500545e+00 3.560000000000000000e+02
-1.129683985233658206e-01 -1.135967243741340948e-01 3.560000000000000000e+02
6.559846977677380453e-01 -1.300488099228768624e+00 3.560000000000000000e+02
1.424937794058841245e+00 -2.487379474083403430e+00 3.560000000000000000e+02
2.193890890349944556e+00 -3.674270848938037570e+00 3.560000000000000000e+02
-3.188780783687779952e+00 4.633968775044404964e+00 3.570000000000000000e+02
-2.419827687396676197e+00 3.447077400189769936e+00 3.570000000000000000e+02
-1.650874591105572886e+00 2.260186025335134907e+00 3.570000000000000000e+02
-8.819214948144692423e-01 1.073294650480500545e+00 3.570000000000000000e+02
-1.129683985233658206e-01 -1.135967243741340948e-01 3.570000000000000000e+02
6.559846977677380453e-01 -1.300488099228768624e+00 3.570000000000000000e+02
1.424937794058841245e+00 -2.487379474083403430e+00 3.570000000000000000e+02
2.193890890349944556e+00 -3.674270848938037570e+00 3.570000000000000000e+02
-3.188780783687779952e+00 4.633968775044404964e+00 3.580000000000000000e+02
-2.419827687396676197e+00 3.447077400189769936e+00 3.580000000000000000e+02
-1.650874591105572886e+00 2.260186025335134907e+00 3.580000000000000000e+02
-8.819214948144692423e-01 1.073294650480500545e+00 3.580000000000000000e+02
-1.129683985233658206e-01 -1.135967243741340948e-01 3.580000000000000000e+02
6.559846977677380453e-01 -1.300488099228768624e+00 3.580000000000000000e+02
1.424937794058841245e+00 -2.487379474083403430e+00 3.580000000000000000e+02
2.193890890349944556e+00 -3.674270848938037570e+00 3.580000000000000000e+02
-3.188780783687779952e+00 4.633968775044404964e+00 3.590000000000000000e+02
-2.419827687396676197e+00 3.447077400189769936e+00 3.590000000000000000e+02
-1.650874591105572886e+00 2.260186025335134907e+00 3.590000000000000000e+02
-8.819214948144692423e-01 1.073294650480500545e+00 3.590000000000000000e+02
-1.129683985233658206e-01 -1.135967243741340948e-01 3.590000000000000000e+02
6.559846977677380453e-01 -1.300488099228768624e+00 3.590000000000000000e+02
1.424937794058841245e+00 -2.487379474083403430e+00 3.590000000000000000e+02
2.193890890349944556e+00 -3.674270848938037570e+00 3.590000000000000000e+02
-3.397749922969545366e+00 3.656046539471535350e+00 3.600000000000000000e+02
-2.628796826678441612e+00 2.469155164616900766e+00 3.600000000000000000e+02
-1.859843730387338301e+00 1.282263789762265960e+00 3.600000000000000000e+02
-1.090890634096234768e+00 9.537241490763143092e-02 3.600000000000000000e+02
-3.219375378051312908e-01 -1.091518959947002987e+00 3.600000000000000000e+02
4.470155584859724085e-01 -2.278410334801637571e+00 3.600000000000000000e+02
1.215968654777075830e+00 -3.465301709656272600e+00 3.600000000000000000e+02
-3.397749922969545366e+00 3.656046539471535350e+00 3.610000000000000000e+02
-2.628796826678441612e+00 2.469155164616900766e+00 3.610000000000000000e+02
-1.859843730387338301e+00 1.282263789762265960e+00 3.610000000000000000e+02
-1.090890634096234768e+00 9.537241490763143092e-02 3.610000000000000000e+02
-3.219375378051312908e-01 -1.091518959947002987e+00 3.610000000000000000e+02
4.470155584859724085e-01 -2.278410334801637571e+00 3.610000000000000000e+02
1.215968654777075830e+00 -3.465301709656272600e+00 3.610000000000000000e+02
-3.397749922969545366e+00 3.656046539471535350e+00 3.620000000000000000e+02
-2.628796826678441612e+00 2.469155164616900766e+00 3.620000000000000000e+02
-1.859843730387338301e+00 1.282263789762265960e+00 3.620000000000000000e+02
-1.090890634096234768e+00 9.537241490763143092e-02 3.620000000000000000e+02
-3.219375378051312908e-01 -1.091518959947002987e+00 3.620000000000000000e+02
4.470155584859724085e-01 -2.278410334801637571e+00 3.620000000000000000e+02
1.215968654777075830e+00 -3.465301709656272600e+00 3.620000000000000000e+02
-3.397749922969545366e+00 3.656046539471535350e+00 3.630000000000000000e+02
-2.628796826678441612e+00 2.469155164616900766e+00 3.630000000000000000e+02
-1.859843730387338301e+00 1.282263789762265960e+00 3.630000000000000000e+02
-1.090890634096234768e+00 9.537241490763143092e-02 3.630000000000000000e+02
-3.219375378051312908e-01 -1.091518959947002987e+00 3.630000000000000000e+02
4.470155584859724085e-01 -2.278410334801637571e+00 3.630000000000000000e+02
1.215968654777075830e+00 -3.465301709656272600e+00 3.630000000000000000e+02
-3.188780783687779952e+00 4.633968775044404964e+00 3.640000000000000000e+02
-2.419827687396676197e+00 3.447077400189769936e+00 3.640000000000000000e+02
-1.650874591105572886e+00 2.260186025335134907e+00 3.640000000000000000e+02
-8.819214948144692423e-01 1.073294650480500545e+00 3.640000000000000000e+02
-1.129683985233658206e-01 -1.135967243741340948e-01 3.640000000000000000e+02
6.559846977677380453e-01 -1.300488099228768624e+00 3.640000000000000000e+02
1.424937794058841245e+00 -2.487379474083403430e+00 3.640000000000000000e+02
2.193890890349944556e+00 -3.674270848938037570e+00 3.640000000000000000e+02
-3.188780783687779952e+00 4.633968775044404964e+00 3.650000000000000000e+02
-2.419827687396676197e+00 3.447077400189769936e+00 3.650000000000000000e+02
-1.650874591105572886e+00 2.260186025335134907e+00 3.650000000000000000e+02
-8.819214948144692423e-01 1.073294650480500545e+00 3.650000000000000000e+02
-1.129683985233658206e-01 -1.135967243741340948e-01 3.650000000000000000e+02
6.559846977677380453e-01 -1.300488099228768624e+00 3.650000000000000000e+02
1.424937794058841245e+00 -2.487379474083403430e+00 3.650000000000000000e+02
2.193890890349944556e+00 -3.674270848938037570e+00 3.650000000000000000e+02
-3.188780783687779952e+00 4.633968775044404964e+00 3.660000000000000000e+02
-2.419827687396676197e+00 3.447077400189769936e+00 3.660000000000000000e+02
-1.650874591105572886e+00 2.260186025335134907e+00 3.660000000000000000e+02
-8.819214948144692423e-01 1.073294650480500545e+00 3.660000000000000000e+02
-1.129683985233658206e-01 -1.135967243741340948e-01 3.660000000000000000e+02
6.559846977677380453e-01 -1.300488099228768624e+00 3.660000000000000000e+02
1.424937794058841245e+00 -2.487379474083403430e+00 3.660000000000000000e+02
2.193890890349944556e+00 -3.674270848938037570e+00 3.660000000000000000e+02
-3.188780783687779952e+00 4.633968775044404964e+00 3.670000000000000000e+02
-2.419827687396676197e+00 3.447077400189769936e+00 3.670000000000000000e+02
-1.650874591105572886e+00 2.260186025335134907e+00 3.670000000000000000e+02
-8.819214948144692423e-01 1.073294650480500545e+00 3.670000000000000000e+02
-1.129683985233658206e-01 -1.135967243741340948e-01 3.670000000000000000e+02
6.559846977677380453e-01 -1.300488099228768624e+00 3.670000000000000000e+02
1.424937794058841245e+00 -2.487379474083403430e+00 3.670000000000000000e+02
2.193890890349944556e+00 -3.674270848938037570e+00 3.670000000000000000e+02
-3.188780783687779952e+00 4.633968775044404964e+00 3.680000000000000000e+02
-2.419827687396676197e+00 3.447077400189769936e+00 3.680000000000000000e+02
-1.650874591105572886e+00 2.260186025335134907e+00 3.680000000000000000e+02
-8.819214948144692423e-01 1.073294650480500545e+00 3.680000000000000000e+02
-1.129683985233658206e-01 -1.135967243741340948e-01 3.680000000000000000e+02
6.559846977677380453e-01 -1.300488099228768624e+00 3.680000000000000000e+02
1.424937794058841245e+00 -2.487379474083403430e+00 3.680000000000000000e+02
2.193890890349944556e+00 -3.674270848938037570e+00 3.680000000000000000e+02
-3.188780783687779952e+00 4.633968775044404964e+00 3.690000000000000000e+02
-2.419827687396676197e+00 3.447077400189769936e+00 3.690000000000000000e+02
-1.650874591105572886e+00 2.260186025335134907e+00 3.690000000000000000e+02
-8.819214948144692423e-01 1.073294650480500545e+00 3.690000000000000000e+02
-1.129683985233658206e-01 -1.135967243741340948e-01 3.690000000000000000e+02
6.559846977677380453e-01 -1.300488099228768624e+00 3.690000000000000000e+02
1.424937794058841245e+00 -2.487379474083403430e+00 3.690000000000000000e+02
2.193890890349944556e+00 -3.674270848938037570e+00 3.690000000000000000e+02
-3.188780783687779952e+00 4.633968775044404964e+00 3.700000000000000000e+02
-2.419827687396676197e+00 3.447077400189769936e+00 3.700000000000000000e+02
-1.650874591105572886e+00 2.260186025335134907e+00 3.700000000000000000e+02
-8.819214948144692423e-01 1.073294650480500545e+00 3.700000000000000000e+02
-1.129683985233658206e-01 -1.135967243741340948e-01 3.700000000000000000e+02
6.559846977677380453e-01 -1.300488099228768624e+00 3.700000000000000000e+02
1.424937794058841245e+00 -2.487379474083403430e+00 3.700000000000000000e+02
2.193890890349944556e+00 -3.674270848938037570e+00 3.700000000000000000e+02
-3.188780783687779952e+00 4.633968775044404964e+00 3.710000000000000000e+02
-2.419827687396676197e+00 3.447077400189769936e+00 3.710000000000000000e+02
-1.650874591105572886e+00 2.260186025335134907e+00 3.710000000000000000e+02
-8.819214948144692423e-01 1.073294650480500545e+00 3.710000000000000000e+02
-1.129683985233658206e-01 -1.135967243741340948e-01 3.710000000000000000e+02
6.559846977677380453e-01 -1.300488099228768624e+00 3.710000000000000000e+02
1.424937794058841245e+00 -2.487379474083403430e+00 3.710000000000000000e+02
2.193890890349944556e+00 -3.674270848938037570e+00 3.710000000000000000e+02
-3.188780783687779952e+00 4.633968775044404964e+00 3.720000000000000000e+02
-2.419827687396676197e+00 3.447077400189769936e+00 3.720000000000000000e+02
-1.650874591105572886e+00 2.260186025335134907e+00 3.720000000000000000e+02
-8.819214948144692423e-01 1.073294650480500545e+00 3.720000000000000000e+02
-1.129683985233658206e-01 -1.135967243741340948e-01 3.720000000000000000e+02
6.559846977677380453e-01 -1.300488099228768624e+00 3.720000000000000000e+02
1.424937794058841245e+00 -2.487379474083403430e+00 3.720000000000000000e+02
2.193890890349944556e+00 -3.674270848938037570e+00 3.720000000000000000e+02
-3.188780783687779952e+00 4.633968775044404964e+00 3.730000000000000000e+02
-2.419827687396676197e+00 3.447077400189769936e+00 3.730000000000000000e+02
-1.650874591105572886e+00 2.260186025335134907e+00 3.730000000000000000e+02
-8.819214948144692423e-01 1.073294650480500545e+00 3.730000000000000000e+02
-1.129683985233658206e-01 -1.135967243741340948e-01 3.730000000000000000e+02
6.559846977677380453e-01 -1.300488099228768624e+00 3.730000000000000000e+02
1.424937794058841245e+00 -2.487379474083403430e+00 3.730000000000000000e+02
2.193890890349944556e+00 -3.674270848938037570e+00 3.730000000000000000e+02
-3.188780783687779952e+00 4.633968775044404964e+00 3.740000000000000000e+02
-2.419827687396676197e+00 3.447077400189769936e+00 3.740000000000000000e+02
-1.650874591105572886e+00 2.260186025335134907e+00 3.740000000000000000e+02
-8.819214948144692423e-01 1.073294650480500545e+00 3.740000000000000000e+02
-1.129683985233658206e-01 -1.135967243741340948e-01 3.740000000000000000e+02
6.559846977677380453e-01 -1.300488099228768624e+00 3.740000000000000000e+02
1.424937794058841245e+00 -2.487379474083403430e+00 3.740000000000000000e+02
2.193890890349944556e+00 -3.674270848938037570e+00 3.740000000000000000e+02
-3.397749922969545366e+00 3.656046539471535350e+00 3.750000000000000000e+02
-2.628796826678441612e+00 2.469155164616900766e+00 3.750000000000000000e+02
-1.859843730387338301e+00 1.282263789762265960e+00 3.750000000000000000e+02
-1.090890634096234768e+00 9.537241490763143092e-02 3.750000000000000000e+02
-3.219375378051312908e-01 -1.091518959947002987e+00 3.750000000000000000e+02
4.470155584859724085e-01 -2.278410334801637571e+00 3.750000000000000000e+02
1.215968654777075830e+00 -3.465301709656272600e+00 3.750000000000000000e+02
-3.188780783687779952e+00 4.633968775044404964e+00 3.760000000000000000e+02
-2.419827687396676197e+00 3.447077400189769936e+00 3.760000000000000000e+02
-1.650874591105572886e+00 2.260186025335134907e+00 3.760000000000000000e+02
-8.819214948144692423e-01 1.073294650480500545e+00 3.760000000000000000e+02
-1.129683985233658206e-01 -1.135967243741340948e-01 3.760000000000000000e+02
6.559846977677380453e-01 -1.300488099228768624e+00 3.760000000000000000e+02
1.424937794058841245e+00 -2.487379474083403430e+00 3.760000000000000000e+02
2.193890890349944556e+00 -3.674270848938037570e+00 3.760000000000000000e+02
-3.188780783687779952e+00 4.633968775044404964e+00 3.770000000000000000e+02
-2.419827687396676197e+00 3.447077400189769936e+00 3.770000000000000000e+02
-1.650874591105572886e+00 2.260186025335134907e+00 3.770000000000000000e+02
-8.819214948144692423e-01 1.073294650480500545e+00 3.770000000000000000e+02
-1.129683985233658206e-01 -1.135967243741340948e-01 3.770000000000000000e+02
6.559846977677380453e-01 -1.300488099228768624e+00 3.770000000000000000e+02
1.424937794058841245e+00 -2.487379474083403430e+00 3.770000000000000000e+02
2.193890890349944556e+00 -3.674270848938037570e+00 3.770000000000000000e+02
-3.188780783687779952e+00 4.633968775044404964e+00 3.780000000000000000e+02
-2.419827687396676197e+00 3.447077400189769936e+00 3.780000000000000000e+02
-1.650874591105572886e+00 2.260186025335134907e+00 3.780000000000000000e+02
-8.819214948144692423e-01 1.073294650480500545e+00 3.780000000000000000e+02
-1.129683985233658206e-01 -1.135967243741340948e-01 3.780000000000000000e+02
6.559846977677380453e-01 -1.300488099228768624e+00 3.780000000000000000e+02
1.424937794058841245e+00 -2.487379474083403430e+00 3.780000000000000000e+02
2.193890890349944556e+00 -3.674270848938037570e+00 3.780000000000000000e+02
-3.188780783687779952e+00 4.633968775044404964e+00 3.790000000000000000e+02
-2.419827687396676197e+00 3.447077400189769936e+00 3.790000000000000000e+02
-1.650874591105572886e+00 2.260186025335134907e+00 3.790000000000000000e+02
-8.819214948144692423e-01 1.073294650480500545e+00 3.790000000000000000e+02
-1.129683985233658206e-01 -1.135967243741340948e-01 3.790000000000000000e+02
6.559846977677380453e-01 -1.300488099228768624e+00 3.790000000000000000e+02
1.424937794058841245e+00 -2.487379474083403430e+00 3.790000000000000000e+02
2.193890890349944556e+00 -3.674270848938037570e+00 3.790000000000000000e+02
-3.188780783687779952e+00 4.633968775044404964e+00 3.800000000000000000e+02
-2.419827687396676197e+00 3.447077400189769936e+00 3.800000000000000000e+02
-1.650874591105572886e+00 2.260186025335134907e+00 3.800000000000000000e+02
-8.819214948144692423e-01 1.073294650480500545e+00 3.800000000000000000e+02
-1.129683985233658206e-01 -1.135967243741340948e-01 3.800000000000000000e+02
6.559846977677380453e-01 -1.300488099228768624e+00 3.800000000000000000e+02
1.424937794058841245e+00 -2.487379474083403430e+00 3.800000000000000000e+02
2.193890890349944556e+00 -3.674270848938037570e+00 3.800000000000000000e+02
-3.188780783687779952e+00 4.633968775044404964e+00 3.810000000000000000e+02
-2.419827687396676197e+00 3.447077400189769936e+00 3.810000000000000000e+02
-1.650874591105572886e+00 2.260186025335134907e+00 3.810000000000000000e+02
-8.819214948144692423e-01 1.073294650480500545e+00 3.810000000000000000e+02
-1.129683985233658206e-01 -1.135967243741340948e-01 3.810000000000000000e+02
6.559846977677380453e-01 -1.300488099228768624e+00 3.810000000000000000e+02
1.424937794058841245e+00 -2.487379474083403430e+00 3.810000000000000000e+02
2.193890890349944556e+00 -3.674270848938037570e+00 3.810000000000000000e+02
-3.188780783687779952e+00 4.633968775044404964e+00 3.820000000000000000e+02
-2.419827687396676197e+00 3.447077400189769936e+00 3.820000000000000000e+02
-1.650874591105572886e+00 2.260186025335134907e+00 3.820000000000000000e+02
-8.819214948144692423e-01 1.073294650480500545e+00 3.820000000000000000e+02
-1.129683985233658206e-01 -1.135967243741340948e-01 3.820000000000000000e+02
6.559846977677380453e-01 -1.300488099228768624e+00 3.820000000000000000e+02
1.424937794058841245e+00 -2.487379474083403430e+00 3.820000000000000000e+02
2.193890890349944556e+00 -3.674270848938037570e+00 3.820000000000000000e+02
-3.397749922969545366e+00 3.656046539471535350e+00 3.830000000000000000e+02
-2.628796826678441612e+00 2.469155164616900766e+00 3.830000000000000000e+02
-1.859843730387338301e+00 1.282263789762265960e+00 3.830000000000000000e+02
-1.090890634096234768e+00 9.537241490763143092e-02 3.830000000000000000e+02
-3.219375378051312908e-01 -1.091518959947002987e+00 3.830000000000000000e+02
4.470155584859724085e-01 -2.278410334801637571e+00 3.830000000000000000e+02
1.215968654777075830e+00 -3.465301709656272600e+00 3.830000000000000000e+02
-3.397749922969545366e+00 3.656046539471535350e+00 3.840000000000000000e+02
-2.628796826678441612e+00 2.469155164616900766e+00 3.840000000000000000e+02
-1.859843730387338301e+00 1.282263789762265960e+00 3.840000000000000000e+02
-1.090890634096234768e+00 9.537241490763143092e-02 3.840000000000000000e+02
-3.219375378051312908e-01 -1.091518959947002987e+00 3.840000000000000000e+02
4.470155584859724085e-01 -2.278410334801637571e+00 3.840000000000000000e+02
1.215968654777075830e+00 -3.465301709656272600e+00 3.840000000000000000e+02
-3.188780783687779952e+00 4.633968775044404964e+00 3.850000000000000000e+02
-2.419827687396676197e+00 3.447077400189769936e+00 3.850000000000000000e+02
-1.650874591105572886e+00 2.260186025335134907e+00 3.850000000000000000e+02
-8.819214948144692423e-01 1.073294650480500545e+00 3.850000000000000000e+02
-1.129683985233658206e-01 -1.135967243741340948e-01 3.850000000000000000e+02
6.559846977677380453e-01 -1.300488099228768624e+00 3.850000000000000000e+02
1.424937794058841245e+00 -2.487379474083403430e+00 3.850000000000000000e+02
2.193890890349944556e+00 -3.674270848938037570e+00 3.850000000000000000e+02
-3.188780783687779952e+00 4.633968775044404964e+00 3.860000000000000000e+02
-2.419827687396676197e+00 3.447077400189769936e+00 3.860000000000000000e+02
-1.650874591105572886e+00 2.260186025335134907e+00 3.860000000000000000e+02
-8.819214948144692423e-01 1.073294650480500545e+00 3.860000000000000000e+02
-1.129683985233658206e-01 -1.135967243741340948e-01 3.860000000000000000e+02
6.559846977677380453e-01 -1.300488099228768624e+00 3.860000000000000000e+02
1.424937794058841245e+00 -2.487379474083403430e+00 3.860000000000000000e+02
2.193890890349944556e+00 -3.674270848938037570e+00 3.860000000000000000e+02
-3.188780783687779952e+00 4.633968775044404964e+00 3.870000000000000000e+02
-2.419827687396676197e+00 3.447077400189769936e+00 3.870000000000000000e+02
-1.650874591105572886e+00 2.260186025335134907e+00 3.870000000000000000e+02
-8.819214948144692423e-01 1.073294650480500545e+00 3.870000000000000000e+02
-1.129683985233658206e-01 -1.135967243741340948e-01 3.870000000000000000e+02
6.559846977677380453e-01 -1.300488099228768624e+00 3.870000000000000000e+02
1.424937794058841245e+00 -2.487379474083403430e+00 3.870000000000000000e+02
2.193890890349944556e+00 -3.674270848938037570e+00 3.870000000000000000e+02
-3.397749922969545366e+00 3.656046539471535350e+00 3.880000000000000000e+02
-2.628796826678441612e+00 2.469155164616900766e+00 3.880000000000000000e+02
-1.859843730387338301e+00 1.282263789762265960e+00 3.880000000000000000e+02
-1.090890634096234768e+00 9.537241490763143092e-02 3.880000000000000000e+02
-3.219375378051312908e-01 -1.091518959947002987e+00 3.880000000000000000e+02
4.470155584859724085e-01 -2.278410334801637571e+00 3.880000000000000000e+02
1.215968654777075830e+00 -3.465301709656272600e+00 3.880000000000000000e+02
-3.397749922969545366e+00 3.656046539471535350e+00 3.890000000000000000e+02
-2.628796826678441612e+00 2.469155164616900766e+00 3.890000000000000000e+02
-1.859843730387338301e+00 1.282263789762265960e+00 3.890000000000000000e+02
-1.090890634096234768e+00 9.537241490763143092e-02 3.890000000000000000e+02
-3.219375378051312908e-01 -1.091518959947002987e+00 3.890000000000000000e+02
4.470155584859724085e-01 -2.278410334801637571e+00 3.890000000000000000e+02
1.215968654777075830e+00 -3.465301709656272600e+00 3.890000000000000000e+02
-3.397749922969545366e+00 3.656046539471535350e+00 3.900000000000000000e+02
-2.628796826678441612e+00 2.469155164616900766e+00 3.900000000000000000e+02
-1.859843730387338301e+00 1.282263789762265960e+00 3.900000000000000000e+02
-1.090890634096234768e+00 9.537241490763143092e-02 3.900000000000000000e+02
-3.219375378051312908e-01 -1.091518959947002987e+00 3.900000000000000000e+02
4.470155584859724085e-01 -2.278410334801637571e+00 3.900000000000000000e+02
1.215968654777075830e+00 -3.465301709656272600e+00 3.900000000000000000e+02
-3.188780783687779952e+00 4.633968775044404964e+00 3.910000000000000000e+02
-2.419827687396676197e+00 3.447077400189769936e+00 3.910000000000000000e+02
-1.650874591105572886e+00 2.260186025335134907e+00 3.910000000000000000e+02
-8.819214948144692423e-01 1.073294650480500545e+00 3.910000000000000000e+02
-1.129683985233658206e-01 -1.135967243741340948e-01 3.910000000000000000e+02
6.559846977677380453e-01 -1.300488099228768624e+00 3.910000000000000000e+02
1.424937794058841245e+00 -2.487379474083403430e+00 3.910000000000000000e+02
2.193890890349944556e+00 -3.674270848938037570e+00 3.910000000000000000e+02
-3.188780783687779952e+00 4.633968775044404964e+00 3.920000000000000000e+02
-2.419827687396676197e+00 3.447077400189769936e+00 3.920000000000000000e+02
-1.650874591105572886e+00 2.260186025335134907e+00 3.920000000000000000e+02
-8.819214948144692423e-01 1.073294650480500545e+00 3.920000000000000000e+02
-1.129683985233658206e-01 -1.135967243741340948e-01 3.920000000000000000e+02
6.559846977677380453e-01 -1.300488099228768624e+00 3.920000000000000000e+02
1.424937794058841245e+00 -2.487379474083403430e+00 3.920000000000000000e+02
2.193890890349944556e+00 -3.674270848938037570e+00 3.920000000000000000e+02
-3.397749922969545366e+00 3.656046539471535350e+00 3.930000000000000000e+02
-2.628796826678441612e+00 2.469155164616900766e+00 3.930000000000000000e+02
-1.859843730387338301e+00 1.282263789762265960e+00 3.930000000000000000e+02
-1.090890634096234768e+00 9.537241490763143092e-02 3.930000000000000000e+02
-3.219375378051312908e-01 -1.091518959947002987e+00 3.930000000000000000e+02
4.470155584859724085e-01 -2.278410334801637571e+00 3.930000000000000000e+02
1.215968654777075830e+00 -3.465301709656272600e+00 3.930000000000000000e+02
-3.397749922969545366e+00 3.656046539471535350e+00 3.940000000000000000e+02
-2.628796826678441612e+00 2.469155164616900766e+00 3.940000000000000000e+02
-1.859843730387338301e+00 1.282263789762265960e+00 3.940000000000000000e+02
-1.090890634096234768e+00 9.537241490763143092e-02 3.940000000000000000e+02
-3.219375378051312908e-01 -1.091518959947002987e+00 3.940000000000000000e+02
4.470155584859724085e-01 -2.278410334801637571e+00 3.940000000000000000e+02
1.215968654777075830e+00 -3.465301709656272600e+00 3.940000000000000000e+02
-3.397749922969545366e+00 3.656046539471535350e+00 3.950000000000000000e+02
-2.628796826678441612e+00 2.469155164616900766e+00 3.950000000000000000e+02
-1.859843730387338301e+00 1.282263789762265960e+00 3.950000000000000000e+02
-1.090890634096234768e+00 9.537241490763143092e-02 3.950000000000000000e+02
-3.219375378051312908e-01 -1.091518959947002987e+00 3.950000000000000000e+02
4.470155584859724085e-01 -2.278410334801637571e+00 3.950000000000000000e+02
1.215968654777075830e+00 -3.465301709656272600e+00 3.950000000000000000e+02
-3.397749922969545366e+00 3.656046539471535350e+00 3.960000000000000000e+02
-2.628796826678441612e+00 2.469155164616900766e+00 3.960000000000000000e+02
-1.859843730387338301e+00 1.282263789762265960e+00 3.960000000000000000e+02
-1.090890634096234768e+00 9.537241490763143092e-02 3.960000000000000000e+02
-3.219375378051312908e-01 -1.091518959947002987e+00 3.960000000000000000e+02
4.470155584859724085e-01 -2.278410334801637571e+00 3.960000000000000000e+02
1.215968654777075830e+00 -3.465301709656272600e+00 3.960000000000000000e+02
-3.397749922969545366e+00 3.656046539471535350e+00 3.970000000000000000e+02
-2.628796826678441612e+00 2.469155164616900766e+00 3.970000000000000000e+02
-1.859843730387338301e+00 1.282263789762265960e+00 3.970000000000000000e+02
-1.090890634096234768e+00 9.537241490763143092e-02 3.970000000000000000e+02
-3.219375378051312908e-01 -1.091518959947002987e+00 3.970000000000000000e+02
4.470155584859724085e-01 -2.278410334801637571e+00 3.970000000000000000e+02
1.215968654777075830e+00 -3.465301709656272600e+00 3.970000000000000000e+02
-3.397749922969545366e+00 3.656046539471535350e+00 3.980000000000000000e+02
-2.628796826678441612e+00 2.469155164616900766e+00 3.980000000000000000e+02
-1.859843730387338301e+00 1.282263789762265960e+00 3.980000000000000000e+02
-1.090890634096234768e+00 9.537241490763143092e-02 3.980000000000000000e+02
-3.219375378051312908e-01 -1.091518959947002987e+00 3.980000000000000000e+02
4.470155584859724085e-01 -2.278410334801637571e+00 3.980000000000000000e+02
1.215968654777075830e+00 -3.465301709656272600e+00 3.980000000000000000e+02
-3.188780783687779952e+00 4.633968775044404964e+00 3.990000000000000000e+02
-2.419827687396676197e+00 3.447077400189769936e+00 3.990000000000000000e+02
-1.650874591105572886e+00 2.260186025335134907e+00 3.990000000000000000e+02
-8.819214948144692423e-01 1.073294650480500545e+00 3.990000000000000000e+02
-1.129683985233658206e-01 -1.135967243741340948e-01 3.990000000000000000e+02
6.559846977677380453e-01 -1.300488099228768624e+00 3.990000000000000000e+02
1.424937794058841245e+00 -2.487379474083403430e+00 3.990000000000000000e+02
2.193890890349944556e+00 -3.674270848938037570e+00 3.990000000000000000e+02
-3.188780783687779952e+00 4.633968775044404964e+00 4.000000000000000000e+02
-2.419827687396676197e+00 3.447077400189769936e+00 4.000000000000000000e+02
-1.650874591105572886e+00 2.260186025335134907e+00 4.000000000000000000e+02
-8.819214948144692423e-01 1.073294650480500545e+00 4.000000000000000000e+02
-1.129683985233658206e-01 -1.135967243741340948e-01 4.000000000000000000e+02
6.559846977677380453e-01 -1.300488099228768624e+00 4.000000000000000000e+02
1.424937794058841245e+00 -2.487379474083403430e+00 4.000000000000000000e+02
2.193890890349944556e+00 -3.674270848938037570e+00 4.000000000000000000e+02
-3.188780783687779952e+00 4.633968775044404964e+00 4.010000000000000000e+02
-2.419827687396676197e+00 3.447077400189769936e+00 4.010000000000000000e+02
-1.650874591105572886e+00 2.260186025335134907e+00 4.010000000000000000e+02
-8.819214948144692423e-01 1.073294650480500545e+00 4.010000000000000000e+02
-1.129683985233658206e-01 -1.135967243741340948e-01 4.010000000000000000e+02
6.559846977677380453e-01 -1.300488099228768624e+00 4.010000000000000000e+02
1.424937794058841245e+00 -2.487379474083403430e+00 4.010000000000000000e+02
2.193890890349944556e+00 -3.674270848938037570e+00 4.010000000000000000e+02
-3.188780783687779952e+00 4.633968775044404964e+00 4.020000000000000000e+02
-2.419827687396676197e+00 3.447077400189769936e+00 4.020000000000000000e+02
-1.650874591105572886e+00 2.260186025335134907e+00 4.020000000000000000e+02
-8.819214948144692423e-01 1.073294650480500545e+00 4.020000000000000000e+02
-1.129683985233658206e-01 -1.135967243741340948e-01 4.020000000000000000e+02
6.559846977677380453e-01 -1.300488099228768624e+00 4.020000000000000000e+02
1.424937794058841245e+00 -2.487379474083403430e+00 4.020000000000000000e+02
2.193890890349944556e+00 -3.674270848938037570e+00 4.020000000000000000e+02
-3.188780783687779952e+00 4.633968775044404964e+00 4.030000000000000000e+02
-2.419827687396676197e+00 3.447077400189769936e+00 4.030000000000000000e+02
-1.650874591105572886e+00 2.260186025335134907e+00 4.030000000000000000e+02
-8.819214948144692423e-01 1.073294650480500545e+00 4.030000000000000000e+02
-1.129683985233658206e-01 -1.135967243741340948e-01 4.030000000000000000e+02
6.559846977677380453e-01 -1.300488099228768624e+00 4.030000000000000000e+02
1.424937794058841245e+00 -2.487379474083403430e+00 4.030000000000000000e+02
2.193890890349944556e+00 -3.674270848938037570e+00 4.030000000000000000e+02
-3.188780783687779952e+00 4.633968775044404964e+00 4.040000000000000000e+02
-2.419827687396676197e+00 3.447077400189769936e+00 4.040000000000000000e+02
-1.650874591105572886e+00 2.260186025335134907e+00 4.040000000000000000e+02
-8.819214948144692423e-01 1.073294650480500545e+00 4.040000000000000000e+02
-1.129683985233658206e-01 -1.135967243741340948e-01 4.040000000000000000e+02
6.559846977677380453e-01 -1.300488099228768624e+00 4.040000000000000000e+02
1.424937794058841245e+00 -2.487379474083403430e+00 4.040000000000000000e+02
2.193890890349944556e+00 -3.674270848938037570e+00 4.040000000000000000e+02
-3.188780783687779952e+00 4.633968775044404964e+00 4.050000000000000000e+02
-2.419827687396676197e+00 3.447077400189769936e+00 4.050000000000000000e+02
-1.650874591105572886e+00 2.260186025335134907e+00 4.050000000000000000e+02
-8.819214948144692423e-01 1.073294650480500545e+00 4.050000000000000000e+02
-1.129683985233658206e-01 -1.135967243741340948e-01 4.050000000000000000e+02
6.559846977677380453e-01 -1.300488099228768624e+00 4.050000000000000000e+02
1.424937794058841245e+00 -2.487379474083403430e+00 4.050000000000000000e+02
2.193890890349944556e+00 -3.674270848938037570e+00 4.050000000000000000e+02
-3.188780783687779952e+00 4.633968775044404964e+00 4.060000000000000000e+02
-2.419827687396676197e+00 3.447077400189769936e+00 4.060000000000000000e+02
-1.650874591105572886e+00 2.260186025335134907e+00 4.060000000000000000e+02
-8.819214948144692423e-01 1.073294650480500545e+00 4.060000000000000000e+02
-1.129683985233658206e-01 -1.135967243741340948e-01 4.060000000000000000e+02
6.559846977677380453e-01 -1.300488099228768624e+00 4.060000000000000000e+02
1.424937794058841245e+00 -2.487379474083403430e+00 4.060000000000000000e+02
2.193890890349944556e+00 -3.674270848938037570e+00 4.060000000000000000e+02
-3.188780783687779952e+00 4.633968775044404964e+00 4.070000000000000000e+02
-2.419827687396676197e+00 3.447077400189769936e+00 4.070000000000000000e+02
-1.650874591105572886e+00 2.260186025335134907e+00 4.070000000000000000e+02
-8.819214948144692423e-01 1.073294650480500545e+00 4.070000000000000000e+02
-1.129683985233658206e-01 -1.135967243741340948e-01 4.070000000000000000e+02
6.559846977677380453e-01 -1.300488099228768624e+00 4.070000000000000000e+02
1.424937794058841245e+00 -2.487379474083403430e+00 4.070000000000000000e+02
2.193890890349944556e+00 -3.674270848938037570e+00 4.070000000000000000e+02
-3.188780783687779952e+00 4.633968775044404964e+00 4.080000000000000000e+02
-2.419827687396676197e+00 3.447077400189769936e+00 4.080000000000000000e+02
-1.650874591105572886e+00 2.260186025335134907e+00 4.080000000000000000e+02
-8.819214948144692423e-01 1.073294650480500545e+00 4.080000000000000000e+02
-1.129683985233658206e-01 -1.135967243741340948e-01 4.080000000000000000e+02
6.559846977677380453e-01 -1.300488099228768624e+00 4.080000000000000000e+02
1.424937794058841245e+00 -2.487379474083403430e+00 4.080000000000000000e+02
2.193890890349944556e+00 -3.674270848938037570e+00 4.080000000000000000e+02
-3.188780783687779952e+00 4.633968775044404964e+00 4.090000000000000000e+02
-2.419827687396676197e+00 3.447077400189769936e+00 4.090000000000000000e+02
-1.650874591105572886e+00 2.260186025335134907e+00 4.090000000000000000e+02
-8.819214948144692423e-01 1.073294650480500545e+00 4.090000000000000000e+02
-1.129683985233658206e-01 -1.135967243741340948e-01 4.090000000000000000e+02
6.559846977677380453e-01 -1.300488099228768624e+00 4.090000000000000000e+02
1.424937794058841245e+00 -2.487379474083403430e+00 4.090000000000000000e+02
2.193890890349944556e+00 -3.674270848938037570e+00 4.090000000000000000e+02
-3.188780783687779952e+00 4.633968775044404964e+00 4.100000000000000000e+02
-2.419827687396676197e+00 3.447077400189769936e+00 4.100000000000000000e+02
-1.650874591105572886e+00 2.260186025335134907e+00 4.100000000000000000e+02
-8.819214948144692423e-01 1.073294650480500545e+00 4.100000000000000000e+02
-1.129683985233658206e-01 -1.135967243741340948e-01 4.100000000000000000e+02
6.559846977677380453e-01 -1.300488099228768624e+00 4.100000000000000000e+02
1.424937794058841245e+00 -2.487379474083403430e+00 4.100000000000000000e+02
2.193890890349944556e+00 -3.674270848938037570e+00 4.100000000000000000e+02
-3.397749922969545366e+00 3.656046539471535350e+00 4.110000000000000000e+02
-2.628796826678441612e+00 2.469155164616900766e+00 4.110000000000000000e+02
-1.859843730387338301e+00 1.282263789762265960e+00 4.110000000000000000e+02
-1.090890634096234768e+00 9.537241490763143092e-02 4.110000000000000000e+02
-3.219375378051312908e-01 -1.091518959947002987e+00 4.110000000000000000e+02
4.470155584859724085e-01 -2.278410334801637571e+00 4.110000000000000000e+02
1.215968654777075830e+00 -3.465301709656272600e+00 4.110000000000000000e+02
-3.397749922969545366e+00 3.656046539471535350e+00 4.120000000000000000e+02
-2.628796826678441612e+00 2.469155164616900766e+00 4.120000000000000000e+02
-1.859843730387338301e+00 1.282263789762265960e+00 4.120000000000000000e+02
-1.090890634096234768e+00 9.537241490763143092e-02 4.120000000000000000e+02
-3.219375378051312908e-01 -1.091518959947002987e+00 4.120000000000000000e+02
4.470155584859724085e-01 -2.278410334801637571e+00 4.120000000000000000e+02
1.215968654777075830e+00 -3.465301709656272600e+00 4.120000000000000000e+02
-3.397749922969545366e+00 3.656046539471535350e+00 4.130000000000000000e+02
-2.628796826678441612e+00 2.469155164616900766e+00 4.130000000000000000e+02
-1.859843730387338301e+00 1.282263789762265960e+00 4.130000000000000000e+02
-1.090890634096234768e+00 9.537241490763143092e-02 4.130000000000000000e+02
