-2.509841710945408977e+00 4.872164758843212873e+00 3.210000000000000000e+02
-1.863221598372714949e+00 3.614435682286391227e+00 3.210000000000000000e+02
-1.216601485800021143e+00 2.356706605729568693e+00 3.210000000000000000e+02
-5.699813732273271150e-01 1.098977529172746603e+00 3.210000000000000000e+02
7.663873934536674648e-02 -1.587515473840754310e-01 3.210000000000000000e+02
7.232588519180604969e-01 -1.416480623940897576e+00 3.210000000000000000e+02
1.369878964490754303e+00 -2.674209700497719666e+00 3.210000000000000000e+02
2.016499077063448553e+00 -3.931938777054541756e+00 3.210000000000000000e+02
-2.509841710945408977e+00 4.872164758843212873e+00 3.220000000000000000e+02
-1.863221598372714949e+00 3.614435682286391227e+00 3.220000000000000000e+02
-1.216601485800021143e+00 2.356706605729568693e+00 3.220000000000000000e+02
-5.699813732273271150e-01 1.098977529172746603e+00 3.220000000000000000e+02
7.663873934536674648e-02 -1.587515473840754310e-01 3.220000000000000000e+02
7.232588519180604969e-01 -1.416480623940897576e+00 3.220000000000000000e+02
1.369878964490754303e+00 -2.674209700497719666e+00 3.220000000000000000e+02
2.016499077063448553e+00 -3.931938777054541756e+00 3.220000000000000000e+02
-2.815396192937472897e+00 3.919990164278455147e+00 3.230000000000000000e+02
-2.168776080364779091e+00 2.662261087721633057e+00 3.230000000000000000e+02
-1.522155967792085285e+00 1.404532011164810967e+00 3.230000000000000000e+02
-8.755358552193912569e-01 1.468029346079886555e-01 3.230000000000000000e+02
-2.289157426466973955e-01 -1.110926141948833656e+00 3.230000000000000000e+02
4.177043699259964105e-01 -2.368655218505655746e+00 3.230000000000000000e+02
1.064324482498690161e+00 -3.626384295062477836e+00 3.230000000000000000e+02
-2.815396192937472897e+00 3.919990164278455147e+00 3.240000000000000000e+02
-2.168776080364779091e+00 2.662261087721633057e+00 3.240000000000000000e+02
-1.522155967792085285e+00 1.404532011164810967e+00 3.240000000000000000e+02
-8.755358552193912569e-01 1.468029346079886555e-01 3.240000000000000000e+02
-2.289157426466973955e-01 -1.110926141948833656e+00 3.240000000000000000e+02
4.177043699259964105e-01 -2.368655218505655746e+00 3.240000000000000000e+02
1.064324482498690161e+00 -3.626384295062477836e+00 3.240000000000000000e+02
-2.815396192937472897e+00 3.919990164278455147e+00 3.250000000000000000e+02
-2.168776080364779091e+00 2.662261087721633057e+00 3.250000000000000000e+02
-1.522155967792085285e+00 1.404532011164810967e+00 3.250000000000000000e+02
-8.755358552193912569e-01 1.468029346079886555e-01 3.250000000000000000e+02
-2.289157426466973955e-01 -1.110926141948833656e+00 3.250000000000000000e+02
4.177043699259964105e-01 -2.368655218505655746e+00 3.250000000000000000e+02
1.064324482498690161e+00 -3.626384295062477836e+00 3.250000000000000000e+02
1.710944595071384189e+00 -4.884113371619299926e+00 3.250000000000000000e+02
-2.815396192937472897e+00 3.919990164278455147e+00 3.260000000000000000e+02
-2.168776080364779091e+00 2.662261087721633057e+00 3.260000000000000000e+02
-1.522155967792085285e+00 1.404532011164810967e+00 3.260000000000000000e+02
-8.755358552193912569e-01 1.468029346079886555e-01 3.260000000000000000e+02
-2.289157426466973955e-01 -1.110926141948833656e+00 3.260000000000000000e+02
4.177043699259964105e-01 -2.368655218505655746e+00 3.260000000000000000e+02
1.064324482498690161e+00 -3.626384295062477836e+00 3.260000000000000000e+02
1.710944595071384189e+00 -4.884113371619299926e+00 3.260000000000000000e+02
-2.815396192937472897e+00 3.919990164278455147e+00 3.270000000000000000e+02
-2.168776080364779091e+00 2.662261087721633057e+00 3.270000000000000000e+02
-1.522155967792085285e+00 1.404532011164810967e+00 3.270000000000000000e+02
-8.755358552193912569e-01 1.468029346079886555e-01 3.270000000000000000e+02
-2.289157426466973955e-01 -1.110926141948833656e+00 3.270000000000000000e+02
4.177043699259964105e-01 -2.368655218505655746e+00 3.270000000000000000e+02
1.064324482498690161e+00 -3.626384295062477836e+00 3.270000000000000000e+02
1.710944595071384189e+00 -4.884113371619299926e+00 3.270000000000000000e+02
-2.815396192937472897e+00 3.919990164278455147e+00 3.280000000000000000e+02
-2.168776080364779091e+00 2.662261087721633057e+00 3.280000000000000000e+02
-1.522155967792085285e+00 1.404532011164810967e+00 3.280000000000000000e+02
-8.755358552193912569e-01 1.468029346079886555e-01 3.280000000000000000e+02
-2.289157426466973955e-01 -1.110926141948833656e+00 3.280000000000000000e+02
4.177043699259964105e-01 -2.368655218505655746e+00 3.280000000000000000e+02
1.064324482498690161e+00 -3.626384295062477836e+00 3.280000000000000000e+02
-2.815396192937472897e+00 3.919990164278455147e+00 3.290000000000000000e+02
-2.168776080364779091e+00 2.662261087721633057e+00 3.290000000000000000e+02
-1.522155967792085285e+00 1.404532011164810967e+00 3.290000000000000000e+02
-8.755358552193912569e-01 1.468029346079886555e-01 3.290000000000000000e+02
-2.289157426466973955e-01 -1.110926141948833656e+00 3.290000000000000000e+02
4.177043699259964105e-01 -2.368655218505655746e+00 3.290000000000000000e+02
1.064324482498690161e+00 -3.626384295062477836e+00 3.290000000000000000e+02
-2.509841710945408977e+00 4.872164758843212873e+00 3.300000000000000000e+02
-1.863221598372714949e+00 3.614435682286391227e+00 3.300000000000000000e+02
-1.216601485800021143e+00 2.356706605729568693e+00 3.300000000000000000e+02
-5.699813732273271150e-01 1.098977529172746603e+00 3.300000000000000000e+02
7.663873934536674648e-02 -1.587515473840754310e-01 3.300000000000000000e+02
7.232588519180604969e-01 -1.416480623940897576e+00 3.300000000000000000e+02
1.369878964490754303e+00 -2.674209700497719666e+00 3.300000000000000000e+02
2.016499077063448553e+00 -3.931938777054541756e+00 3.300000000000000000e+02
2.663119189636142359e+00 -5.189667853611363846e+00 3.300000000000000000e+02
-2.509841710945408977e+00 4.872164758843212873e+00 3.310000000000000000e+02
-1.863221598372714949e+00 3.614435682286391227e+00 3.310000000000000000e+02
-1.216601485800021143e+00 2.356706605729568693e+00 3.310000000000000000e+02
-5.699813732273271150e-01 1.098977529172746603e+00 3.310000000000000000e+02
7.663873934536674648e-02 -1.587515473840754310e-01 3.310000000000000000e+02
7.232588519180604969e-01 -1.416480623940897576e+00 3.310000000000000000e+02
1.369878964490754303e+00 -2.674209700497719666e+00 3.310000000000000000e+02
2.016499077063448553e+00 -3.931938777054541756e+00 3.310000000000000000e+02
2.663119189636142359e+00 -5.189667853611363846e+00 3.310000000000000000e+02
-2.509841710945408977e+00 4.872164758843212873e+00 3.320000000000000000e+02
-1.863221598372714949e+00 3.614435682286391227e+00 3.320000000000000000e+02
-1.216601485800021143e+00 2.356706605729568693e+00 3.320000000000000000e+02
-5.699813732273271150e-01 1.098977529172746603e+00 3.320000000000000000e+02
7.663873934536674648e-02 -1.587515473840754310e-01 3.320000000000000000e+02
7.232588519180604969e-01 -1.416480623940897576e+00 3.320000000000000000e+02
1.369878964490754303e+00 -2.674209700497719666e+00 3.320000000000000000e+02
2.016499077063448553e+00 -3.931938777054541756e+00 3.320000000000000000e+02
-2.509841710945408977e+00 4.872164758843212873e+00 3.330000000000000000e+02
-1.863221598372714949e+00 3.614435682286391227e+00 3.330000000000000000e+02
-1.216601485800021143e+00 2.356706605729568693e+00 3.330000000000000000e+02
-5.699813732273271150e-01 1.098977529172746603e+00 3.330000000000000000e+02
7.663873934536674648e-02 -1.587515473840754310e-01 3.330000000000000000e+02
7.232588519180604969e-01 -1.416480623940897576e+00 3.330000000000000000e+02
1.369878964490754303e+00 -2.674209700497719666e+00 3.330000000000000000e+02
2.016499077063448553e+00 -3.931938777054541756e+00 3.330000000000000000e+02
-2.509841710945408977e+00 4.872164758843212873e+00 3.340000000000000000e+02
-1.863221598372714949e+00 3.614435682286391227e+00 3.340000000000000000e+02
-1.216601485800021143e+00 2.356706605729568693e+00 3.340000000000000000e+02
-5.699813732273271150e-01 1.098977529172746603e+00 3.340000000000000000e+02
7.663873934536674648e-02 -1.587515473840754310e-01 3.340000000000000000e+02
7.232588519180604969e-01 -1.416480623940897576e+00 3.340000000000000000e+02
1.369878964490754303e+00 -2.674209700497719666e+00 3.340000000000000000e+02
2.016499077063448553e+00 -3.931938777054541756e+00 3.340000000000000000e+02
-2.509841710945408977e+00 4.872164758843212873e+00 3.350000000000000000e+02
-1.863221598372714949e+00 3.614435682286391227e+00 3.350000000000000000e+02
-1.216601485800021143e+00 2.356706605729568693e+00 3.350000000000000000e+02
-5.699813732273271150e-01 1.098977529172746603e+00 3.350000000000000000e+02
7.663873934536674648e-02 -1.587515473840754310e-01 3.350000000000000000e+02
7.232588519180604969e-01 -1.416480623940897576e+00 3.350000000000000000e+02
1.369878964490754303e+00 -2.674209700497719666e+00 3.350000000000000000e+02
2.016499077063448553e+00 -3.931938777054541756e+00 3.350000000000000000e+02
2.663119189636142359e+00 -5.189667853611363846e+00 3.350000000000000000e+02
-2.509841710945408977e+00 4.872164758843212873e+00 3.360000000000000000e+02
-1.863221598372714949e+00 3.614435682286391227e+00 3.360000000000000000e+02
-1.216601485800021143e+00 2.356706605729568693e+00 3.360000000000000000e+02
-5.699813732273271150e-01 1.098977529172746603e+00 3.360000000000000000e+02
7.663873934536674648e-02 -1.587515473840754310e-01 3.360000000000000000e+02
7.232588519180604969e-01 -1.416480623940897576e+00 3.360000000000000000e+02
1.369878964490754303e+00 -2.674209700497719666e+00 3.360000000000000000e+02
2.016499077063448553e+00 -3.931938777054541756e+00 3.360000000000000000e+02
2.663119189636142359e+00 -5.189667853611363846e+00 3.360000000000000000e+02
-2.509841710945408977e+00 4.872164758843212873e+00 3.370000000000000000e+02
-1.863221598372714949e+00 3.614435682286391227e+00 3.370000000000000000e+02
-1.216601485800021143e+00 2.356706605729568693e+00 3.370000000000000000e+02
-5.699813732273271150e-01 1.098977529172746603e+00 3.370000000000000000e+02
7.663873934536674648e-02 -1.587515473840754310e-01 3.370000000000000000e+02
7.232588519180604969e-01 -1.416480623940897576e+00 3.370000000000000000e+02
1.369878964490754303e+00 -2.674209700497719666e+00 3.370000000000000000e+02
2.016499077063448553e+00 -3.931938777054541756e+00 3.370000000000000000e+02
2.663119189636142359e+00 -5.189667853611363846e+00 3.370000000000000000e+02
-2.509841710945408977e+00 4.872164758843212873e+00 3.380000000000000000e+02
-1.863221598372714949e+00 3.614435682286391227e+00 3.380000000000000000e+02
-1.216601485800021143e+00 2.356706605729568693e+00 3.380000000000000000e+02
-5.699813732273271150e-01 1.098977529172746603e+00 3.380000000000000000e+02
7.663873934536674648e-02 -1.587515473840754310e-01 3.380000000000000000e+02
7.232588519180604969e-01 -1.416480623940897576e+00 3.380000000000000000e+02
1.369878964490754303e+00 -2.674209700497719666e+00 3.380000000000000000e+02
2.016499077063448553e+00 -3.931938777054541756e+00 3.380000000000000000e+02
2.663119189636142359e+00 -5.189667853611363846e+00 3.380000000000000000e+02
-2.509841710945408977e+00 4.872164758843212873e+00 3.390000000000000000e+02
-1.863221598372714949e+00 3.614435682286391227e+00 3.390000000000000000e+02
-1.216601485800021143e+00 2.356706605729568693e+00 3.390000000000000000e+02
-5.699813732273271150e-01 1.098977529172746603e+00 3.390000000000000000e+02
7.663873934536674648e-02 -1.587515473840754310e-01 3.390000000000000000e+02
7.232588519180604969e-01 -1.416480623940897576e+00 3.390000000000000000e+02
1.369878964490754303e+00 -2.674209700497719666e+00 3.390000000000000000e+02
2.016499077063448553e+00 -3.931938777054541756e+00 3.390000000000000000e+02
2.663119189636142359e+00 -5.189667853611363846e+00 3.390000000000000000e+02
-2.815396192937472897e+00 3.919990164278455147e+00 3.400000000000000000e+02
-2.168776080364779091e+00 2.662261087721633057e+00 3.400000000000000000e+02
-1.522155967792085285e+00 1.404532011164810967e+00 3.400000000000000000e+02
-8.755358552193912569e-01 1.468029346079886555e-01 3.400000000000000000e+02
-2.289157426466973955e-01 -1.110926141948833656e+00 3.400000000000000000e+02
4.177043699259964105e-01 -2.368655218505655746e+00 3.400000000000000000e+02
1.064324482498690161e+00 -3.626384295062477836e+00 3.400000000000000000e+02
1.710944595071384189e+00 -4.884113371619299926e+00 3.400000000000000000e+02
-2.815396192937472897e+00 3.919990164278455147e+00 3.410000000000000000e+02
-2.168776080364779091e+00 2.662261087721633057e+00 3.410000000000000000e+02
-1.522155967792085285e+00 1.404532011164810967e+00 3.410000000000000000e+02
-8.755358552193912569e-01 1.468029346079886555e-01 3.410000000000000000e+02
-2.289157426466973955e-01 -1.110926141948833656e+00 3.410000000000000000e+02
4.177043699259964105e-01 -2.368655218505655746e+00 3.410000000000000000e+02
1.064324482498690161e+00 -3.626384295062477836e+00 3.410000000000000000e+02
-2.815396192937472897e+00 3.919990164278455147e+00 3.420000000000000000e+02
-2.168776080364779091e+00 2.662261087721633057e+00 3.420000000000000000e+02
-1.522155967792085285e+00 1.404532011164810967e+00 3.420000000000000000e+02
-8.755358552193912569e-01 1.468029346079886555e-01 3.420000000000000000e+02
-2.289157426466973955e-01 -1.110926141948833656e+00 3.420000000000000000e+02
4.177043699259964105e-01 -2.368655218505655746e+00 3.420000000000000000e+02
1.064324482498690161e+00 -3.626384295062477836e+00 3.420000000000000000e+02
-2.815396192937472897e+00 3.919990164278455147e+00 3.430000000000000000e+02
-2.168776080364779091e+00 2.662261087721633057e+00 3.430000000000000000e+02
-1.522155967792085285e+00 1.404532011164810967e+00 3.430000000000000000e+02
-8.755358552193912569e-01 1.468029346079886555e-01 3.430000000000000000e+02
-2.289157426466973955e-01 -1.110926141948833656e+00 3.430000000000000000e+02
4.177043699259964105e-01 -2.368655218505655746e+00 3.430000000000000000e+02
1.064324482498690161e+00 -3.626384295062477836e+00 3.430000000000000000e+02
-2.509841710945408977e+00 4.872164758843212873e+00 3.440000000000000000e+02
-1.863221598372714949e+00 3.614435682286391227e+00 3.440000000000000000e+02
-1.216601485800021143e+00 2.356706605729568693e+00 3.440000000000000000e+02
-5.699813732273271150e-01 1.098977529172746603e+00 3.440000000000000000e+02
7.663873934536674648e-02 -1.587515473840754310e-01 3.440000000000000000e+02
7.232588519180604969e-01 -1.416480623940897576e+00 3.440000000000000000e+02
1.369878964490754303e+00 -2.674209700497719666e+00 3.440000000000000000e+02
2.016499077063448553e+00 -3.931938777054541756e+00 3.440000000000000000e+02
-2.509841710945408977e+00 4.872164758843212873e+00 3.450000000000000000e+02
-1.863221598372714949e+00 3.614435682286391227e+00 3.450000000000000000e+02
-1.216601485800021143e+00 2.356706605729568693e+00 3.450000000000000000e+02
-5.699813732273271150e-01 1.098977529172746603e+00 3.450000000000000000e+02
7.663873934536674648e-02 -1.587515473840754310e-01 3.450000000000000000e+02
7.232588519180604969e-01 -1.416480623940897576e+00 3.450000000000000000e+02
1.369878964490754303e+00 -2.674209700497719666e+00 3.450000000000000000e+02
2.016499077063448553e+00 -3.931938777054541756e+00 3.450000000000000000e+02
-2.815396192937472897e+00 3.919990164278455147e+00 3.460000000000000000e+02
-2.168776080364779091e+00 2.662261087721633057e+00 3.460000000000000000e+02
-1.522155967792085285e+00 1.404532011164810967e+00 3.460000000000000000e+02
-8.755358552193912569e-01 1.468029346079886555e-01 3.460000000000000000e+02
-2.289157426466973955e-01 -1.110926141948833656e+00 3.460000000000000000e+02
4.177043699259964105e-01 -2.368655218505655746e+00 3.460000000000000000e+02
1.064324482498690161e+00 -3.626384295062477836e+00 3.460000000000000000e+02
-2.815396192937472897e+00 3.919990164278455147e+00 3.470000000000000000e+02
-2.168776080364779091e+00 2.662261087721633057e+00 3.470000000000000000e+02
-1.522155967792085285e+00 1.404532011164810967e+00 3.470000000000000000e+02
-8.755358552193912569e-01 1.468029346079886555e-01 3.470000000000000000e+02
-2.289157426466973955e-01 -1.110926141948833656e+00 3.470000000000000000e+02
4.177043699259964105e-01 -2.368655218505655746e+00 3.470000000000000000e+02
1.064324482498690161e+00 -3.626384295062477836e+00 3.470000000000000000e+02
-2.815396192937472897e+00 3.919990164278455147e+00 3.480000000000000000e+02
-2.168776080364779091e+00 2.662261087721633057e+00 3.480000000000000000e+02
-1.522155967792085285e+00 1.404532011164810967e+00 3.480000000000000000e+02
-8.755358552193912569e-01 1.468029346079886555e-01 3.480000000000000000e+02
-2.289157426466973955e-01 -1.110926141948833656e+00 3.480000000000000000e+02
4.177043699259964105e-01 -2.368655218505655746e+00 3.480000000000000000e+02
1.064324482498690161e+00 -3.626384295062477836e+00 3.480000000000000000e+02
1.710944595071384189e+00 -4.884113371619299926e+00 3.480000000000000000e+02
-2.815396192937472897e+00 3.919990164278455147e+00 3.490000000000000000e+02
-2.168776080364779091e+00 2.662261087721633057e+00 3.490000000000000000e+02
-1.522155967792085285e+00 1.404532011164810967e+00 3.490000000000000000e+02
-8.755358552193912569e-01 1.468029346079886555e-01 3.490000000000000000e+02
-2.289157426466973955e-01 -1.110926141948833656e+00 3.490000000000000000e+02
4.177043699259964105e-01 -2.368655218505655746e+00 3.490000000000000000e+02
1.064324482498690161e+00 -3.626384295062477836e+00 3.490000000000000000e+02
1.710944595071384189e+00 -4.884113371619299926e+00 3.490000000000000000e+02
-2.509841710945408977e+00 4.872164758843212873e+00 3.500000000000000000e+02
-1.863221598372714949e+00 3.614435682286391227e+00 3.500000000000000000e+02
-1.216601485800021143e+00 2.356706605729568693e+00 3.500000000000000000e+02
-5.699813732273271150e-01 1.098977529172746603e+00 3.500000000000000000e+02
7.663873934536674648e-02 -1.587515473840754310e-01 3.500000000000000000e+02
7.232588519180604969e-01 -1.416480623940897576e+00 3.500000000000000000e+02
1.369878964490754303e+00 -2.674209700497719666e+00 3.500000000000000000e+02
2.016499077063448553e+00 -3.931938777054541756e+00 3.500000000000000000e+02
2.663119189636142359e+00 -5.189667853611363846e+00 3.500000000000000000e+02
-2.509841710945408977e+00 4.872164758843212873e+00 3.510000000000000000e+02
-1.863221598372714949e+00 3.614435682286391227e+00 3.510000000000000000e+02
-1.216601485800021143e+00 2.356706605729568693e+00 3.510000000000000000e+02
-5.699813732273271150e-01 1.098977529172746603e+00 3.510000000000000000e+02
7.663873934536674648e-02 -1.587515473840754310e-01 3.510000000000000000e+02
7.232588519180604969e-01 -1.416480623940897576e+00 3.510000000000000000e+02
1.369878964490754303e+00 -2.674209700497719666e+00 3.510000000000000000e+02
2.016499077063448553e+00 -3.931938777054541756e+00 3.510000000000000000e+02
-2.509841710945408977e+00 4.872164758843212873e+00 3.520000000000000000e+02
-1.863221598372714949e+00 3.614435682286391227e+00 3.520000000000000000e+02
-1.216601485800021143e+00 2.356706605729568693e+00 3.520000000000000000e+02
-5.699813732273271150e-01 1.098977529172746603e+00 3.520000000000000000e+02
7.663873934536674648e-02 -1.587515473840754310e-01 3.520000000000000000e+02
7.232588519180604969e-01 -1.416480623940897576e+00 3.520000000000000000e+02
1.369878964490754303e+00 -2.674209700497719666e+00 3.520000000000000000e+02
2.016499077063448553e+00 -3.931938777054541756e+00 3.520000000000000000e+02
2.663119189636142359e+00 -5.189667853611363846e+00 3.520000000000000000e+02
-2.815396192937472897e+00 3.919990164278455147e+00 3.530000000000000000e+02
-2.168776080364779091e+00 2.662261087721633057e+00 3.530000000000000000e+02
-1.522155967792085285e+00 1.404532011164810967e+00 3.530000000000000000e+02
-8.755358552193912569e-01 1.468029346079886555e-01 3.530000000000000000e+02
-2.289157426466973955e-01 -1.110926141948833656e+00 3.530000000000000000e+02
4.177043699259964105e-01 -2.368655218505655746e+00 3.530000000000000000e+02
1.064324482498690161e+00 -3.626384295062477836e+00 3.530000000000000000e+02
1.710944595071384189e+00 -4.884113371619299926e+00 3.530000000000000000e+02
-2.815396192937472897e+00 3.919990164278455147e+00 3.540000000000000000e+02
-2.168776080364779091e+00 2.662261087721633057e+00 3.540000000000000000e+02
-1.522155967792085285e+00 1.404532011164810967e+00 3.540000000000000000e+02
-8.755358552193912569e-01 1.468029346079886555e-01 3.540000000000000000e+02
-2.289157426466973955e-01 -1.110926141948833656e+00 3.540000000000000000e+02
4.177043699259964105e-01 -2.368655218505655746e+00 3.540000000000000000e+02
1.064324482498690161e+00 -3.626384295062477836e+00 3.540000000000000000e+02
1.710944595071384189e+00 -4.884113371619299926e+00 3.540000000000000000e+02
-2.815396192937472897e+00 3.919990164278455147e+00 3.550000000000000000e+02
-2.168776080364779091e+00 2.662261087721633057e+00 3.550000000000000000e+02
-1.522155967792085285e+00 1.404532011164810967e+00 3.550000000000000000e+02
-8.755358552193912569e-01 1.468029346079886555e-01 3.550000000000000000e+02
-2.289157426466973955e-01 -1.110926141948833656e+00 3.550000000000000000e+02
4.177043699259964105e-01 -2.368655218505655746e+00 3.550000000000000000e+02
1.064324482498690161e+00 -3.626384295062477836e+00 3.550000000000000000e+02
1.710944595071384189e+00 -4.884113371619299926e+00 3.550000000000000000e+02
-2.815396192937472897e+00 3.919990164278455147e+00 3.560000000000000000e+02
-2.168776080364779091e+00 2.662261087721633057e+00 3.560000000000000000e+02
-1.522155967792085285e+00 1.404532011164810967e+00 3.560000000000000000e+02
-8.755358552193912569e-01 1.468029346079886555e-01 3.560000000000000000e+02
-2.289157426466973955e-01 -1.110926141948833656e+00 3.560000000000000000e+02
4.177043699259964105e-01 -2.368655218505655746e+00 3.560000000000000000e+02
1.064324482498690161e+00 -3.626384295062477836e+00 3.560000000000000000e+02
1.710944595071384189e+00 -4.884113371619299926e+00 3.560000000000000000e+02
-2.815396192937472897e+00 3.919990164278455147e+00 3.570000000000000000e+02
-2.168776080364779091e+00 2.662261087721633057e+00 3.570000000000000000e+02
-1.522155967792085285e+00 1.404532011164810967e+00 3.570000000000000000e+02
-8.755358552193912569e-01 1.468029346079886555e-01 3.570000000000000000e+02
-2.289157426466973955e-01 -1.110926141948833656e+00 3.570000000000000000e+02
4.177043699259964105e-01 -2.368655218505655746e+00 3.570000000000000000e+02
1.064324482498690161e+00 -3.626384295062477836e+00 3.570000000000000000e+02
1.710944595071384189e+00 -4.884113371619299926e+00 3.570000000000000000e+02
-2.815396192937472897e+00 3.919990164278455147e+00 3.580000000000000000e+02
-2.168776080364779091e+00 2.662261087721633057e+00 3.580000000000000000e+02
-1.522155967792085285e+00 1.404532011164810967e+00 3.580000000000000000e+02
-8.755358552193912569e-01 1.468029346079886555e-01 3.580000000000000000e+02
-2.289157426466973955e-01 -1.110926141948833656e+00 3.580000000000000000e+02
4.177043699259964105e-01 -2.368655218505655746e+00 3.580000000000000000e+02
1.064324482498690161e+00 -3.626384295062477836e+00 3.580000000000000000e+02
1.710944595071384189e+00 -4.884113371619299926e+00 3.580000000000000000e+02
-2.815396192937472897e+00 3.919990164278455147e+00 3.590000000000000000e+02
-2.168776080364779091e+00 2.662261087721633057e+00 3.590000000000000000e+02
-1.522155967792085285e+00 1.404532011164810967e+00 3.590000000000000000e+02
-8.755358552193912569e-01 1.468029346079886555e-01 3.590000000000000000e+02
-2.289157426466973955e-01 -1.110926141948833656e+00 3.590000000000000000e+02
4.177043699259964105e-01 -2.368655218505655746e+00 3.590000000000000000e+02
1.064324482498690161e+00 -3.626384295062477836e+00 3.590000000000000000e+02
1.710944595071384189e+00 -4.884113371619299926e+00 3.590000000000000000e+02
-2.815396192937472897e+00 3.919990164278455147e+00 3.600000000000000000e+02
-2.168776080364779091e+00 2.662261087721633057e+00 3.600000000000000000e+02
-1.522155967792085285e+00 1.404532011164810967e+00 3.600000000000000000e+02
-8.755358552193912569e-01 1.468029346079886555e-01 3.600000000000000000e+02
-2.289157426466973955e-01 -1.110926141948833656e+00 3.600000000000000000e+02
4.177043699259964105e-01 -2.368655218505655746e+00 3.600000000000000000e+02
1.064324482498690161e+00 -3.626384295062477836e+00 3.600000000000000000e+02
1.710944595071384189e+00 -4.884113371619299926e+00 3.600000000000000000e+02
-2.815396192937472897e+00 3.919990164278455147e+00 3.610000000000000000e+02
-2.168776080364779091e+00 2.662261087721633057e+00 3.610000000000000000e+02
-1.522155967792085285e+00 1.404532011164810967e+00 3.610000000000000000e+02
-8.755358552193912569e-01 1.468029346079886555e-01 3.610000000000000000e+02
-2.289157426466973955e-01 -1.110926141948833656e+00 3.610000000000000000e+02
4.177043699259964105e-01 -2.368655218505655746e+00 3.610000000000000000e+02
1.064324482498690161e+00 -3.626384295062477836e+00 3.610000000000000000e+02
1.710944595071384189e+00 -4.884113371619299926e+00 3.610000000000000000e+02
-3.120950674929537261e+00 2.967815569713697421e+00 3.620000000000000000e+02
-2.474330562356843011e+00 1.710086493156874887e+00 3.620000000000000000e+02
-1.827710449784149427e+00 4.523574166000529084e-01 3.620000000000000000e+02
-1.181090337211455399e+00 -8.053716599567694034e-01 3.620000000000000000e+02
-5.344702246387615929e-01 -2.063100736513591382e+00 3.620000000000000000e+02
1.121498879339322685e-01 -3.320829813070413472e+00 3.620000000000000000e+02
7.587700005066260189e-01 -4.578558889627236006e+00 3.620000000000000000e+02
-2.815396192937472897e+00 3.919990164278455147e+00 3.630000000000000000e+02
-2.168776080364779091e+00 2.662261087721633057e+00 3.630000000000000000e+02
-1.522155967792085285e+00 1.404532011164810967e+00 3.630000000000000000e+02
-8.755358552193912569e-01 1.468029346079886555e-01 3.630000000000000000e+02
-2.289157426466973955e-01 -1.110926141948833656e+00 3.630000000000000000e+02
4.177043699259964105e-01 -2.368655218505655746e+00 3.630000000000000000e+02
1.064324482498690161e+00 -3.626384295062477836e+00 3.630000000000000000e+02
1.710944595071384189e+00 -4.884113371619299926e+00 3.630000000000000000e+02
-2.815396192937472897e+00 3.919990164278455147e+00 3.640000000000000000e+02
-2.168776080364779091e+00 2.662261087721633057e+00 3.640000000000000000e+02
-1.522155967792085285e+00 1.404532011164810967e+00 3.640000000000000000e+02
-8.755358552193912569e-01 1.468029346079886555e-01 3.640000000000000000e+02
-2.289157426466973955e-01 -1.110926141948833656e+00 3.640000000000000000e+02
4.177043699259964105e-01 -2.368655218505655746e+00 3.640000000000000000e+02
1.064324482498690161e+00 -3.626384295062477836e+00 3.640000000000000000e+02
1.710944595071384189e+00 -4.884113371619299926e+00 3.640000000000000000e+02
-2.815396192937472897e+00 3.919990164278455147e+00 3.650000000000000000e+02
-2.168776080364779091e+00 2.662261087721633057e+00 3.650000000000000000e+02
-1.522155967792085285e+00 1.404532011164810967e+00 3.650000000000000000e+02
-8.755358552193912569e-01 1.468029346079886555e-01 3.650000000000000000e+02
-2.289157426466973955e-01 -1.110926141948833656e+00 3.650000000000000000e+02
4.177043699259964105e-01 -2.368655218505655746e+00 3.650000000000000000e+02
1.064324482498690161e+00 -3.626384295062477836e+00 3.650000000000000000e+02
1.710944595071384189e+00 -4.884113371619299926e+00 3.650000000000000000e+02
-2.815396192937472897e+00 3.919990164278455147e+00 3.660000000000000000e+02
-2.168776080364779091e+00 2.662261087721633057e+00 3.660000000000000000e+02
-1.522155967792085285e+00 1.404532011164810967e+00 3.660000000000000000e+02
-8.755358552193912569e-01 1.468029346079886555e-01 3.660000000000000000e+02
-2.289157426466973955e-01 -1.110926141948833656e+00 3.660000000000000000e+02
4.177043699259964105e-01 -2.368655218505655746e+00 3.660000000000000000e+02
1.064324482498690161e+00 -3.626384295062477836e+00 3.660000000000000000e+02
1.710944595071384189e+00 -4.884113371619299926e+00 3.660000000000000000e+02
-2.815396192937472897e+00 3.919990164278455147e+00 3.670000000000000000e+02
-2.168776080364779091e+00 2.662261087721633057e+00 3.670000000000000000e+02
-1.522155967792085285e+00 1.404532011164810967e+00 3.670000000000000000e+02
-8.755358552193912569e-01 1.468029346079886555e-01 3.670000000000000000e+02
-2.289157426466973955e-01 -1.110926141948833656e+00 3.670000000000000000e+02
4.177043699259964105e-01 -2.368655218505655746e+00 3.670000000000000000e+02
1.064324482498690161e+00 -3.626384295062477836e+00 3.670000000000000000e+02
1.710944595071384189e+00 -4.884113371619299926e+00 3.670000000000000000e+02
-2.815396192937472897e+00 3.919990164278455147e+00 3.680000000000000000e+02
-2.168776080364779091e+00 2.662261087721633057e+00 3.680000000000000000e+02
-1.522155967792085285e+00 1.404532011164810967e+00 3.680000000000000000e+02
-8.755358552193912569e-01 1.468029346079886555e-01 3.680000000000000000e+02
-2.289157426466973955e-01 -1.110926141948833656e+00 3.680000000000000000e+02
4.177043699259964105e-01 -2.368655218505655746e+00 3.680000000000000000e+02
1.064324482498690161e+00 -3.626384295062477836e+00 3.680000000000000000e+02
1.710944595071384189e+00 -4.884113371619299926e+00 3.680000000000000000e+02
-2.815396192937472897e+00 3.919990164278455147e+00 3.690000000000000000e+02
-2.168776080364779091e+00 2.662261087721633057e+00 3.690000000000000000e+02
-1.522155967792085285e+00 1.404532011164810967e+00 3.690000000000000000e+02
-8.755358552193912569e-01 1.468029346079886555e-01 3.690000000000000000e+02
-2.289157426466973955e-01 -1.110926141948833656e+00 3.690000000000000000e+02
4.177043699259964105e-01 -2.368655218505655746e+00 3.690000000000000000e+02
1.064324482498690161e+00 -3.626384295062477836e+00 3.690000000000000000e+02
1.710944595071384189e+00 -4.884113371619299926e+00 3.690000000000000000e+02
-2.815396192937472897e+00 3.919990164278455147e+00 3.700000000000000000e+02
-2.168776080364779091e+00 2.662261087721633057e+00 3.700000000000000000e+02
-1.522155967792085285e+00 1.404532011164810967e+00 3.700000000000000000e+02
-8.755358552193912569e-01 1.468029346079886555e-01 3.700000000000000000e+02
-2.289157426466973955e-01 -1.110926141948833656e+00 3.700000000000000000e+02
4.177043699259964105e-01 -2.368655218505655746e+00 3.700000000000000000e+02
1.064324482498690161e+00 -3.626384295062477836e+00 3.700000000000000000e+02
1.710944595071384189e+00 -4.884113371619299926e+00 3.700000000000000000e+02
-2.815396192937472897e+00 3.919990164278455147e+00 3.710000000000000000e+02
-2.168776080364779091e+00 2.662261087721633057e+00 3.710000000000000000e+02
-1.522155967792085285e+00 1.404532011164810967e+00 3.710000000000000000e+02
-8.755358552193912569e-01 1.468029346079886555e-01 3.710000000000000000e+02
-2.289157426466973955e-01 -1.110926141948833656e+00 3.710000000000000000e+02
4.177043699259964105e-01 -2.368655218505655746e+00 3.710000000000000000e+02
1.064324482498690161e+00 -3.626384295062477836e+00 3.710000000000000000e+02
1.710944595071384189e+00 -4.884113371619299926e+00 3.710000000000000000e+02
-2.815396192937472897e+00 3.919990164278455147e+00 3.720000000000000000e+02
-2.168776080364779091e+00 2.662261087721633057e+00 3.720000000000000000e+02
-1.522155967792085285e+00 1.404532011164810967e+00 3.720000000000000000e+02
-8.755358552193912569e-01 1.468029346079886555e-01 3.720000000000000000e+02
-2.289157426466973955e-01 -1.110926141948833656e+00 3.720000000000000000e+02
4.177043699259964105e-01 -2.368655218505655746e+00 3.720000000000000000e+02
1.064324482498690161e+00 -3.626384295062477836e+00 3.720000000000000000e+02
1.710944595071384189e+00 -4.884113371619299926e+00 3.720000000000000000e+02
-2.815396192937472897e+00 3.919990164278455147e+00 3.730000000000000000e+02
-2.168776080364779091e+00 2.662261087721633057e+00 3.730000000000000000e+02
-1.522155967792085285e+00 1.404532011164810967e+00 3.730000000000000000e+02
-8.755358552193912569e-01 1.468029346079886555e-01 3.730000000000000000e+02
-2.289157426466973955e-01 -1.110926141948833656e+00 3.730000000000000000e+02
4.177043699259964105e-01 -2.368655218505655746e+00 3.730000000000000000e+02
1.064324482498690161e+00 -3.626384295062477836e+00 3.730000000000000000e+02
-3.120950674929537261e+00 2.967815569713697421e+00 3.740000000000000000e+02
-2.474330562356843011e+00 1.710086493156874887e+00 3.740000000000000000e+02
-1.827710449784149427e+00 4.523574166000529084e-01 3.740000000000000000e+02
-1.181090337211455399e+00 -8.053716599567694034e-01 3.740000000000000000e+02
-5.344702246387615929e-01 -2.063100736513591382e+00 3.740000000000000000e+02
1.121498879339322685e-01 -3.320829813070413472e+00 3.740000000000000000e+02
7.587700005066260189e-01 -4.578558889627236006e+00 3.740000000000000000e+02
-2.815396192937472897e+00 3.919990164278455147e+00 3.750000000000000000e+02
-2.168776080364779091e+00 2.662261087721633057e+00 3.750000000000000000e+02
-1.522155967792085285e+00 1.404532011164810967e+00 3.750000000000000000e+02
-8.755358552193912569e-01 1.468029346079886555e-01 3.750000000000000000e+02
-2.289157426466973955e-01 -1.110926141948833656e+00 3.750000000000000000e+02
4.177043699259964105e-01 -2.368655218505655746e+00 3.750000000000000000e+02
1.064324482498690161e+00 -3.626384295062477836e+00 3.750000000000000000e+02
1.710944595071384189e+00 -4.884113371619299926e+00 3.750000000000000000e+02
2.357564707644078439e+00 -6.141842448176122460e+00 3.750000000000000000e+02
-2.815396192937472897e+00 3.919990164278455147e+00 3.760000000000000000e+02
-2.168776080364779091e+00 2.662261087721633057e+00 3.760000000000000000e+02
-1.522155967792085285e+00 1.404532011164810967e+00 3.760000000000000000e+02
-8.755358552193912569e-01 1.468029346079886555e-01 3.760000000000000000e+02
-2.289157426466973955e-01 -1.110926141948833656e+00 3.760000000000000000e+02
4.177043699259964105e-01 -2.368655218505655746e+00 3.760000000000000000e+02
1.064324482498690161e+00 -3.626384295062477836e+00 3.760000000000000000e+02
1.710944595071384189e+00 -4.884113371619299926e+00 3.760000000000000000e+02
2.357564707644078439e+00 -6.141842448176122460e+00 3.760000000000000000e+02
-2.815396192937472897e+00 3.919990164278455147e+00 3.770000000000000000e+02
-2.168776080364779091e+00 2.662261087721633057e+00 3.770000000000000000e+02
-1.522155967792085285e+00 1.404532011164810967e+00 3.770000000000000000e+02
-8.755358552193912569e-01 1.468029346079886555e-01 3.770000000000000000e+02
-2.289157426466973955e-01 -1.110926141948833656e+00 3.770000000000000000e+02
4.177043699259964105e-01 -2.368655218505655746e+00 3.770000000000000000e+02
1.064324482498690161e+00 -3.626384295062477836e+00 3.770000000000000000e+02
1.710944595071384189e+00 -4.884113371619299926e+00 3.770000000000000000e+02
-2.815396192937472897e+00 3.919990164278455147e+00 3.780000000000000000e+02
-2.168776080364779091e+00 2.662261087721633057e+00 3.780000000000000000e+02
-1.522155967792085285e+00 1.404532011164810967e+00 3.780000000000000000e+02
-8.755358552193912569e-01 1.468029346079886555e-01 3.780000000000000000e+02
-2.289157426466973955e-01 -1.110926141948833656e+00 3.780000000000000000e+02
4.177043699259964105e-01 -2.368655218505655746e+00 3.780000000000000000e+02
1.064324482498690161e+00 -3.626384295062477836e+00 3.780000000000000000e+02
1.710944595071384189e+00 -4.884113371619299926e+00 3.780000000000000000e+02
-2.815396192937472897e+00 3.919990164278455147e+00 3.790000000000000000e+02
-2.168776080364779091e+00 2.662261087721633057e+00 3.790000000000000000e+02
-1.522155967792085285e+00 1.404532011164810967e+00 3.790000000000000000e+02
-8.755358552193912569e-01 1.468029346079886555e-01 3.790000000000000000e+02
-2.289157426466973955e-01 -1.110926141948833656e+00 3.790000000000000000e+02
4.177043699259964105e-01 -2.368655218505655746e+00 3.790000000000000000e+02
1.064324482498690161e+00 -3.626384295062477836e+00 3.790000000000000000e+02
1.710944595071384189e+00 -4.884113371619299926e+00 3.790000000000000000e+02
-3.120950674929537261e+00 2.967815569713697421e+00 3.800000000000000000e+02
-2.474330562356843011e+00 1.710086493156874887e+00 3.800000000000000000e+02
-1.827710449784149427e+00 4.523574166000529084e-01 3.800000000000000000e+02
-1.181090337211455399e+00 -8.053716599567694034e-01 3.800000000000000000e+02
-5.344702246387615929e-01 -2.063100736513591382e+00 3.800000000000000000e+02
1.121498879339322685e-01 -3.320829813070413472e+00 3.800000000000000000e+02
7.587700005066260189e-01 -4.578558889627236006e+00 3.800000000000000000e+02
-2.815396192937472897e+00 3.919990164278455147e+00 3.810000000000000000e+02
-2.168776080364779091e+00 2.662261087721633057e+00 3.810000000000000000e+02
-1.522155967792085285e+00 1.404532011164810967e+00 3.810000000000000000e+02
-8.755358552193912569e-01 1.468029346079886555e-01 3.810000000000000000e+02
-2.289157426466973955e-01 -1.110926141948833656e+00 3.810000000000000000e+02
4.177043699259964105e-01 -2.368655218505655746e+00 3.810000000000000000e+02
1.064324482498690161e+00 -3.626384295062477836e+00 3.810000000000000000e+02
1.710944595071384189e+00 -4.884113371619299926e+00 3.810000000000000000e+02
-3.120950674929537261e+00 2.967815569713697421e+00 3.820000000000000000e+02
-2.474330562356843011e+00 1.710086493156874887e+00 3.820000000000000000e+02
-1.827710449784149427e+00 4.523574166000529084e-01 3.820000000000000000e+02
-1.181090337211455399e+00 -8.053716599567694034e-01 3.820000000000000000e+02
-5.344702246387615929e-01 -2.063100736513591382e+00 3.820000000000000000e+02
1.121498879339322685e-01 -3.320829813070413472e+00 3.820000000000000000e+02
7.587700005066260189e-01 -4.578558889627236006e+00 3.820000000000000000e+02
-2.815396192937472897e+00 3.919990164278455147e+00 3.830000000000000000e+02
-2.168776080364779091e+00 2.662261087721633057e+00 3.830000000000000000e+02
-1.522155967792085285e+00 1.404532011164810967e+00 3.830000000000000000e+02
-8.755358552193912569e-01 1.468029346079886555e-01 3.830000000000000000e+02
-2.289157426466973955e-01 -1.110926141948833656e+00 3.830000000000000000e+02
4.177043699259964105e-01 -2.368655218505655746e+00 3.830000000000000000e+02
1.064324482498690161e+00 -3.626384295062477836e+00 3.830000000000000000e+02
1.710944595071384189e+00 -4.884113371619299926e+00 3.830000000000000000e+02
-2.815396192937472897e+00 3.919990164278455147e+00 3.840000000000000000e+02
-2.168776080364779091e+00 2.662261087721633057e+00 3.840000000000000000e+02
-1.522155967792085285e+00 1.404532011164810967e+00 3.840000000000000000e+02
-8.755358552193912569e-01 1.468029346079886555e-01 3.840000000000000000e+02
-2.289157426466973955e-01 -1.110926141948833656e+00 3.840000000000000000e+02
4.177043699259964105e-01 -2.368655218505655746e+00 3.840000000000000000e+02
1.064324482498690161e+00 -3.626384295062477836e+00 3.840000000000000000e+02
1.710944595071384189e+00 -4.884113371619299926e+00 3.840000000000000000e+02
-2.815396192937472897e+00 3.919990164278455147e+00 3.850000000000000000e+02
-2.168776080364779091e+00 2.662261087721633057e+00 3.850000000000000000e+02
-1.522155967792085285e+00 1.404532011164810967e+00 3.850000000000000000e+02
-8.755358552193912569e-01 1.468029346079886555e-01 3.850000000000000000e+02
-2.289157426466973955e-01 -1.110926141948833656e+00 3.850000000000000000e+02
4.177043699259964105e-01 -2.368655218505655746e+00 3.850000000000000000e+02
1.064324482498690161e+00 -3.626384295062477836e+00 3.850000000000000000e+02
1.710944595071384189e+00 -4.884113371619299926e+00 3.850000000000000000e+02
-2.815396192937472897e+00 3.919990164278455147e+00 3.860000000000000000e+02
-2.168776080364779091e+00 2.662261087721633057e+00 3.860000000000000000e+02
-1.522155967792085285e+00 1.404532011164810967e+00 3.860000000000000000e+02
-8.755358552193912569e-01 1.468029346079886555e-01 3.860000000000000000e+02
-2.289157426466973955e-01 -1.110926141948833656e+00 3.860000000000000000e+02
4.177043699259964105e-01 -2.368655218505655746e+00 3.860000000000000000e+02
1.064324482498690161e+00 -3.626384295062477836e+00 3.860000000000000000e+02
1.710944595071384189e+00 -4.884113371619299926e+00 3.860000000000000000e+02
-2.815396192937472897e+00 3.919990164278455147e+00 3.870000000000000000e+02
-2.168776080364779091e+00 2.662261087721633057e+00 3.870000000000000000e+02
-1.522155967792085285e+00 1.404532011164810967e+00 3.870000000000000000e+02
-8.755358552193912569e-01 1.468029346079886555e-01 3.870000000000000000e+02
-2.289157426466973955e-01 -1.110926141948833656e+00 3.870000000000000000e+02
4.177043699259964105e-01 -2.368655218505655746e+00 3.870000000000000000e+02
1.064324482498690161e+00 -3.626384295062477836e+00 3.870000000000000000e+02
1.710944595071384189e+00 -4.884113371619299926e+00 3.870000000000000000e+02
-2.815396192937472897e+00 3.919990164278455147e+00 3.880000000000000000e+02
-2.168776080364779091e+00 2.662261087721633057e+00 3.880000000000000000e+02
-1.522155967792085285e+00 1.404532011164810967e+00 3.880000000000000000e+02
-8.755358552193912569e-01 1.468029346079886555e-01 3.880000000000000000e+02
-2.289157426466973955e-01 -1.110926141948833656e+00 3.880000000000000000e+02
4.177043699259964105e-01 -2.368655218505655746e+00 3.880000000000000000e+02
1.064324482498690161e+00 -3.626384295062477836e+00 3.880000000000000000e+02
1.710944595071384189e+00 -4.884113371619299926e+00 3.880000000000000000e+02
-2.815396192937472897e+00 3.919990164278455147e+00 3.890000000000000000e+02
-2.168776080364779091e+00 2.662261087721633057e+00 3.890000000000000000e+02
-1.522155967792085285e+00 1.404532011164810967e+00 3.890000000000000000e+02
-8.755358552193912569e-01 1.468029346079886555e-01 3.890000000000000000e+02
-2.289157426466973955e-01 -1.110926141948833656e+00 3.890000000000000000e+02
4.177043699259964105e-01 -2.368655218505655746e+00 3.890000000000000000e+02
1.064324482498690161e+00 -3.626384295062477836e+00 3.890000000000000000e+02
1.710944595071384189e+00 -4.884113371619299926e+00 3.890000000000000000e+02
-2.815396192937472897e+00 3.919990164278455147e+00 3.900000000000000000e+02
-2.168776080364779091e+00 2.662261087721633057e+00 3.900000000000000000e+02
-1.522155967792085285e+00 1.404532011164810967e+00 3.900000000000000000e+02
-8.755358552193912569e-01 1.468029346079886555e-01 3.900000000000000000e+02
-2.289157426466973955e-01 -1.110926141948833656e+00 3.900000000000000000e+02
4.177043699259964105e-01 -2.368655218505655746e+00 3.900000000000000000e+02
1.064324482498690161e+00 -3.626384295062477836e+00 3.900000000000000000e+02
1.710944595071384189e+00 -4.884113371619299926e+00 3.900000000000000000e+02
-2.815396192937472897e+00 3.919990164278455147e+00 3.910000000000000000e+02
-2.168776080364779091e+00 2.662261087721633057e+00 3.910000000000000000e+02
-1.522155967792085285e+00 1.404532011164810967e+00 3.910000000000000000e+02
-8.755358552193912569e-01 1.468029346079886555e-01 3.910000000000000000e+02
-2.289157426466973955e-01 -1.110926141948833656e+00 3.910000000000000000e+02
4.177043699259964105e-01 -2.368655218505655746e+00 3.910000000000000000e+02
1.064324482498690161e+00 -3.626384295062477836e+00 3.910000000000000000e+02
1.710944595071384189e+00 -4.884113371619299926e+00 3.910000000000000000e+02
-2.815396192937472897e+00 3.919990164278455147e+00 3.920000000000000000e+02
-2.168776080364779091e+00 2.662261087721633057e+00 3.920000000000000000e+02
-1.522155967792085285e+00 1.404532011164810967e+00 3.920000000000000000e+02
-8.755358552193912569e-01 1.468029346079886555e-01 3.920000000000000000e+02
-2.289157426466973955e-01 -1.110926141948833656e+00 3.920000000000000000e+02
4.177043699259964105e-01 -2.368655218505655746e+00 3.920000000000000000e+02
1.064324482498690161e+00 -3.626384295062477836e+00 3.920000000000000000e+02
1.710944595071384189e+00 -4.884113371619299926e+00 3.920000000000000000e+02
-2.815396192937472897e+00 3.919990164278455147e+00 3.930000000000000000e+02
-2.168776080364779091e+00 2.662261087721633057e+00 3.930000000000000000e+02
-1.522155967792085285e+00 1.404532011164810967e+00 3.930000000000000000e+02
-8.755358552193912569e-01 1.468029346079886555e-01 3.930000000000000000e+02
-2.289157426466973955e-01 -1.110926141948833656e+00 3.930000000000000000e+02
4.177043699259964105e-01 -2.368655218505655746e+00 3.930000000000000000e+02
1.064324482498690161e+00 -3.626384295062477836e+00 3.930000000000000000e+02
1.710944595071384189e+00 -4.884113371619299926e+00 3.930000000000000000e+02
-2.815396192937472897e+00 3.919990164278455147e+00 3.940000000000000000e+02
-2.168776080364779091e+00 2.662261087721633057e+00 3.940000000000000000e+02
-1.522155967792085285e+00 1.404532011164810967e+00 3.940000000000000000e+02
-8.755358552193912569e-01 1.468029346079886555e-01 3.940000000000000000e+02
-2.289157426466973955e-01 -1.110926141948833656e+00 3.940000000000000000e+02
4.177043699259964105e-01 -2.368655218505655746e+00 3.940000000000000000e+02
1.064324482498690161e+00 -3.626384295062477836e+00 3.940000000000000000e+02
1.710944595071384189e+00 -4.884113371619299926e+00 3.940000000000000000e+02
-2.815396192937472897e+00 3.919990164278455147e+00 3.950000000000000000e+02
-2.168776080364779091e+00 2.662261087721633057e+00 3.950000000000000000e+02
-1.522155967792085285e+00 1.404532011164810967e+00 3.950000000000000000e+02
-8.755358552193912569e-01 1.468029346079886555e-01 3.950000000000000000e+02
-2.289157426466973955e-01 -1.110926141948833656e+00 3.950000000000000000e+02
4.177043699259964105e-01 -2.368655218505655746e+00 3.950000000000000000e+02
1.064324482498690161e+00 -3.626384295062477836e+00 3.950000000000000000e+02
1.710944595071384189e+00 -4.884113371619299926e+00 3.950000000000000000e+02
-3.120950674929537261e+00 2.967815569713697421e+00 3.960000000000000000e+02
-2.474330562356843011e+00 1.710086493156874887e+00 3.960000000000000000e+02
-1.827710449784149427e+00 4.523574166000529084e-01 3.960000000000000000e+02
-1.181090337211455399e+00 -8.053716599567694034e-01 3.960000000000000000e+02
-5.344702246387615929e-01 -2.063100736513591382e+00 3.960000000000000000e+02
1.121498879339322685e-01 -3.320829813070413472e+00 3.960000000000000000e+02
7.587700005066260189e-01 -4.578558889627236006e+00 3.960000000000000000e+02
-2.815396192937472897e+00 3.919990164278455147e+00 3.970000000000000000e+02
-2.168776080364779091e+00 2.662261087721633057e+00 3.970000000000000000e+02
-1.522155967792085285e+00 1.404532011164810967e+00 3.970000000000000000e+02
-8.755358552193912569e-01 1.468029346079886555e-01 3.970000000000000000e+02
-2.289157426466973955e-01 -1.110926141948833656e+00 3.970000000000000000e+02
4.177043699259964105e-01 -2.368655218505655746e+00 3.970000000000000000e+02
1.064324482498690161e+00 -3.626384295062477836e+00 3.970000000000000000e+02
1.710944595071384189e+00 -4.884113371619299926e+00 3.970000000000000000e+02
-2.815396192937472897e+00 3.919990164278455147e+00 3.980000000000000000e+02
-2.168776080364779091e+00 2.662261087721633057e+00 3.980000000000000000e+02
-1.522155967792085285e+00 1.404532011164810967e+00 3.980000000000000000e+02
-8.755358552193912569e-01 1.468029346079886555e-01 3.980000000000000000e+02
-2.289157426466973955e-01 -1.110926141948833656e+00 3.980000000000000000e+02
4.177043699259964105e-01 -2.368655218505655746e+00 3.980000000000000000e+02
1.064324482498690161e+00 -3.626384295062477836e+00 3.980000000000000000e+02
1.710944595071384189e+00 -4.884113371619299926e+00 3.980000000000000000e+02
-2.815396192937472897e+00 3.919990164278455147e+00 3.990000000000000000e+02
-2.168776080364779091e+00 2.662261087721633057e+00 3.990000000000000000e+02
-1.522155967792085285e+00 1.404532011164810967e+00 3.990000000000000000e+02
-8.755358552193912569e-01 1.468029346079886555e-01 3.990000000000000000e+02
-2.289157426466973955e-01 -1.110926141948833656e+00 3.990000000000000000e+02
4.177043699259964105e-01 -2.368655218505655746e+00 3.990000000000000000e+02
1.064324482498690161e+00 -3.626384295062477836e+00 3.990000000000000000e+02
1.710944595071384189e+00 -4.884113371619299926e+00 3.990000000000000000e+02
2.357564707644078439e+00 -6.141842448176122460e+00 3.990000000000000000e+02
-2.815396192937472897e+00 3.919990164278455147e+00 4.000000000000000000e+02
