-7.447196538921900810e-01 1.189575593371159368e+00 3.370000000000000000e+02
-1.638061563168445423e+00 2.285905941911531958e+00 3.370000000000000000e+02
-2.531403472444701208e+00 3.382236290451904992e+00 3.370000000000000000e+02
-3.424745381720956772e+00 4.478566638992277582e+00 3.370000000000000000e+02
2.828647983212831285e+00 -3.195745800790330549e+00 3.380000000000000000e+02
1.935306073936575944e+00 -2.099415452249957958e+00 3.380000000000000000e+02
1.041964164660320824e+00 -1.003085103709585368e+00 3.380000000000000000e+02
1.486222553840653715e-01 9.324524483078694415e-02 3.380000000000000000e+02
-7.447196538921900810e-01 1.189575593371159368e+00 3.380000000000000000e+02
-1.638061563168445423e+00 2.285905941911531958e+00 3.380000000000000000e+02
-2.531403472444701208e+00 3.382236290451904992e+00 3.380000000000000000e+02
-3.424745381720956772e+00 4.478566638992277582e+00 3.380000000000000000e+02
2.828647983212831285e+00 -3.195745800790330549e+00 3.390000000000000000e+02
1.935306073936575944e+00 -2.099415452249957958e+00 3.390000000000000000e+02
1.041964164660320824e+00 -1.003085103709585368e+00 3.390000000000000000e+02
1.486222553840653715e-01 9.324524483078694415e-02 3.390000000000000000e+02
-7.447196538921900810e-01 1.189575593371159368e+00 3.390000000000000000e+02
-1.638061563168445423e+00 2.285905941911531958e+00 3.390000000000000000e+02
-2.531403472444701208e+00 3.382236290451904992e+00 3.390000000000000000e+02
-3.424745381720956772e+00 4.478566638992277582e+00 3.390000000000000000e+02
2.828647983212831285e+00 -3.195745800790330549e+00 3.400000000000000000e+02
1.935306073936575944e+00 -2.099415452249957958e+00 3.400000000000000000e+02
1.041964164660320824e+00 -1.003085103709585368e+00 3.400000000000000000e+02
1.486222553840653715e-01 9.324524483078694415e-02 3.400000000000000000e+02
-7.447196538921900810e-01 1.189575593371159368e+00 3.400000000000000000e+02
-1.638061563168445423e+00 2.285905941911531958e+00 3.400000000000000000e+02
-2.531403472444701208e+00 3.382236290451904992e+00 3.400000000000000000e+02
-3.424745381720956772e+00 4.478566638992277582e+00 3.400000000000000000e+02
2.828647983212831285e+00 -3.195745800790330549e+00 3.410000000000000000e+02
1.935306073936575944e+00 -2.099415452249957958e+00 3.410000000000000000e+02
1.041964164660320824e+00 -1.003085103709585368e+00 3.410000000000000000e+02
1.486222553840653715e-01 9.324524483078694415e-02 3.410000000000000000e+02
-7.447196538921900810e-01 1.189575593371159368e+00 3.410000000000000000e+02
-1.638061563168445423e+00 2.285905941911531958e+00 3.410000000000000000e+02
-2.531403472444701208e+00 3.382236290451904992e+00 3.410000000000000000e+02
-3.424745381720956772e+00 4.478566638992277582e+00 3.410000000000000000e+02
2.828647983212831285e+00 -3.195745800790330549e+00 3.420000000000000000e+02
1.935306073936575944e+00 -2.099415452249957958e+00 3.420000000000000000e+02
1.041964164660320824e+00 -1.003085103709585368e+00 3.420000000000000000e+02
1.486222553840653715e-01 9.324524483078694415e-02 3.420000000000000000e+02
-7.447196538921900810e-01 1.189575593371159368e+00 3.420000000000000000e+02
-1.638061563168445423e+00 2.285905941911531958e+00 3.420000000000000000e+02
-2.531403472444701208e+00 3.382236290451904992e+00 3.420000000000000000e+02
-3.424745381720956772e+00 4.478566638992277582e+00 3.420000000000000000e+02
2.828647983212831285e+00 -3.195745800790330549e+00 3.430000000000000000e+02
1.935306073936575944e+00 -2.099415452249957958e+00 3.430000000000000000e+02
1.041964164660320824e+00 -1.003085103709585368e+00 3.430000000000000000e+02
1.486222553840653715e-01 9.324524483078694415e-02 3.430000000000000000e+02
-7.447196538921900810e-01 1.189575593371159368e+00 3.430000000000000000e+02
-1.638061563168445423e+00 2.285905941911531958e+00 3.430000000000000000e+02
-2.531403472444701208e+00 3.382236290451904992e+00 3.430000000000000000e+02
-3.424745381720956772e+00 4.478566638992277582e+00 3.430000000000000000e+02
2.828647983212831285e+00 -3.195745800790330549e+00 3.440000000000000000e+02
1.935306073936575944e+00 -2.099415452249957958e+00 3.440000000000000000e+02
1.041964164660320824e+00 -1.003085103709585368e+00 3.440000000000000000e+02
1.486222553840653715e-01 9.324524483078694415e-02 3.440000000000000000e+02
-7.447196538921900810e-01 1.189575593371159368e+00 3.440000000000000000e+02
-1.638061563168445423e+00 2.285905941911531958e+00 3.440000000000000000e+02
-2.531403472444701208e+00 3.382236290451904992e+00 3.440000000000000000e+02
-3.424745381720956772e+00 4.478566638992277582e+00 3.440000000000000000e+02
2.828647983212831285e+00 -3.195745800790330549e+00 3.450000000000000000e+02
1.935306073936575944e+00 -2.099415452249957958e+00 3.450000000000000000e+02
1.041964164660320824e+00 -1.003085103709585368e+00 3.450000000000000000e+02
1.486222553840653715e-01 9.324524483078694415e-02 3.450000000000000000e+02
-7.447196538921900810e-01 1.189575593371159368e+00 3.450000000000000000e+02
-1.638061563168445423e+00 2.285905941911531958e+00 3.450000000000000000e+02
-2.531403472444701208e+00 3.382236290451904992e+00 3.450000000000000000e+02
-3.424745381720956772e+00 4.478566638992277582e+00 3.450000000000000000e+02
2.828647983212831285e+00 -3.195745800790330549e+00 3.460000000000000000e+02
1.935306073936575944e+00 -2.099415452249957958e+00 3.460000000000000000e+02
1.041964164660320824e+00 -1.003085103709585368e+00 3.460000000000000000e+02
1.486222553840653715e-01 9.324524483078694415e-02 3.460000000000000000e+02
-7.447196538921900810e-01 1.189575593371159368e+00 3.460000000000000000e+02
-1.638061563168445423e+00 2.285905941911531958e+00 3.460000000000000000e+02
-2.531403472444701208e+00 3.382236290451904992e+00 3.460000000000000000e+02
-3.424745381720956772e+00 4.478566638992277582e+00 3.460000000000000000e+02
2.828647983212831285e+00 -3.195745800790330549e+00 3.470000000000000000e+02
1.935306073936575944e+00 -2.099415452249957958e+00 3.470000000000000000e+02
1.041964164660320824e+00 -1.003085103709585368e+00 3.470000000000000000e+02
1.486222553840653715e-01 9.324524483078694415e-02 3.470000000000000000e+02
-7.447196538921900810e-01 1.189575593371159368e+00 3.470000000000000000e+02
-1.638061563168445423e+00 2.285905941911531958e+00 3.470000000000000000e+02
-2.531403472444701208e+00 3.382236290451904992e+00 3.470000000000000000e+02
-3.424745381720956772e+00 4.478566638992277582e+00 3.470000000000000000e+02
2.828647983212831285e+00 -3.195745800790330549e+00 3.480000000000000000e+02
1.935306073936575944e+00 -2.099415452249957958e+00 3.480000000000000000e+02
1.041964164660320824e+00 -1.003085103709585368e+00 3.480000000000000000e+02
1.486222553840653715e-01 9.324524483078694415e-02 3.480000000000000000e+02
-7.447196538921900810e-01 1.189575593371159368e+00 3.480000000000000000e+02
-1.638061563168445423e+00 2.285905941911531958e+00 3.480000000000000000e+02
-2.531403472444701208e+00 3.382236290451904992e+00 3.480000000000000000e+02
-3.424745381720956772e+00 4.478566638992277582e+00 3.480000000000000000e+02
2.828647983212831285e+00 -3.195745800790330549e+00 3.490000000000000000e+02
1.935306073936575944e+00 -2.099415452249957958e+00 3.490000000000000000e+02
1.041964164660320824e+00 -1.003085103709585368e+00 3.490000000000000000e+02
1.486222553840653715e-01 9.324524483078694415e-02 3.490000000000000000e+02
-7.447196538921900810e-01 1.189575593371159368e+00 3.490000000000000000e+02
-1.638061563168445423e+00 2.285905941911531958e+00 3.490000000000000000e+02
-2.531403472444701208e+00 3.382236290451904992e+00 3.490000000000000000e+02
-3.424745381720956772e+00 4.478566638992277582e+00 3.490000000000000000e+02
2.828647983212831285e+00 -3.195745800790330549e+00 3.500000000000000000e+02
1.935306073936575944e+00 -2.099415452249957958e+00 3.500000000000000000e+02
1.041964164660320824e+00 -1.003085103709585368e+00 3.500000000000000000e+02
1.486222553840653715e-01 9.324524483078694415e-02 3.500000000000000000e+02
-7.447196538921900810e-01 1.189575593371159368e+00 3.500000000000000000e+02
-1.638061563168445423e+00 2.285905941911531958e+00 3.500000000000000000e+02
-2.531403472444701208e+00 3.382236290451904992e+00 3.500000000000000000e+02
-3.424745381720956772e+00 4.478566638992277582e+00 3.500000000000000000e+02
2.828647983212831285e+00 -3.195745800790330549e+00 3.510000000000000000e+02
1.935306073936575944e+00 -2.099415452249957958e+00 3.510000000000000000e+02
1.041964164660320824e+00 -1.003085103709585368e+00 3.510000000000000000e+02
1.486222553840653715e-01 9.324524483078694415e-02 3.510000000000000000e+02
-7.447196538921900810e-01 1.189575593371159368e+00 3.510000000000000000e+02
-1.638061563168445423e+00 2.285905941911531958e+00 3.510000000000000000e+02
-2.531403472444701208e+00 3.382236290451904992e+00 3.510000000000000000e+02
-3.424745381720956772e+00 4.478566638992277582e+00 3.510000000000000000e+02
2.828647983212831285e+00 -3.195745800790330549e+00 3.520000000000000000e+02
1.935306073936575944e+00 -2.099415452249957958e+00 3.520000000000000000e+02
1.041964164660320824e+00 -1.003085103709585368e+00 3.520000000000000000e+02
1.486222553840653715e-01 9.324524483078694415e-02 3.520000000000000000e+02
-7.447196538921900810e-01 1.189575593371159368e+00 3.520000000000000000e+02
-1.638061563168445423e+00 2.285905941911531958e+00 3.520000000000000000e+02
-2.531403472444701208e+00 3.382236290451904992e+00 3.520000000000000000e+02
-3.424745381720956772e+00 4.478566638992277582e+00 3.520000000000000000e+02
2.828647983212831285e+00 -3.195745800790330549e+00 3.530000000000000000e+02
1.935306073936575944e+00 -2.099415452249957958e+00 3.530000000000000000e+02
1.041964164660320824e+00 -1.003085103709585368e+00 3.530000000000000000e+02
1.486222553840653715e-01 9.324524483078694415e-02 3.530000000000000000e+02
-7.447196538921900810e-01 1.189575593371159368e+00 3.530000000000000000e+02
-1.638061563168445423e+00 2.285905941911531958e+00 3.530000000000000000e+02
-2.531403472444701208e+00 3.382236290451904992e+00 3.530000000000000000e+02
-3.424745381720956772e+00 4.478566638992277582e+00 3.530000000000000000e+02
2.828647983212831285e+00 -3.195745800790330549e+00 3.540000000000000000e+02
1.935306073936575944e+00 -2.099415452249957958e+00 3.540000000000000000e+02
1.041964164660320824e+00 -1.003085103709585368e+00 3.540000000000000000e+02
1.486222553840653715e-01 9.324524483078694415e-02 3.540000000000000000e+02
-7.447196538921900810e-01 1.189575593371159368e+00 3.540000000000000000e+02
-1.638061563168445423e+00 2.285905941911531958e+00 3.540000000000000000e+02
-2.531403472444701208e+00 3.382236290451904992e+00 3.540000000000000000e+02
-3.424745381720956772e+00 4.478566638992277582e+00 3.540000000000000000e+02
2.828647983212831285e+00 -3.195745800790330549e+00 3.550000000000000000e+02
1.935306073936575944e+00 -2.099415452249957958e+00 3.550000000000000000e+02
1.041964164660320824e+00 -1.003085103709585368e+00 3.550000000000000000e+02
1.486222553840653715e-01 9.324524483078694415e-02 3.550000000000000000e+02
-7.447196538921900810e-01 1.189575593371159368e+00 3.550000000000000000e+02
-1.638061563168445423e+00 2.285905941911531958e+00 3.550000000000000000e+02
-2.531403472444701208e+00 3.382236290451904992e+00 3.550000000000000000e+02
-3.424745381720956772e+00 4.478566638992277582e+00 3.550000000000000000e+02
2.828647983212831285e+00 -3.195745800790330549e+00 3.560000000000000000e+02
1.935306073936575944e+00 -2.099415452249957958e+00 3.560000000000000000e+02
1.041964164660320824e+00 -1.003085103709585368e+00 3.560000000000000000e+02
1.486222553840653715e-01 9.324524483078694415e-02 3.560000000000000000e+02
-7.447196538921900810e-01 1.189575593371159368e+00 3.560000000000000000e+02
-1.638061563168445423e+00 2.285905941911531958e+00 3.560000000000000000e+02
-2.531403472444701208e+00 3.382236290451904992e+00 3.560000000000000000e+02
-3.424745381720956772e+00 4.478566638992277582e+00 3.560000000000000000e+02
2.828647983212831285e+00 -3.195745800790330549e+00 3.570000000000000000e+02
1.935306073936575944e+00 -2.099415452249957958e+00 3.570000000000000000e+02
1.041964164660320824e+00 -1.003085103709585368e+00 3.570000000000000000e+02
1.486222553840653715e-01 9.324524483078694415e-02 3.570000000000000000e+02
-7.447196538921900810e-01 1.189575593371159368e+00 3.570000000000000000e+02
-1.638061563168445423e+00 2.285905941911531958e+00 3.570000000000000000e+02
-2.531403472444701208e+00 3.382236290451904992e+00 3.570000000000000000e+02
-3.424745381720956772e+00 4.478566638992277582e+00 3.570000000000000000e+02
2.828647983212831285e+00 -3.195745800790330549e+00 3.580000000000000000e+02
1.935306073936575944e+00 -2.099415452249957958e+00 3.580000000000000000e+02
1.041964164660320824e+00 -1.003085103709585368e+00 3.580000000000000000e+02
1.486222553840653715e-01 9.324524483078694415e-02 3.580000000000000000e+02
-7.447196538921900810e-01 1.189575593371159368e+00 3.580000000000000000e+02
-1.638061563168445423e+00 2.285905941911531958e+00 3.580000000000000000e+02
-2.531403472444701208e+00 3.382236290451904992e+00 3.580000000000000000e+02
-3.424745381720956772e+00 4.478566638992277582e+00 3.580000000000000000e+02
2.828647983212831285e+00 -3.195745800790330549e+00 3.590000000000000000e+02
1.935306073936575944e+00 -2.099415452249957958e+00 3.590000000000000000e+02
1.041964164660320824e+00 -1.003085103709585368e+00 3.590000000000000000e+02
1.486222553840653715e-01 9.324524483078694415e-02 3.590000000000000000e+02
-7.447196538921900810e-01 1.189575593371159368e+00 3.590000000000000000e+02
-1.638061563168445423e+00 2.285905941911531958e+00 3.590000000000000000e+02
-2.531403472444701208e+00 3.382236290451904992e+00 3.590000000000000000e+02
-3.424745381720956772e+00 4.478566638992277582e+00 3.590000000000000000e+02
2.828647983212831285e+00 -3.195745800790330549e+00 3.600000000000000000e+02
1.935306073936575944e+00 -2.099415452249957958e+00 3.600000000000000000e+02
1.041964164660320824e+00 -1.003085103709585368e+00 3.600000000000000000e+02
1.486222553840653715e-01 9.324524483078694415e-02 3.600000000000000000e+02
-7.447196538921900810e-01 1.189575593371159368e+00 3.600000000000000000e+02
-1.638061563168445423e+00 2.285905941911531958e+00 3.600000000000000000e+02
-2.531403472444701208e+00 3.382236290451904992e+00 3.600000000000000000e+02
-3.424745381720956772e+00 4.478566638992277582e+00 3.600000000000000000e+02
2.828647983212831285e+00 -3.195745800790330549e+00 3.610000000000000000e+02
1.935306073936575944e+00 -2.099415452249957958e+00 3.610000000000000000e+02
1.041964164660320824e+00 -1.003085103709585368e+00 3.610000000000000000e+02
1.486222553840653715e-01 9.324524483078694415e-02 3.610000000000000000e+02
-7.447196538921900810e-01 1.189575593371159368e+00 3.610000000000000000e+02
-1.638061563168445423e+00 2.285905941911531958e+00 3.610000000000000000e+02
-2.531403472444701208e+00 3.382236290451904992e+00 3.610000000000000000e+02
-3.424745381720956772e+00 4.478566638992277582e+00 3.610000000000000000e+02
2.828647983212831285e+00 -3.195745800790330549e+00 3.620000000000000000e+02
1.935306073936575944e+00 -2.099415452249957958e+00 3.620000000000000000e+02
1.041964164660320824e+00 -1.003085103709585368e+00 3.620000000000000000e+02
1.486222553840653715e-01 9.324524483078694415e-02 3.620000000000000000e+02
-7.447196538921900810e-01 1.189575593371159368e+00 3.620000000000000000e+02
-1.638061563168445423e+00 2.285905941911531958e+00 3.620000000000000000e+02
-2.531403472444701208e+00 3.382236290451904992e+00 3.620000000000000000e+02
-3.424745381720956772e+00 4.478566638992277582e+00 3.620000000000000000e+02
2.828647983212831285e+00 -3.195745800790330549e+00 3.630000000000000000e+02
1.935306073936575944e+00 -2.099415452249957958e+00 3.630000000000000000e+02
1.041964164660320824e+00 -1.003085103709585368e+00 3.630000000000000000e+02
1.486222553840653715e-01 9.324524483078694415e-02 3.630000000000000000e+02
-7.447196538921900810e-01 1.189575593371159368e+00 3.630000000000000000e+02
-1.638061563168445423e+00 2.285905941911531958e+00 3.630000000000000000e+02
-2.531403472444701208e+00 3.382236290451904992e+00 3.630000000000000000e+02
-3.424745381720956772e+00 4.478566638992277582e+00 3.630000000000000000e+02
2.828647983212831285e+00 -3.195745800790330549e+00 3.640000000000000000e+02
1.935306073936575944e+00 -2.099415452249957958e+00 3.640000000000000000e+02
1.041964164660320824e+00 -1.003085103709585368e+00 3.640000000000000000e+02
1.486222553840653715e-01 9.324524483078694415e-02 3.640000000000000000e+02
-7.447196538921900810e-01 1.189575593371159368e+00 3.640000000000000000e+02
-1.638061563168445423e+00 2.285905941911531958e+00 3.640000000000000000e+02
-2.531403472444701208e+00 3.382236290451904992e+00 3.640000000000000000e+02
-3.424745381720956772e+00 4.478566638992277582e+00 3.640000000000000000e+02
2.828647983212831285e+00 -3.195745800790330549e+00 3.650000000000000000e+02
1.935306073936575944e+00 -2.099415452249957958e+00 3.650000000000000000e+02
1.041964164660320824e+00 -1.003085103709585368e+00 3.650000000000000000e+02
1.486222553840653715e-01 9.324524483078694415e-02 3.650000000000000000e+02
-7.447196538921900810e-01 1.189575593371159368e+00 3.650000000000000000e+02
-1.638061563168445423e+00 2.285905941911531958e+00 3.650000000000000000e+02
-2.531403472444701208e+00 3.382236290451904992e+00 3.650000000000000000e+02
-3.424745381720956772e+00 4.478566638992277582e+00 3.650000000000000000e+02
2.828647983212831285e+00 -3.195745800790330549e+00 3.660000000000000000e+02
1.935306073936575944e+00 -2.099415452249957958e+00 3.660000000000000000e+02
1.041964164660320824e+00 -1.003085103709585368e+00 3.660000000000000000e+02
1.486222553840653715e-01 9.324524483078694415e-02 3.660000000000000000e+02
-7.447196538921900810e-01 1.189575593371159368e+00 3.660000000000000000e+02
-1.638061563168445423e+00 2.285905941911531958e+00 3.660000000000000000e+02
-2.531403472444701208e+00 3.382236290451904992e+00 3.660000000000000000e+02
-3.424745381720956772e+00 4.478566638992277582e+00 3.660000000000000000e+02
2.828647983212831285e+00 -3.195745800790330549e+00 3.670000000000000000e+02
1.935306073936575944e+00 -2.099415452249957958e+00 3.670000000000000000e+02
1.041964164660320824e+00 -1.003085103709585368e+00 3.670000000000000000e+02
1.486222553840653715e-01 9.324524483078694415e-02 3.670000000000000000e+02
-7.447196538921900810e-01 1.189575593371159368e+00 3.670000000000000000e+02
-1.638061563168445423e+00 2.285905941911531958e+00 3.670000000000000000e+02
-2.531403472444701208e+00 3.382236290451904992e+00 3.670000000000000000e+02
-3.424745381720956772e+00 4.478566638992277582e+00 3.670000000000000000e+02
2.828647983212831285e+00 -3.195745800790330549e+00 3.680000000000000000e+02
1.935306073936575944e+00 -2.099415452249957958e+00 3.680000000000000000e+02
1.041964164660320824e+00 -1.003085103709585368e+00 3.680000000000000000e+02
1.486222553840653715e-01 9.324524483078694415e-02 3.680000000000000000e+02
-7.447196538921900810e-01 1.189575593371159368e+00 3.680000000000000000e+02
-1.638061563168445423e+00 2.285905941911531958e+00 3.680000000000000000e+02
-2.531403472444701208e+00 3.382236290451904992e+00 3.680000000000000000e+02
-3.424745381720956772e+00 4.478566638992277582e+00 3.680000000000000000e+02
2.828647983212831285e+00 -3.195745800790330549e+00 3.690000000000000000e+02
1.935306073936575944e+00 -2.099415452249957958e+00 3.690000000000000000e+02
1.041964164660320824e+00 -1.003085103709585368e+00 3.690000000000000000e+02
1.486222553840653715e-01 9.324524483078694415e-02 3.690000000000000000e+02
-7.447196538921900810e-01 1.189575593371159368e+00 3.690000000000000000e+02
-1.638061563168445423e+00 2.285905941911531958e+00 3.690000000000000000e+02
-2.531403472444701208e+00 3.382236290451904992e+00 3.690000000000000000e+02
-3.424745381720956772e+00 4.478566638992277582e+00 3.690000000000000000e+02
2.828647983212831285e+00 -3.195745800790330549e+00 3.700000000000000000e+02
1.935306073936575944e+00 -2.099415452249957958e+00 3.700000000000000000e+02
1.041964164660320824e+00 -1.003085103709585368e+00 3.700000000000000000e+02
1.486222553840653715e-01 9.324524483078694415e-02 3.700000000000000000e+02
-7.447196538921900810e-01 1.189575593371159368e+00 3.700000000000000000e+02
-1.638061563168445423e+00 2.285905941911531958e+00 3.700000000000000000e+02
-2.531403472444701208e+00 3.382236290451904992e+00 3.700000000000000000e+02
-3.424745381720956772e+00 4.478566638992277582e+00 3.700000000000000000e+02
2.828647983212831285e+00 -3.195745800790330549e+00 3.710000000000000000e+02
1.935306073936575944e+00 -2.099415452249957958e+00 3.710000000000000000e+02
1.041964164660320824e+00 -1.003085103709585368e+00 3.710000000000000000e+02
1.486222553840653715e-01 9.324524483078694415e-02 3.710000000000000000e+02
-7.447196538921900810e-01 1.189575593371159368e+00 3.710000000000000000e+02
-1.638061563168445423e+00 2.285905941911531958e+00 3.710000000000000000e+02
-2.531403472444701208e+00 3.382236290451904992e+00 3.710000000000000000e+02
-3.424745381720956772e+00 4.478566638992277582e+00 3.710000000000000000e+02
2.828647983212831285e+00 -3.195745800790330549e+00 3.720000000000000000e+02
1.935306073936575944e+00 -2.099415452249957958e+00 3.720000000000000000e+02
1.041964164660320824e+00 -1.003085103709585368e+00 3.720000000000000000e+02
1.486222553840653715e-01 9.324524483078694415e-02 3.720000000000000000e+02
-7.447196538921900810e-01 1.189575593371159368e+00 3.720000000000000000e+02
-1.638061563168445423e+00 2.285905941911531958e+00 3.720000000000000000e+02
-2.531403472444701208e+00 3.382236290451904992e+00 3.720000000000000000e+02
-3.424745381720956772e+00 4.478566638992277582e+00 3.720000000000000000e+02
2.828647983212831285e+00 -3.195745800790330549e+00 3.730000000000000000e+02
1.935306073936575944e+00 -2.099415452249957958e+00 3.730000000000000000e+02
1.041964164660320824e+00 -1.003085103709585368e+00 3.730000000000000000e+02
1.486222553840653715e-01 9.324524483078694415e-02 3.730000000000000000e+02
-7.447196538921900810e-01 1.189575593371159368e+00 3.730000000000000000e+02
-1.638061563168445423e+00 2.285905941911531958e+00 3.730000000000000000e+02
-2.531403472444701208e+00 3.382236290451904992e+00 3.730000000000000000e+02
-3.424745381720956772e+00 4.478566638992277582e+00 3.730000000000000000e+02
2.930142202844889354e+00 -2.200909671882016472e+00 3.740000000000000000e+02
2.036800293568634679e+00 -1.104579323341643882e+00 3.740000000000000000e+02
1.143458384292379337e+00 -8.248974801271624635e-03 3.740000000000000000e+02
2.501164750161239958e-01 1.088081373739100854e+00 3.740000000000000000e+02
-6.432254342601314567e-01 2.184411722279473445e+00 3.740000000000000000e+02
-1.536567343536386909e+00 3.280742070819846035e+00 3.740000000000000000e+02
-2.429909252812642251e+00 4.377072419360218625e+00 3.740000000000000000e+02
2.930142202844889354e+00 -2.200909671882016472e+00 3.750000000000000000e+02
2.036800293568634679e+00 -1.104579323341643882e+00 3.750000000000000000e+02
1.143458384292379337e+00 -8.248974801271624635e-03 3.750000000000000000e+02
2.501164750161239958e-01 1.088081373739100854e+00 3.750000000000000000e+02
-6.432254342601314567e-01 2.184411722279473445e+00 3.750000000000000000e+02
-1.536567343536386909e+00 3.280742070819846035e+00 3.750000000000000000e+02
-2.429909252812642251e+00 4.377072419360218625e+00 3.750000000000000000e+02
2.930142202844889354e+00 -2.200909671882016472e+00 3.760000000000000000e+02
2.036800293568634679e+00 -1.104579323341643882e+00 3.760000000000000000e+02
1.143458384292379337e+00 -8.248974801271624635e-03 3.760000000000000000e+02
2.501164750161239958e-01 1.088081373739100854e+00 3.760000000000000000e+02
-6.432254342601314567e-01 2.184411722279473445e+00 3.760000000000000000e+02
-1.536567343536386909e+00 3.280742070819846035e+00 3.760000000000000000e+02
-2.429909252812642251e+00 4.377072419360218625e+00 3.760000000000000000e+02
2.930142202844889354e+00 -2.200909671882016472e+00 3.770000000000000000e+02
2.036800293568634679e+00 -1.104579323341643882e+00 3.770000000000000000e+02
1.143458384292379337e+00 -8.248974801271624635e-03 3.770000000000000000e+02
2.501164750161239958e-01 1.088081373739100854e+00 3.770000000000000000e+02
-6.432254342601314567e-01 2.184411722279473445e+00 3.770000000000000000e+02
-1.536567343536386909e+00 3.280742070819846035e+00 3.770000000000000000e+02
-2.429909252812642251e+00 4.377072419360218625e+00 3.770000000000000000e+02
2.930142202844889354e+00 -2.200909671882016472e+00 3.780000000000000000e+02
2.036800293568634679e+00 -1.104579323341643882e+00 3.780000000000000000e+02
1.143458384292379337e+00 -8.248974801271624635e-03 3.780000000000000000e+02
2.501164750161239958e-01 1.088081373739100854e+00 3.780000000000000000e+02
-6.432254342601314567e-01 2.184411722279473445e+00 3.780000000000000000e+02
-1.536567343536386909e+00 3.280742070819846035e+00 3.780000000000000000e+02
-2.429909252812642251e+00 4.377072419360218625e+00 3.780000000000000000e+02
2.828647983212831285e+00 -3.195745800790330549e+00 3.790000000000000000e+02
1.935306073936575944e+00 -2.099415452249957958e+00 3.790000000000000000e+02
1.041964164660320824e+00 -1.003085103709585368e+00 3.790000000000000000e+02
1.486222553840653715e-01 9.324524483078694415e-02 3.790000000000000000e+02
-7.447196538921900810e-01 1.189575593371159368e+00 3.790000000000000000e+02
-1.638061563168445423e+00 2.285905941911531958e+00 3.790000000000000000e+02
-2.531403472444701208e+00 3.382236290451904992e+00 3.790000000000000000e+02
-3.424745381720956772e+00 4.478566638992277582e+00 3.790000000000000000e+02
2.828647983212831285e+00 -3.195745800790330549e+00 3.800000000000000000e+02
1.935306073936575944e+00 -2.099415452249957958e+00 3.800000000000000000e+02
1.041964164660320824e+00 -1.003085103709585368e+00 3.800000000000000000e+02
1.486222553840653715e-01 9.324524483078694415e-02 3.800000000000000000e+02
-7.447196538921900810e-01 1.189575593371159368e+00 3.800000000000000000e+02
-1.638061563168445423e+00 2.285905941911531958e+00 3.800000000000000000e+02
-2.531403472444701208e+00 3.382236290451904992e+00 3.800000000000000000e+02
-3.424745381720956772e+00 4.478566638992277582e+00 3.800000000000000000e+02
-4.318087290997212335e+00 5.574896987532650172e+00 3.800000000000000000e+02
2.828647983212831285e+00 -3.195745800790330549e+00 3.810000000000000000e+02
1.935306073936575944e+00 -2.099415452249957958e+00 3.810000000000000000e+02
1.041964164660320824e+00 -1.003085103709585368e+00 3.810000000000000000e+02
1.486222553840653715e-01 9.324524483078694415e-02 3.810000000000000000e+02
-7.447196538921900810e-01 1.189575593371159368e+00 3.810000000000000000e+02
-1.638061563168445423e+00 2.285905941911531958e+00 3.810000000000000000e+02
-2.531403472444701208e+00 3.382236290451904992e+00 3.810000000000000000e+02
-3.424745381720956772e+00 4.478566638992277582e+00 3.810000000000000000e+02
-4.318087290997212335e+00 5.574896987532650172e+00 3.810000000000000000e+02
2.828647983212831285e+00 -3.195745800790330549e+00 3.820000000000000000e+02
1.935306073936575944e+00 -2.099415452249957958e+00 3.820000000000000000e+02
1.041964164660320824e+00 -1.003085103709585368e+00 3.820000000000000000e+02
1.486222553840653715e-01 9.324524483078694415e-02 3.820000000000000000e+02
-7.447196538921900810e-01 1.189575593371159368e+00 3.820000000000000000e+02
-1.638061563168445423e+00 2.285905941911531958e+00 3.820000000000000000e+02
-2.531403472444701208e+00 3.382236290451904992e+00 3.820000000000000000e+02
-3.424745381720956772e+00 4.478566638992277582e+00 3.820000000000000000e+02
-4.318087290997212335e+00 5.574896987532650172e+00 3.820000000000000000e+02
2.828647983212831285e+00 -3.195745800790330549e+00 3.830000000000000000e+02
1.935306073936575944e+00 -2.099415452249957958e+00 3.830000000000000000e+02
1.041964164660320824e+00 -1.003085103709585368e+00 3.830000000000000000e+02
1.486222553840653715e-01 9.324524483078694415e-02 3.830000000000000000e+02
-7.447196538921900810e-01 1.189575593371159368e+00 3.830000000000000000e+02
-1.638061563168445423e+00 2.285905941911531958e+00 3.830000000000000000e+02
-2.531403472444701208e+00 3.382236290451904992e+00 3.830000000000000000e+02
-3.424745381720956772e+00 4.478566638992277582e+00 3.830000000000000000e+02
2.828647983212831285e+00 -3.195745800790330549e+00 3.840000000000000000e+02
1.935306073936575944e+00 -2.099415452249957958e+00 3.840000000000000000e+02
1.041964164660320824e+00 -1.003085103709585368e+00 3.840000000000000000e+02
1.486222553840653715e-01 9.324524483078694415e-02 3.840000000000000000e+02
-7.447196538921900810e-01 1.189575593371159368e+00 3.840000000000000000e+02
-1.638061563168445423e+00 2.285905941911531958e+00 3.840000000000000000e+02
-2.531403472444701208e+00 3.382236290451904992e+00 3.840000000000000000e+02
-3.424745381720956772e+00 4.478566638992277582e+00 3.840000000000000000e+02
2.828647983212831285e+00 -3.195745800790330549e+00 3.850000000000000000e+02
1.935306073936575944e+00 -2.099415452249957958e+00 3.850000000000000000e+02
1.041964164660320824e+00 -1.003085103709585368e+00 3.850000000000000000e+02
1.486222553840653715e-01 9.324524483078694415e-02 3.850000000000000000e+02
-7.447196538921900810e-01 1.189575593371159368e+00 3.850000000000000000e+02
-1.638061563168445423e+00 2.285905941911531958e+00 3.850000000000000000e+02
-2.531403472444701208e+00 3.382236290451904992e+00 3.850000000000000000e+02
-3.424745381720956772e+00 4.478566638992277582e+00 3.850000000000000000e+02
2.828647983212831285e+00 -3.195745800790330549e+00 3.860000000000000000e+02
1.935306073936575944e+00 -2.099415452249957958e+00 3.860000000000000000e+02
1.041964164660320824e+00 -1.003085103709585368e+00 3.860000000000000000e+02
1.486222553840653715e-01 9.324524483078694415e-02 3.860000000000000000e+02
-7.447196538921900810e-01 1.189575593371159368e+00 3.860000000000000000e+02
-1.638061563168445423e+00 2.285905941911531958e+00 3.860000000000000000e+02
-2.531403472444701208e+00 3.382236290451904992e+00 3.860000000000000000e+02
-3.424745381720956772e+00 4.478566638992277582e+00 3.860000000000000000e+02
2.828647983212831285e+00 -3.195745800790330549e+00 3.870000000000000000e+02
1.935306073936575944e+00 -2.099415452249957958e+00 3.870000000000000000e+02
1.041964164660320824e+00 -1.003085103709585368e+00 3.870000000000000000e+02
1.486222553840653715e-01 9.324524483078694415e-02 3.870000000000000000e+02
-7.447196538921900810e-01 1.189575593371159368e+00 3.870000000000000000e+02
-1.638061563168445423e+00 2.285905941911531958e+00 3.870000000000000000e+02
-2.531403472444701208e+00 3.382236290451904992e+00 3.870000000000000000e+02
-3.424745381720956772e+00 4.478566638992277582e+00 3.870000000000000000e+02
2.828647983212831285e+00 -3.195745800790330549e+00 3.880000000000000000e+02
1.935306073936575944e+00 -2.099415452249957958e+00 3.880000000000000000e+02
1.041964164660320824e+00 -1.003085103709585368e+00 3.880000000000000000e+02
1.486222553840653715e-01 9.324524483078694415e-02 3.880000000000000000e+02
-7.447196538921900810e-01 1.189575593371159368e+00 3.880000000000000000e+02
-1.638061563168445423e+00 2.285905941911531958e+00 3.880000000000000000e+02
-2.531403472444701208e+00 3.382236290451904992e+00 3.880000000000000000e+02
-3.424745381720956772e+00 4.478566638992277582e+00 3.880000000000000000e+02
2.828647983212831285e+00 -3.195745800790330549e+00 3.890000000000000000e+02
1.935306073936575944e+00 -2.099415452249957958e+00 3.890000000000000000e+02
1.041964164660320824e+00 -1.003085103709585368e+00 3.890000000000000000e+02
1.486222553840653715e-01 9.324524483078694415e-02 3.890000000000000000e+02
-7.447196538921900810e-01 1.189575593371159368e+00 3.890000000000000000e+02
-1.638061563168445423e+00 2.285905941911531958e+00 3.890000000000000000e+02
-2.531403472444701208e+00 3.382236290451904992e+00 3.890000000000000000e+02
-3.424745381720956772e+00 4.478566638992277582e+00 3.890000000000000000e+02
2.828647983212831285e+00 -3.195745800790330549e+00 3.900000000000000000e+02
1.935306073936575944e+00 -2.099415452249957958e+00 3.900000000000000000e+02
1.041964164660320824e+00 -1.003085103709585368e+00 3.900000000000000000e+02
1.486222553840653715e-01 9.324524483078694415e-02 3.900000000000000000e+02
-7.447196538921900810e-01 1.189575593371159368e+00 3.900000000000000000e+02
-1.638061563168445423e+00 2.285905941911531958e+00 3.900000000000000000e+02
-2.531403472444701208e+00 3.382236290451904992e+00 3.900000000000000000e+02
-3.424745381720956772e+00 4.478566638992277582e+00 3.900000000000000000e+02
2.828647983212831285e+00 -3.195745800790330549e+00 3.910000000000000000e+02
1.935306073936575944e+00 -2.099415452249957958e+00 3.910000000000000000e+02
1.041964164660320824e+00 -1.003085103709585368e+00 3.910000000000000000e+02
1.486222553840653715e-01 9.324524483078694415e-02 3.910000000000000000e+02
-7.447196538921900810e-01 1.189575593371159368e+00 3.910000000000000000e+02
-1.638061563168445423e+00 2.285905941911531958e+00 3.910000000000000000e+02
-2.531403472444701208e+00 3.382236290451904992e+00 3.910000000000000000e+02
-3.424745381720956772e+00 4.478566638992277582e+00 3.910000000000000000e+02
2.828647983212831285e+00 -3.195745800790330549e+00 3.920000000000000000e+02
1.935306073936575944e+00 -2.099415452249957958e+00 3.920000000000000000e+02
1.041964164660320824e+00 -1.003085103709585368e+00 3.920000000000000000e+02
1.486222553840653715e-01 9.324524483078694415e-02 3.920000000000000000e+02
-7.447196538921900810e-01 1.189575593371159368e+00 3.920000000000000000e+02
-1.638061563168445423e+00 2.285905941911531958e+00 3.920000000000000000e+02
-2.531403472444701208e+00 3.382236290451904992e+00 3.920000000000000000e+02
-3.424745381720956772e+00 4.478566638992277582e+00 3.920000000000000000e+02
2.828647983212831285e+00 -3.195745800790330549e+00 3.930000000000000000e+02
1.935306073936575944e+00 -2.099415452249957958e+00 3.930000000000000000e+02
1.041964164660320824e+00 -1.003085103709585368e+00 3.930000000000000000e+02
1.486222553840653715e-01 9.324524483078694415e-02 3.930000000000000000e+02
-7.447196538921900810e-01 1.189575593371159368e+00 3.930000000000000000e+02
-1.638061563168445423e+00 2.285905941911531958e+00 3.930000000000000000e+02
-2.531403472444701208e+00 3.382236290451904992e+00 3.930000000000000000e+02
-3.424745381720956772e+00 4.478566638992277582e+00 3.930000000000000000e+02
2.828647983212831285e+00 -3.195745800790330549e+00 3.940000000000000000e+02
1.935306073936575944e+00 -2.099415452249957958e+00 3.940000000000000000e+02
1.041964164660320824e+00 -1.003085103709585368e+00 3.940000000000000000e+02
1.486222553840653715e-01 9.324524483078694415e-02 3.940000000000000000e+02
-7.447196538921900810e-01 1.189575593371159368e+00 3.940000000000000000e+02
-1.638061563168445423e+00 2.285905941911531958e+00 3.940000000000000000e+02
-2.531403472444701208e+00 3.382236290451904992e+00 3.940000000000000000e+02
-3.424745381720956772e+00 4.478566638992277582e+00 3.940000000000000000e+02
2.828647983212831285e+00 -3.195745800790330549e+00 3.950000000000000000e+02
1.935306073936575944e+00 -2.099415452249957958e+00 3.950000000000000000e+02
1.041964164660320824e+00 -1.003085103709585368e+00 3.950000000000000000e+02
1.486222553840653715e-01 9.324524483078694415e-02 3.950000000000000000e+02
-7.447196538921900810e-01 1.189575593371159368e+00 3.950000000000000000e+02
-1.638061563168445423e+00 2.285905941911531958e+00 3.950000000000000000e+02
-2.531403472444701208e+00 3.382236290451904992e+00 3.950000000000000000e+02
-3.424745381720956772e+00 4.478566638992277582e+00 3.950000000000000000e+02
2.828647983212831285e+00 -3.195745800790330549e+00 3.960000000000000000e+02
1.935306073936575944e+00 -2.099415452249957958e+00 3.960000000000000000e+02
1.041964164660320824e+00 -1.003085103709585368e+00 3.960000000000000000e+02
1.486222553840653715e-01 9.324524483078694415e-02 3.960000000000000000e+02
-7.447196538921900810e-01 1.189575593371159368e+00 3.960000000000000000e+02
-1.638061563168445423e+00 2.285905941911531958e+00 3.960000000000000000e+02
-2.531403472444701208e+00 3.382236290451904992e+00 3.960000000000000000e+02
-3.424745381720956772e+00 4.478566638992277582e+00 3.960000000000000000e+02
2.828647983212831285e+00 -3.195745800790330549e+00 3.970000000000000000e+02
1.935306073936575944e+00 -2.099415452249957958e+00 3.970000000000000000e+02
1.041964164660320824e+00 -1.003085103709585368e+00 3.970000000000000000e+02
1.486222553840653715e-01 9.324524483078694415e-02 3.970000000000000000e+02
-7.447196538921900810e-01 1.189575593371159368e+00 3.970000000000000000e+02
-1.638061563168445423e+00 2.285905941911531958e+00 3.970000000000000000e+02
-2.531403472444701208e+00 3.382236290451904992e+00 3.970000000000000000e+02
-3.424745381720956772e+00 4.478566638992277582e+00 3.970000000000000000e+02
2.828647983212831285e+00 -3.195745800790330549e+00 3.980000000000000000e+02
1.935306073936575944e+00 -2.099415452249957958e+00 3.980000000000000000e+02
1.041964164660320824e+00 -1.003085103709585368e+00 3.980000000000000000e+02
1.486222553840653715e-01 9.324524483078694415e-02 3.980000000000000000e+02
-7.447196538921900810e-01 1.189575593371159368e+00 3.980000000000000000e+02
-1.638061563168445423e+00 2.285905941911531958e+00 3.980000000000000000e+02
-2.531403472444701208e+00 3.382236290451904992e+00 3.980000000000000000e+02
-3.424745381720956772e+00 4.478566638992277582e+00 3.980000000000000000e+02
2.828647983212831285e+00 -3.195745800790330549e+00 3.990000000000000000e+02
1.935306073936575944e+00 -2.099415452249957958e+00 3.990000000000000000e+02
1.041964164660320824e+00 -1.003085103709585368e+00 3.990000000000000000e+02
1.486222553840653715e-01 9.324524483078694415e-02 3.990000000000000000e+02
-7.447196538921900810e-01 1.189575593371159368e+00 3.990000000000000000e+02
-1.638061563168445423e+00 2.285905941911531958e+00 3.990000000000000000e+02
-2.531403472444701208e+00 3.382236290451904992e+00 3.990000000000000000e+02
-3.424745381720956772e+00 4.478566638992277582e+00 3.990000000000000000e+02
2.828647983212831285e+00 -3.195745800790330549e+00 4.000000000000000000e+02
1.935306073936575944e+00 -2.099415452249957958e+00 4.000000000000000000e+02
1.041964164660320824e+00 -1.003085103709585368e+00 4.000000000000000000e+02
1.486222553840653715e-01 9.324524483078694415e-02 4.000000000000000000e+02
-7.447196538921900810e-01 1.189575593371159368e+00 4.000000000000000000e+02
-1.638061563168445423e+00 2.285905941911531958e+00 4.000000000000000000e+02
-2.531403472444701208e+00 3.382236290451904992e+00 4.000000000000000000e+02
-3.424745381720956772e+00 4.478566638992277582e+00 4.000000000000000000e+02
2.828647983212831285e+00 -3.195745800790330549e+00 4.010000000000000000e+02
1.935306073936575944e+00 -2.099415452249957958e+00 4.010000000000000000e+02
1.041964164660320824e+00 -1.003085103709585368e+00 4.010000000000000000e+02
1.486222553840653715e-01 9.324524483078694415e-02 4.010000000000000000e+02
-7.447196538921900810e-01 1.189575593371159368e+00 4.010000000000000000e+02
-1.638061563168445423e+00 2.285905941911531958e+00 4.010000000000000000e+02
-2.531403472444701208e+00 3.382236290451904992e+00 4.010000000000000000e+02
-3.424745381720956772e+00 4.478566638992277582e+00 4.010000000000000000e+02
2.828647983212831285e+00 -3.195745800790330549e+00 4.020000000000000000e+02
1.935306073936575944e+00 -2.099415452249957958e+00 4.020000000000000000e+02
1.041964164660320824e+00 -1.003085103709585368e+00 4.020000000000000000e+02
1.486222553840653715e-01 9.324524483078694415e-02 4.020000000000000000e+02
-7.447196538921900810e-01 1.189575593371159368e+00 4.020000000000000000e+02
-1.638061563168445423e+00 2.285905941911531958e+00 4.020000000000000000e+02
-2.531403472444701208e+00 3.382236290451904992e+00 4.020000000000000000e+02
-3.424745381720956772e+00 4.478566638992277582e+00 4.020000000000000000e+02
2.828647983212831285e+00 -3.195745800790330549e+00 4.030000000000000000e+02
1.935306073936575944e+00 -2.099415452249957958e+00 4.030000000000000000e+02
1.041964164660320824e+00 -1.003085103709585368e+00 4.030000000000000000e+02
1.486222553840653715e-01 9.324524483078694415e-02 4.030000000000000000e+02
-7.447196538921900810e-01 1.189575593371159368e+00 4.030000000000000000e+02
-1.638061563168445423e+00 2.285905941911531958e+00 4.030000000000000000e+02
-2.531403472444701208e+00 3.382236290451904992e+00 4.030000000000000000e+02
-3.424745381720956772e+00 4.478566638992277582e+00 4.030000000000000000e+02
2.828647983212831285e+00 -3.195745800790330549e+00 4.040000000000000000e+02
1.935306073936575944e+00 -2.099415452249957958e+00 4.040000000000000000e+02
1.041964164660320824e+00 -1.003085103709585368e+00 4.040000000000000000e+02
1.486222553840653715e-01 9.324524483078694415e-02 4.040000000000000000e+02
-7.447196538921900810e-01 1.189575593371159368e+00 4.040000000000000000e+02
-1.638061563168445423e+00 2.285905941911531958e+00 4.040000000000000000e+02
-2.531403472444701208e+00 3.382236290451904992e+00 4.040000000000000000e+02
-3.424745381720956772e+00 4.478566638992277582e+00 4.040000000000000000e+02
2.828647983212831285e+00 -3.195745800790330549e+00 4.050000000000000000e+02
1.935306073936575944e+00 -2.099415452249957958e+00 4.050000000000000000e+02
1.041964164660320824e+00 -1.003085103709585368e+00 4.050000000000000000e+02
1.486222553840653715e-01 9.324524483078694415e-02 4.050000000000000000e+02
-7.447196538921900810e-01 1.189575593371159368e+00 4.050000000000000000e+02
-1.638061563168445423e+00 2.285905941911531958e+00 4.050000000000000000e+02
-2.531403472444701208e+00 3.382236290451904992e+00 4.050000000000000000e+02
-3.424745381720956772e+00 4.478566638992277582e+00 4.050000000000000000e+02
2.828647983212831285e+00 -3.195745800790330549e+00 4.060000000000000000e+02
1.935306073936575944e+00 -2.099415452249957958e+00 4.060000000000000000e+02
1.041964164660320824e+00 -1.003085103709585368e+00 4.060000000000000000e+02
1.486222553840653715e-01 9.324524483078694415e-02 4.060000000000000000e+02
-7.447196538921900810e-01 1.189575593371159368e+00 4.060000000000000000e+02
-1.638061563168445423e+00 2.285905941911531958e+00 4.060000000000000000e+02
-2.531403472444701208e+00 3.382236290451904992e+00 4.060000000000000000e+02
-3.424745381720956772e+00 4.478566638992277582e+00 4.060000000000000000e+02
2.828647983212831285e+00 -3.195745800790330549e+00 4.070000000000000000e+02
1.935306073936575944e+00 -2.099415452249957958e+00 4.070000000000000000e+02
1.041964164660320824e+00 -1.003085103709585368e+00 4.070000000000000000e+02
1.486222553840653715e-01 9.324524483078694415e-02 4.070000000000000000e+02
-7.447196538921900810e-01 1.189575593371159368e+00 4.070000000000000000e+02
-1.638061563168445423e+00 2.285905941911531958e+00 4.070000000000000000e+02
-2.531403472444701208e+00 3.382236290451904992e+00 4.070000000000000000e+02
-3.424745381720956772e+00 4.478566638992277582e+00 4.070000000000000000e+02
2.828647983212831285e+00 -3.195745800790330549e+00 4.080000000000000000e+02
1.935306073936575944e+00 -2.099415452249957958e+00 4.080000000000000000e+02
1.041964164660320824e+00 -1.003085103709585368e+00 4.080000000000000000e+02
1.486222553840653715e-01 9.324524483078694415e-02 4.080000000000000000e+02
-7.447196538921900810e-01 1.189575593371159368e+00 4.080000000000000000e+02
-1.638061563168445423e+00 2.285905941911531958e+00 4.080000000000000000e+02
-2.531403472444701208e+00 3.382236290451904992e+00 4.080000000000000000e+02
-3.424745381720956772e+00 4.478566638992277582e+00 4.080000000000000000e+02
-4.318087290997212335e+00 5.574896987532650172e+00 4.080000000000000000e+02
2.828647983212831285e+00 -3.195745800790330549e+00 4.090000000000000000e+02
1.935306073936575944e+00 -2.099415452249957958e+00 4.090000000000000000e+02
1.041964164660320824e+00 -1.003085103709585368e+00 4.090000000000000000e+02
1.486222553840653715e-01 9.324524483078694415e-02 4.090000000000000000e+02
-7.447196538921900810e-01 1.189575593371159368e+00 4.090000000000000000e+02
-1.638061563168445423e+00 2.285905941911531958e+00 4.090000000000000000e+02
-2.531403472444701208e+00 3.382236290451904992e+00 4.090000000000000000e+02
-3.424745381720956772e+00 4.478566638992277582e+00 4.090000000000000000e+02
-4.318087290997212335e+00 5.574896987532650172e+00 4.090000000000000000e+02
2.828647983212831285e+00 -3.195745800790330549e+00 4.100000000000000000e+02
1.935306073936575944e+00 -2.099415452249957958e+00 4.100000000000000000e+02
1.041964164660320824e+00 -1.003085103709585368e+00 4.100000000000000000e+02
1.486222553840653715e-01 9.324524483078694415e-02 4.100000000000000000e+02
-7.447196538921900810e-01 1.189575593371159368e+00 4.100000000000000000e+02
-1.638061563168445423e+00 2.285905941911531958e+00 4.100000000000000000e+02
-2.531403472444701208e+00 3.382236290451904992e+00 4.100000000000000000e+02
-3.424745381720956772e+00 4.478566638992277582e+00 4.100000000000000000e+02
2.828647983212831285e+00 -3.195745800790330549e+00 4.110000000000000000e+02
1.935306073936575944e+00 -2.099415452249957958e+00 4.110000000000000000e+02
1.041964164660320824e+00 -1.003085103709585368e+00 4.110000000000000000e+02
1.486222553840653715e-01 9.324524483078694415e-02 4.110000000000000000e+02
-7.447196538921900810e-01 1.189575593371159368e+00 4.110000000000000000e+02
-1.638061563168445423e+00 2.285905941911531958e+00 4.110000000000000000e+02
-2.531403472444701208e+00 3.382236290451904992e+00 4.110000000000000000e+02
-3.424745381720956772e+00 4.478566638992277582e+00 4.110000000000000000e+02
2.828647983212831285e+00 -3.195745800790330549e+00 4.120000000000000000e+02
1.935306073936575944e+00 -2.099415452249957958e+00 4.120000000000000000e+02
1.041964164660320824e+00 -1.003085103709585368e+00 4.120000000000000000e+02
1.486222553840653715e-01 9.324524483078694415e-02 4.120000000000000000e+02
-7.447196538921900810e-01 1.189575593371159368e+00 4.120000000000000000e+02
-1.638061563168445423e+00 2.285905941911531958e+00 4.120000000000000000e+02
-2.531403472444701208e+00 3.382236290451904992e+00 4.120000000000000000e+02
-3.424745381720956772e+00 4.478566638992277582e+00 4.120000000000000000e+02
2.828647983212831285e+00 -3.195745800790330549e+00 4.130000000000000000e+02
1.935306073936575944e+00 -2.099415452249957958e+00 4.130000000000000000e+02
1.041964164660320824e+00 -1.003085103709585368e+00 4.130000000000000000e+02
1.486222553840653715e-01 9.324524483078694415e-02 4.130000000000000000e+02
-7.447196538921900810e-01 1.189575593371159368e+00 4.130000000000000000e+02
-1.638061563168445423e+00 2.285905941911531958e+00 4.130000000000000000e+02
-2.531403472444701208e+00 3.382236290451904992e+00 4.130000000000000000e+02
-3.424745381720956772e+00 4.478566638992277582e+00 4.130000000000000000e+02
2.828647983212831285e+00 -3.195745800790330549e+00 4.140000000000000000e+02
1.935306073936575944e+00 -2.099415452249957958e+00 4.140000000000000000e+02
1.041964164660320824e+00 -1.003085103709585368e+00 4.140000000000000000e+02
1.486222553840653715e-01 9.324524483078694415e-02 4.140000000000000000e+02
-7.447196538921900810e-01 1.189575593371159368e+00 4.140000000000000000e+02
-1.638061563168445423e+00 2.285905941911531958e+00 4.140000000000000000e+02
-2.531403472444701208e+00 3.382236290451904992e+00 4.140000000000000000e+02
-3.424745381720956772e+00 4.478566638992277582e+00 4.140000000000000000e+02
2.828647983212831285e+00 -3.195745800790330549e+00 4.150000000000000000e+02
1.935306073936575944e+00 -2.099415452249957958e+00 4.150000000000000000e+02
1.041964164660320824e+00 -1.003085103709585368e+00 4.150000000000000000e+02
1.486222553840653715e-01 9.324524483078694415e-02 4.150000000000000000e+02
-7.447196538921900810e-01 1.189575593371159368e+00 4.150000000000000000e+02
-1.638061563168445423e+00 2.285905941911531958e+00 4.150000000000000000e+02
-2.531403472444701208e+00 3.382236290451904992e+00 4.150000000000000000e+02
-3.424745381720956772e+00 4.478566638992277582e+00 4.150000000000000000e+02
2.828647983212831285e+00 -3.195745800790330549e+00 4.160000000000000000e+02
1.935306073936575944e+00 -2.099415452249957958e+00 4.160000000000000000e+02
1.041964164660320824e+00 -1.003085103709585368e+00 4.160000000000000000e+02
1.486222553840653715e-01 9.324524483078694415e-02 4.160000000000000000e+02
