-3.394738751789291520e+00 3.561009089995823551e+00 3.280000000000000000e+02
-2.265422745548486549e+00 2.709748050097768424e+00 3.280000000000000000e+02
-1.136106739307681135e+00 1.858487010199713518e+00 3.280000000000000000e+02
-6.790733066876185331e-03 1.007225970301658613e+00 3.280000000000000000e+02
1.122525273173928806e+00 1.559649304036037076e-01 3.280000000000000000e+02
2.251841279414734220e+00 -6.952961094944511977e-01 3.280000000000000000e+02
3.381157285655539191e+00 -1.546557149392506325e+00 3.280000000000000000e+02
-3.394738751789291520e+00 3.561009089995823551e+00 3.290000000000000000e+02
-2.265422745548486549e+00 2.709748050097768424e+00 3.290000000000000000e+02
-1.136106739307681135e+00 1.858487010199713518e+00 3.290000000000000000e+02
-6.790733066876185331e-03 1.007225970301658613e+00 3.290000000000000000e+02
1.122525273173928806e+00 1.559649304036037076e-01 3.290000000000000000e+02
2.251841279414734220e+00 -6.952961094944511977e-01 3.290000000000000000e+02
3.381157285655539191e+00 -1.546557149392506325e+00 3.290000000000000000e+02
-3.394738751789291520e+00 3.561009089995823551e+00 3.300000000000000000e+02
-2.265422745548486549e+00 2.709748050097768424e+00 3.300000000000000000e+02
-1.136106739307681135e+00 1.858487010199713518e+00 3.300000000000000000e+02
-6.790733066876185331e-03 1.007225970301658613e+00 3.300000000000000000e+02
1.122525273173928806e+00 1.559649304036037076e-01 3.300000000000000000e+02
2.251841279414734220e+00 -6.952961094944511977e-01 3.300000000000000000e+02
3.381157285655539191e+00 -1.546557149392506325e+00 3.300000000000000000e+02
-3.394738751789291520e+00 3.561009089995823551e+00 3.310000000000000000e+02
-2.265422745548486549e+00 2.709748050097768424e+00 3.310000000000000000e+02
-1.136106739307681135e+00 1.858487010199713518e+00 3.310000000000000000e+02
-6.790733066876185331e-03 1.007225970301658613e+00 3.310000000000000000e+02
1.122525273173928806e+00 1.559649304036037076e-01 3.310000000000000000e+02
2.251841279414734220e+00 -6.952961094944511977e-01 3.310000000000000000e+02
3.381157285655539191e+00 -1.546557149392506325e+00 3.310000000000000000e+02
-3.394738751789291520e+00 3.561009089995823551e+00 3.320000000000000000e+02
-2.265422745548486549e+00 2.709748050097768424e+00 3.320000000000000000e+02
-1.136106739307681135e+00 1.858487010199713518e+00 3.320000000000000000e+02
-6.790733066876185331e-03 1.007225970301658613e+00 3.320000000000000000e+02
1.122525273173928806e+00 1.559649304036037076e-01 3.320000000000000000e+02
2.251841279414734220e+00 -6.952961094944511977e-01 3.320000000000000000e+02
3.381157285655539191e+00 -1.546557149392506325e+00 3.320000000000000000e+02
-3.394738751789291520e+00 3.561009089995823551e+00 3.330000000000000000e+02
-2.265422745548486549e+00 2.709748050097768424e+00 3.330000000000000000e+02
-1.136106739307681135e+00 1.858487010199713518e+00 3.330000000000000000e+02
-6.790733066876185331e-03 1.007225970301658613e+00 3.330000000000000000e+02
1.122525273173928806e+00 1.559649304036037076e-01 3.330000000000000000e+02
2.251841279414734220e+00 -6.952961094944511977e-01 3.330000000000000000e+02
3.381157285655539191e+00 -1.546557149392506325e+00 3.330000000000000000e+02
-3.394738751789291520e+00 3.561009089995823551e+00 3.340000000000000000e+02
-2.265422745548486549e+00 2.709748050097768424e+00 3.340000000000000000e+02
-1.136106739307681135e+00 1.858487010199713518e+00 3.340000000000000000e+02
-6.790733066876185331e-03 1.007225970301658613e+00 3.340000000000000000e+02
1.122525273173928806e+00 1.559649304036037076e-01 3.340000000000000000e+02
2.251841279414734220e+00 -6.952961094944511977e-01 3.340000000000000000e+02
3.381157285655539191e+00 -1.546557149392506325e+00 3.340000000000000000e+02
-3.394738751789291520e+00 3.561009089995823551e+00 3.350000000000000000e+02
-2.265422745548486549e+00 2.709748050097768424e+00 3.350000000000000000e+02
-1.136106739307681135e+00 1.858487010199713518e+00 3.350000000000000000e+02
-6.790733066876185331e-03 1.007225970301658613e+00 3.350000000000000000e+02
1.122525273173928806e+00 1.559649304036037076e-01 3.350000000000000000e+02
2.251841279414734220e+00 -6.952961094944511977e-01 3.350000000000000000e+02
3.381157285655539191e+00 -1.546557149392506325e+00 3.350000000000000000e+02
-3.394738751789291520e+00 3.561009089995823551e+00 3.360000000000000000e+02
-2.265422745548486549e+00 2.709748050097768424e+00 3.360000000000000000e+02
-1.136106739307681135e+00 1.858487010199713518e+00 3.360000000000000000e+02
-6.790733066876185331e-03 1.007225970301658613e+00 3.360000000000000000e+02
1.122525273173928806e+00 1.559649304036037076e-01 3.360000000000000000e+02
2.251841279414734220e+00 -6.952961094944511977e-01 3.360000000000000000e+02
3.381157285655539191e+00 -1.546557149392506325e+00 3.360000000000000000e+02
-3.394738751789291520e+00 3.561009089995823551e+00 3.370000000000000000e+02
-2.265422745548486549e+00 2.709748050097768424e+00 3.370000000000000000e+02
-1.136106739307681135e+00 1.858487010199713518e+00 3.370000000000000000e+02
-6.790733066876185331e-03 1.007225970301658613e+00 3.370000000000000000e+02
1.122525273173928806e+00 1.559649304036037076e-01 3.370000000000000000e+02
2.251841279414734220e+00 -6.952961094944511977e-01 3.370000000000000000e+02
3.381157285655539191e+00 -1.546557149392506325e+00 3.370000000000000000e+02
-3.394738751789291520e+00 3.561009089995823551e+00 3.380000000000000000e+02
-2.265422745548486549e+00 2.709748050097768424e+00 3.380000000000000000e+02
-1.136106739307681135e+00 1.858487010199713518e+00 3.380000000000000000e+02
-6.790733066876185331e-03 1.007225970301658613e+00 3.380000000000000000e+02
1.122525273173928806e+00 1.559649304036037076e-01 3.380000000000000000e+02
2.251841279414734220e+00 -6.952961094944511977e-01 3.380000000000000000e+02
3.381157285655539191e+00 -1.546557149392506325e+00 3.380000000000000000e+02
-3.394738751789291520e+00 3.561009089995823551e+00 3.390000000000000000e+02
-2.265422745548486549e+00 2.709748050097768424e+00 3.390000000000000000e+02
-1.136106739307681135e+00 1.858487010199713518e+00 3.390000000000000000e+02
-6.790733066876185331e-03 1.007225970301658613e+00 3.390000000000000000e+02
1.122525273173928806e+00 1.559649304036037076e-01 3.390000000000000000e+02
2.251841279414734220e+00 -6.952961094944511977e-01 3.390000000000000000e+02
3.381157285655539191e+00 -1.546557149392506325e+00 3.390000000000000000e+02
-3.394738751789291520e+00 3.561009089995823551e+00 3.400000000000000000e+02
-2.265422745548486549e+00 2.709748050097768424e+00 3.400000000000000000e+02
-1.136106739307681135e+00 1.858487010199713518e+00 3.400000000000000000e+02
-6.790733066876185331e-03 1.007225970301658613e+00 3.400000000000000000e+02
1.122525273173928806e+00 1.559649304036037076e-01 3.400000000000000000e+02
2.251841279414734220e+00 -6.952961094944511977e-01 3.400000000000000000e+02
3.381157285655539191e+00 -1.546557149392506325e+00 3.400000000000000000e+02
-3.394738751789291520e+00 3.561009089995823551e+00 3.410000000000000000e+02
-2.265422745548486549e+00 2.709748050097768424e+00 3.410000000000000000e+02
-1.136106739307681135e+00 1.858487010199713518e+00 3.410000000000000000e+02
-6.790733066876185331e-03 1.007225970301658613e+00 3.410000000000000000e+02
1.122525273173928806e+00 1.559649304036037076e-01 3.410000000000000000e+02
2.251841279414734220e+00 -6.952961094944511977e-01 3.410000000000000000e+02
3.381157285655539191e+00 -1.546557149392506325e+00 3.410000000000000000e+02
-3.394738751789291520e+00 3.561009089995823551e+00 3.420000000000000000e+02
-2.265422745548486549e+00 2.709748050097768424e+00 3.420000000000000000e+02
-1.136106739307681135e+00 1.858487010199713518e+00 3.420000000000000000e+02
-6.790733066876185331e-03 1.007225970301658613e+00 3.420000000000000000e+02
1.122525273173928806e+00 1.559649304036037076e-01 3.420000000000000000e+02
2.251841279414734220e+00 -6.952961094944511977e-01 3.420000000000000000e+02
3.381157285655539191e+00 -1.546557149392506325e+00 3.420000000000000000e+02
-3.394738751789291520e+00 3.561009089995823551e+00 3.430000000000000000e+02
-2.265422745548486549e+00 2.709748050097768424e+00 3.430000000000000000e+02
-1.136106739307681135e+00 1.858487010199713518e+00 3.430000000000000000e+02
-6.790733066876185331e-03 1.007225970301658613e+00 3.430000000000000000e+02
1.122525273173928806e+00 1.559649304036037076e-01 3.430000000000000000e+02
2.251841279414734220e+00 -6.952961094944511977e-01 3.430000000000000000e+02
3.381157285655539191e+00 -1.546557149392506325e+00 3.430000000000000000e+02
-3.394738751789291520e+00 3.561009089995823551e+00 3.440000000000000000e+02
-2.265422745548486549e+00 2.709748050097768424e+00 3.440000000000000000e+02
-1.136106739307681135e+00 1.858487010199713518e+00 3.440000000000000000e+02
-6.790733066876185331e-03 1.007225970301658613e+00 3.440000000000000000e+02
1.122525273173928806e+00 1.559649304036037076e-01 3.440000000000000000e+02
2.251841279414734220e+00 -6.952961094944511977e-01 3.440000000000000000e+02
3.381157285655539191e+00 -1.546557149392506325e+00 3.440000000000000000e+02
-3.394738751789291520e+00 3.561009089995823551e+00 3.450000000000000000e+02
-2.265422745548486549e+00 2.709748050097768424e+00 3.450000000000000000e+02
-1.136106739307681135e+00 1.858487010199713518e+00 3.450000000000000000e+02
-6.790733066876185331e-03 1.007225970301658613e+00 3.450000000000000000e+02
1.122525273173928806e+00 1.559649304036037076e-01 3.450000000000000000e+02
2.251841279414734220e+00 -6.952961094944511977e-01 3.450000000000000000e+02
3.381157285655539191e+00 -1.546557149392506325e+00 3.450000000000000000e+02
-3.394738751789291520e+00 3.561009089995823551e+00 3.460000000000000000e+02
-2.265422745548486549e+00 2.709748050097768424e+00 3.460000000000000000e+02
-1.136106739307681135e+00 1.858487010199713518e+00 3.460000000000000000e+02
-6.790733066876185331e-03 1.007225970301658613e+00 3.460000000000000000e+02
1.122525273173928806e+00 1.559649304036037076e-01 3.460000000000000000e+02
2.251841279414734220e+00 -6.952961094944511977e-01 3.460000000000000000e+02
3.381157285655539191e+00 -1.546557149392506325e+00 3.460000000000000000e+02
-3.394738751789291520e+00 3.561009089995823551e+00 3.470000000000000000e+02
-2.265422745548486549e+00 2.709748050097768424e+00 3.470000000000000000e+02
-1.136106739307681135e+00 1.858487010199713518e+00 3.470000000000000000e+02
-6.790733066876185331e-03 1.007225970301658613e+00 3.470000000000000000e+02
1.122525273173928806e+00 1.559649304036037076e-01 3.470000000000000000e+02
2.251841279414734220e+00 -6.952961094944511977e-01 3.470000000000000000e+02
3.381157285655539191e+00 -1.546557149392506325e+00 3.470000000000000000e+02
4.510473291896344605e+00 -2.397818189290561008e+00 3.470000000000000000e+02
-3.394738751789291520e+00 3.561009089995823551e+00 3.480000000000000000e+02
-2.265422745548486549e+00 2.709748050097768424e+00 3.480000000000000000e+02
-1.136106739307681135e+00 1.858487010199713518e+00 3.480000000000000000e+02
-6.790733066876185331e-03 1.007225970301658613e+00 3.480000000000000000e+02
1.122525273173928806e+00 1.559649304036037076e-01 3.480000000000000000e+02
2.251841279414734220e+00 -6.952961094944511977e-01 3.480000000000000000e+02
3.381157285655539191e+00 -1.546557149392506325e+00 3.480000000000000000e+02
-3.394738751789291520e+00 3.561009089995823551e+00 3.490000000000000000e+02
-2.265422745548486549e+00 2.709748050097768424e+00 3.490000000000000000e+02
-1.136106739307681135e+00 1.858487010199713518e+00 3.490000000000000000e+02
-6.790733066876185331e-03 1.007225970301658613e+00 3.490000000000000000e+02
1.122525273173928806e+00 1.559649304036037076e-01 3.490000000000000000e+02
2.251841279414734220e+00 -6.952961094944511977e-01 3.490000000000000000e+02
3.381157285655539191e+00 -1.546557149392506325e+00 3.490000000000000000e+02
-3.394738751789291520e+00 3.561009089995823551e+00 3.500000000000000000e+02
-2.265422745548486549e+00 2.709748050097768424e+00 3.500000000000000000e+02
-1.136106739307681135e+00 1.858487010199713518e+00 3.500000000000000000e+02
-6.790733066876185331e-03 1.007225970301658613e+00 3.500000000000000000e+02
1.122525273173928806e+00 1.559649304036037076e-01 3.500000000000000000e+02
2.251841279414734220e+00 -6.952961094944511977e-01 3.500000000000000000e+02
3.381157285655539191e+00 -1.546557149392506325e+00 3.500000000000000000e+02
4.510473291896344605e+00 -2.397818189290561008e+00 3.500000000000000000e+02
-3.394738751789291520e+00 3.561009089995823551e+00 3.510000000000000000e+02
-2.265422745548486549e+00 2.709748050097768424e+00 3.510000000000000000e+02
-1.136106739307681135e+00 1.858487010199713518e+00 3.510000000000000000e+02
-6.790733066876185331e-03 1.007225970301658613e+00 3.510000000000000000e+02
1.122525273173928806e+00 1.559649304036037076e-01 3.510000000000000000e+02
2.251841279414734220e+00 -6.952961094944511977e-01 3.510000000000000000e+02
3.381157285655539191e+00 -1.546557149392506325e+00 3.510000000000000000e+02
4.510473291896344605e+00 -2.397818189290561008e+00 3.510000000000000000e+02
-3.394738751789291520e+00 3.561009089995823551e+00 3.520000000000000000e+02
-2.265422745548486549e+00 2.709748050097768424e+00 3.520000000000000000e+02
-1.136106739307681135e+00 1.858487010199713518e+00 3.520000000000000000e+02
-6.790733066876185331e-03 1.007225970301658613e+00 3.520000000000000000e+02
1.122525273173928806e+00 1.559649304036037076e-01 3.520000000000000000e+02
2.251841279414734220e+00 -6.952961094944511977e-01 3.520000000000000000e+02
3.381157285655539191e+00 -1.546557149392506325e+00 3.520000000000000000e+02
4.510473291896344605e+00 -2.397818189290561008e+00 3.520000000000000000e+02
-3.394738751789291520e+00 3.561009089995823551e+00 3.530000000000000000e+02
-2.265422745548486549e+00 2.709748050097768424e+00 3.530000000000000000e+02
-1.136106739307681135e+00 1.858487010199713518e+00 3.530000000000000000e+02
-6.790733066876185331e-03 1.007225970301658613e+00 3.530000000000000000e+02
1.122525273173928806e+00 1.559649304036037076e-01 3.530000000000000000e+02
2.251841279414734220e+00 -6.952961094944511977e-01 3.530000000000000000e+02
3.381157285655539191e+00 -1.546557149392506325e+00 3.530000000000000000e+02
-3.394738751789291520e+00 3.561009089995823551e+00 3.540000000000000000e+02
-2.265422745548486549e+00 2.709748050097768424e+00 3.540000000000000000e+02
-1.136106739307681135e+00 1.858487010199713518e+00 3.540000000000000000e+02
-6.790733066876185331e-03 1.007225970301658613e+00 3.540000000000000000e+02
1.122525273173928806e+00 1.559649304036037076e-01 3.540000000000000000e+02
2.251841279414734220e+00 -6.952961094944511977e-01 3.540000000000000000e+02
3.381157285655539191e+00 -1.546557149392506325e+00 3.540000000000000000e+02
-3.394738751789291520e+00 3.561009089995823551e+00 3.550000000000000000e+02
-2.265422745548486549e+00 2.709748050097768424e+00 3.550000000000000000e+02
-1.136106739307681135e+00 1.858487010199713518e+00 3.550000000000000000e+02
-6.790733066876185331e-03 1.007225970301658613e+00 3.550000000000000000e+02
1.122525273173928806e+00 1.559649304036037076e-01 3.550000000000000000e+02
2.251841279414734220e+00 -6.952961094944511977e-01 3.550000000000000000e+02
3.381157285655539191e+00 -1.546557149392506325e+00 3.550000000000000000e+02
-3.394738751789291520e+00 3.561009089995823551e+00 3.560000000000000000e+02
-2.265422745548486549e+00 2.709748050097768424e+00 3.560000000000000000e+02
-1.136106739307681135e+00 1.858487010199713518e+00 3.560000000000000000e+02
-6.790733066876185331e-03 1.007225970301658613e+00 3.560000000000000000e+02
1.122525273173928806e+00 1.559649304036037076e-01 3.560000000000000000e+02
2.251841279414734220e+00 -6.952961094944511977e-01 3.560000000000000000e+02
3.381157285655539191e+00 -1.546557149392506325e+00 3.560000000000000000e+02
-3.394738751789291520e+00 3.561009089995823551e+00 3.570000000000000000e+02
-2.265422745548486549e+00 2.709748050097768424e+00 3.570000000000000000e+02
-1.136106739307681135e+00 1.858487010199713518e+00 3.570000000000000000e+02
-6.790733066876185331e-03 1.007225970301658613e+00 3.570000000000000000e+02
1.122525273173928806e+00 1.559649304036037076e-01 3.570000000000000000e+02
2.251841279414734220e+00 -6.952961094944511977e-01 3.570000000000000000e+02
3.381157285655539191e+00 -1.546557149392506325e+00 3.570000000000000000e+02
-3.394738751789291520e+00 3.561009089995823551e+00 3.580000000000000000e+02
-2.265422745548486549e+00 2.709748050097768424e+00 3.580000000000000000e+02
-1.136106739307681135e+00 1.858487010199713518e+00 3.580000000000000000e+02
-6.790733066876185331e-03 1.007225970301658613e+00 3.580000000000000000e+02
1.122525273173928806e+00 1.559649304036037076e-01 3.580000000000000000e+02
2.251841279414734220e+00 -6.952961094944511977e-01 3.580000000000000000e+02
3.381157285655539191e+00 -1.546557149392506325e+00 3.580000000000000000e+02
-3.394738751789291520e+00 3.561009089995823551e+00 3.590000000000000000e+02
-2.265422745548486549e+00 2.709748050097768424e+00 3.590000000000000000e+02
-1.136106739307681135e+00 1.858487010199713518e+00 3.590000000000000000e+02
-6.790733066876185331e-03 1.007225970301658613e+00 3.590000000000000000e+02
1.122525273173928806e+00 1.559649304036037076e-01 3.590000000000000000e+02
2.251841279414734220e+00 -6.952961094944511977e-01 3.590000000000000000e+02
3.381157285655539191e+00 -1.546557149392506325e+00 3.590000000000000000e+02
-3.394738751789291520e+00 3.561009089995823551e+00 3.600000000000000000e+02
-2.265422745548486549e+00 2.709748050097768424e+00 3.600000000000000000e+02
-1.136106739307681135e+00 1.858487010199713518e+00 3.600000000000000000e+02
-6.790733066876185331e-03 1.007225970301658613e+00 3.600000000000000000e+02
1.122525273173928806e+00 1.559649304036037076e-01 3.600000000000000000e+02
2.251841279414734220e+00 -6.952961094944511977e-01 3.600000000000000000e+02
3.381157285655539191e+00 -1.546557149392506325e+00 3.600000000000000000e+02
-3.394738751789291520e+00 3.561009089995823551e+00 3.610000000000000000e+02
-2.265422745548486549e+00 2.709748050097768424e+00 3.610000000000000000e+02
-1.136106739307681135e+00 1.858487010199713518e+00 3.610000000000000000e+02
-6.790733066876185331e-03 1.007225970301658613e+00 3.610000000000000000e+02
1.122525273173928806e+00 1.559649304036037076e-01 3.610000000000000000e+02
2.251841279414734220e+00 -6.952961094944511977e-01 3.610000000000000000e+02
3.381157285655539191e+00 -1.546557149392506325e+00 3.610000000000000000e+02
-3.394738751789291520e+00 3.561009089995823551e+00 3.620000000000000000e+02
-2.265422745548486549e+00 2.709748050097768424e+00 3.620000000000000000e+02
-1.136106739307681135e+00 1.858487010199713518e+00 3.620000000000000000e+02
-6.790733066876185331e-03 1.007225970301658613e+00 3.620000000000000000e+02
1.122525273173928806e+00 1.559649304036037076e-01 3.620000000000000000e+02
2.251841279414734220e+00 -6.952961094944511977e-01 3.620000000000000000e+02
3.381157285655539191e+00 -1.546557149392506325e+00 3.620000000000000000e+02
-3.394738751789291520e+00 3.561009089995823551e+00 3.630000000000000000e+02
-2.265422745548486549e+00 2.709748050097768424e+00 3.630000000000000000e+02
-1.136106739307681135e+00 1.858487010199713518e+00 3.630000000000000000e+02
-6.790733066876185331e-03 1.007225970301658613e+00 3.630000000000000000e+02
1.122525273173928806e+00 1.559649304036037076e-01 3.630000000000000000e+02
2.251841279414734220e+00 -6.952961094944511977e-01 3.630000000000000000e+02
3.381157285655539191e+00 -1.546557149392506325e+00 3.630000000000000000e+02
-3.394738751789291520e+00 3.561009089995823551e+00 3.640000000000000000e+02
-2.265422745548486549e+00 2.709748050097768424e+00 3.640000000000000000e+02
-1.136106739307681135e+00 1.858487010199713518e+00 3.640000000000000000e+02
-6.790733066876185331e-03 1.007225970301658613e+00 3.640000000000000000e+02
1.122525273173928806e+00 1.559649304036037076e-01 3.640000000000000000e+02
2.251841279414734220e+00 -6.952961094944511977e-01 3.640000000000000000e+02
3.381157285655539191e+00 -1.546557149392506325e+00 3.640000000000000000e+02
-3.394738751789291520e+00 3.561009089995823551e+00 3.650000000000000000e+02
-2.265422745548486549e+00 2.709748050097768424e+00 3.650000000000000000e+02
-1.136106739307681135e+00 1.858487010199713518e+00 3.650000000000000000e+02
-6.790733066876185331e-03 1.007225970301658613e+00 3.650000000000000000e+02
1.122525273173928806e+00 1.559649304036037076e-01 3.650000000000000000e+02
2.251841279414734220e+00 -6.952961094944511977e-01 3.650000000000000000e+02
3.381157285655539191e+00 -1.546557149392506325e+00 3.650000000000000000e+02
-3.394738751789291520e+00 3.561009089995823551e+00 3.660000000000000000e+02
-2.265422745548486549e+00 2.709748050097768424e+00 3.660000000000000000e+02
-1.136106739307681135e+00 1.858487010199713518e+00 3.660000000000000000e+02
-6.790733066876185331e-03 1.007225970301658613e+00 3.660000000000000000e+02
1.122525273173928806e+00 1.559649304036037076e-01 3.660000000000000000e+02
2.251841279414734220e+00 -6.952961094944511977e-01 3.660000000000000000e+02
3.381157285655539191e+00 -1.546557149392506325e+00 3.660000000000000000e+02
-3.394738751789291520e+00 3.561009089995823551e+00 3.670000000000000000e+02
-2.265422745548486549e+00 2.709748050097768424e+00 3.670000000000000000e+02
-1.136106739307681135e+00 1.858487010199713518e+00 3.670000000000000000e+02
-6.790733066876185331e-03 1.007225970301658613e+00 3.670000000000000000e+02
1.122525273173928806e+00 1.559649304036037076e-01 3.670000000000000000e+02
2.251841279414734220e+00 -6.952961094944511977e-01 3.670000000000000000e+02
3.381157285655539191e+00 -1.546557149392506325e+00 3.670000000000000000e+02
-3.394738751789291520e+00 3.561009089995823551e+00 3.680000000000000000e+02
-2.265422745548486549e+00 2.709748050097768424e+00 3.680000000000000000e+02
-1.136106739307681135e+00 1.858487010199713518e+00 3.680000000000000000e+02
-6.790733066876185331e-03 1.007225970301658613e+00 3.680000000000000000e+02
1.122525273173928806e+00 1.559649304036037076e-01 3.680000000000000000e+02
2.251841279414734220e+00 -6.952961094944511977e-01 3.680000000000000000e+02
3.381157285655539191e+00 -1.546557149392506325e+00 3.680000000000000000e+02
-3.394738751789291520e+00 3.561009089995823551e+00 3.690000000000000000e+02
-2.265422745548486549e+00 2.709748050097768424e+00 3.690000000000000000e+02
-1.136106739307681135e+00 1.858487010199713518e+00 3.690000000000000000e+02
-6.790733066876185331e-03 1.007225970301658613e+00 3.690000000000000000e+02
1.122525273173928806e+00 1.559649304036037076e-01 3.690000000000000000e+02
2.251841279414734220e+00 -6.952961094944511977e-01 3.690000000000000000e+02
3.381157285655539191e+00 -1.546557149392506325e+00 3.690000000000000000e+02
-3.255711268617916598e+00 2.570720566926393502e+00 3.700000000000000000e+02
-2.126395262377111628e+00 1.719459527028338375e+00 3.700000000000000000e+02
-9.970792561363062134e-01 8.681984871302835804e-01 3.700000000000000000e+02
1.322367501044989235e-01 1.693744723222867510e-02 3.700000000000000000e+02
1.261552756345303949e+00 -8.343235926658263413e-01 3.700000000000000000e+02
2.390868762586109142e+00 -1.685584632563881247e+00 3.700000000000000000e+02
3.520184768826914556e+00 -2.536845672461936374e+00 3.700000000000000000e+02
-3.255711268617916598e+00 2.570720566926393502e+00 3.710000000000000000e+02
-2.126395262377111628e+00 1.719459527028338375e+00 3.710000000000000000e+02
-9.970792561363062134e-01 8.681984871302835804e-01 3.710000000000000000e+02
1.322367501044989235e-01 1.693744723222867510e-02 3.710000000000000000e+02
1.261552756345303949e+00 -8.343235926658263413e-01 3.710000000000000000e+02
2.390868762586109142e+00 -1.685584632563881247e+00 3.710000000000000000e+02
3.520184768826914556e+00 -2.536845672461936374e+00 3.710000000000000000e+02
-3.394738751789291520e+00 3.561009089995823551e+00 3.720000000000000000e+02
-2.265422745548486549e+00 2.709748050097768424e+00 3.720000000000000000e+02
-1.136106739307681135e+00 1.858487010199713518e+00 3.720000000000000000e+02
-6.790733066876185331e-03 1.007225970301658613e+00 3.720000000000000000e+02
1.122525273173928806e+00 1.559649304036037076e-01 3.720000000000000000e+02
2.251841279414734220e+00 -6.952961094944511977e-01 3.720000000000000000e+02
3.381157285655539191e+00 -1.546557149392506325e+00 3.720000000000000000e+02
-3.394738751789291520e+00 3.561009089995823551e+00 3.730000000000000000e+02
-2.265422745548486549e+00 2.709748050097768424e+00 3.730000000000000000e+02
-1.136106739307681135e+00 1.858487010199713518e+00 3.730000000000000000e+02
-6.790733066876185331e-03 1.007225970301658613e+00 3.730000000000000000e+02
1.122525273173928806e+00 1.559649304036037076e-01 3.730000000000000000e+02
2.251841279414734220e+00 -6.952961094944511977e-01 3.730000000000000000e+02
3.381157285655539191e+00 -1.546557149392506325e+00 3.730000000000000000e+02
-3.394738751789291520e+00 3.561009089995823551e+00 3.740000000000000000e+02
-2.265422745548486549e+00 2.709748050097768424e+00 3.740000000000000000e+02
-1.136106739307681135e+00 1.858487010199713518e+00 3.740000000000000000e+02
-6.790733066876185331e-03 1.007225970301658613e+00 3.740000000000000000e+02
1.122525273173928806e+00 1.559649304036037076e-01 3.740000000000000000e+02
2.251841279414734220e+00 -6.952961094944511977e-01 3.740000000000000000e+02
3.381157285655539191e+00 -1.546557149392506325e+00 3.740000000000000000e+02
4.510473291896344605e+00 -2.397818189290561008e+00 3.740000000000000000e+02
-3.394738751789291520e+00 3.561009089995823551e+00 3.750000000000000000e+02
-2.265422745548486549e+00 2.709748050097768424e+00 3.750000000000000000e+02
-1.136106739307681135e+00 1.858487010199713518e+00 3.750000000000000000e+02
-6.790733066876185331e-03 1.007225970301658613e+00 3.750000000000000000e+02
1.122525273173928806e+00 1.559649304036037076e-01 3.750000000000000000e+02
2.251841279414734220e+00 -6.952961094944511977e-01 3.750000000000000000e+02
3.381157285655539191e+00 -1.546557149392506325e+00 3.750000000000000000e+02
-3.394738751789291520e+00 3.561009089995823551e+00 3.760000000000000000e+02
-2.265422745548486549e+00 2.709748050097768424e+00 3.760000000000000000e+02
-1.136106739307681135e+00 1.858487010199713518e+00 3.760000000000000000e+02
-6.790733066876185331e-03 1.007225970301658613e+00 3.760000000000000000e+02
1.122525273173928806e+00 1.559649304036037076e-01 3.760000000000000000e+02
2.251841279414734220e+00 -6.952961094944511977e-01 3.760000000000000000e+02
3.381157285655539191e+00 -1.546557149392506325e+00 3.760000000000000000e+02
-3.394738751789291520e+00 3.561009089995823551e+00 3.770000000000000000e+02
-2.265422745548486549e+00 2.709748050097768424e+00 3.770000000000000000e+02
-1.136106739307681135e+00 1.858487010199713518e+00 3.770000000000000000e+02
-6.790733066876185331e-03 1.007225970301658613e+00 3.770000000000000000e+02
1.122525273173928806e+00 1.559649304036037076e-01 3.770000000000000000e+02
2.251841279414734220e+00 -6.952961094944511977e-01 3.770000000000000000e+02
3.381157285655539191e+00 -1.546557149392506325e+00 3.770000000000000000e+02
-3.394738751789291520e+00 3.561009089995823551e+00 3.780000000000000000e+02
-2.265422745548486549e+00 2.709748050097768424e+00 3.780000000000000000e+02
-1.136106739307681135e+00 1.858487010199713518e+00 3.780000000000000000e+02
-6.790733066876185331e-03 1.007225970301658613e+00 3.780000000000000000e+02
1.122525273173928806e+00 1.559649304036037076e-01 3.780000000000000000e+02
2.251841279414734220e+00 -6.952961094944511977e-01 3.780000000000000000e+02
3.381157285655539191e+00 -1.546557149392506325e+00 3.780000000000000000e+02
-3.255711268617916598e+00 2.570720566926393502e+00 3.790000000000000000e+02
-2.126395262377111628e+00 1.719459527028338375e+00 3.790000000000000000e+02
-9.970792561363062134e-01 8.681984871302835804e-01 3.790000000000000000e+02
1.322367501044989235e-01 1.693744723222867510e-02 3.790000000000000000e+02
1.261552756345303949e+00 -8.343235926658263413e-01 3.790000000000000000e+02
2.390868762586109142e+00 -1.685584632563881247e+00 3.790000000000000000e+02
-3.255711268617916598e+00 2.570720566926393502e+00 3.800000000000000000e+02
-2.126395262377111628e+00 1.719459527028338375e+00 3.800000000000000000e+02
-9.970792561363062134e-01 8.681984871302835804e-01 3.800000000000000000e+02
1.322367501044989235e-01 1.693744723222867510e-02 3.800000000000000000e+02
1.261552756345303949e+00 -8.343235926658263413e-01 3.800000000000000000e+02
2.390868762586109142e+00 -1.685584632563881247e+00 3.800000000000000000e+02
-3.394738751789291520e+00 3.561009089995823551e+00 3.810000000000000000e+02
-2.265422745548486549e+00 2.709748050097768424e+00 3.810000000000000000e+02
-1.136106739307681135e+00 1.858487010199713518e+00 3.810000000000000000e+02
-6.790733066876185331e-03 1.007225970301658613e+00 3.810000000000000000e+02
1.122525273173928806e+00 1.559649304036037076e-01 3.810000000000000000e+02
2.251841279414734220e+00 -6.952961094944511977e-01 3.810000000000000000e+02
3.381157285655539191e+00 -1.546557149392506325e+00 3.810000000000000000e+02
-3.394738751789291520e+00 3.561009089995823551e+00 3.820000000000000000e+02
-2.265422745548486549e+00 2.709748050097768424e+00 3.820000000000000000e+02
-1.136106739307681135e+00 1.858487010199713518e+00 3.820000000000000000e+02
-6.790733066876185331e-03 1.007225970301658613e+00 3.820000000000000000e+02
1.122525273173928806e+00 1.559649304036037076e-01 3.820000000000000000e+02
2.251841279414734220e+00 -6.952961094944511977e-01 3.820000000000000000e+02
3.381157285655539191e+00 -1.546557149392506325e+00 3.820000000000000000e+02
-3.394738751789291520e+00 3.561009089995823551e+00 3.830000000000000000e+02
-2.265422745548486549e+00 2.709748050097768424e+00 3.830000000000000000e+02
-1.136106739307681135e+00 1.858487010199713518e+00 3.830000000000000000e+02
-6.790733066876185331e-03 1.007225970301658613e+00 3.830000000000000000e+02
1.122525273173928806e+00 1.559649304036037076e-01 3.830000000000000000e+02
2.251841279414734220e+00 -6.952961094944511977e-01 3.830000000000000000e+02
3.381157285655539191e+00 -1.546557149392506325e+00 3.830000000000000000e+02
-3.394738751789291520e+00 3.561009089995823551e+00 3.840000000000000000e+02
-2.265422745548486549e+00 2.709748050097768424e+00 3.840000000000000000e+02
-1.136106739307681135e+00 1.858487010199713518e+00 3.840000000000000000e+02
-6.790733066876185331e-03 1.007225970301658613e+00 3.840000000000000000e+02
1.122525273173928806e+00 1.559649304036037076e-01 3.840000000000000000e+02
2.251841279414734220e+00 -6.952961094944511977e-01 3.840000000000000000e+02
3.381157285655539191e+00 -1.546557149392506325e+00 3.840000000000000000e+02
-3.394738751789291520e+00 3.561009089995823551e+00 3.850000000000000000e+02
-2.265422745548486549e+00 2.709748050097768424e+00 3.850000000000000000e+02
-1.136106739307681135e+00 1.858487010199713518e+00 3.850000000000000000e+02
-6.790733066876185331e-03 1.007225970301658613e+00 3.850000000000000000e+02
1.122525273173928806e+00 1.559649304036037076e-01 3.850000000000000000e+02
2.251841279414734220e+00 -6.952961094944511977e-01 3.850000000000000000e+02
3.381157285655539191e+00 -1.546557149392506325e+00 3.850000000000000000e+02
-3.394738751789291520e+00 3.561009089995823551e+00 3.860000000000000000e+02
-2.265422745548486549e+00 2.709748050097768424e+00 3.860000000000000000e+02
-1.136106739307681135e+00 1.858487010199713518e+00 3.860000000000000000e+02
-6.790733066876185331e-03 1.007225970301658613e+00 3.860000000000000000e+02
1.122525273173928806e+00 1.559649304036037076e-01 3.860000000000000000e+02
2.251841279414734220e+00 -6.952961094944511977e-01 3.860000000000000000e+02
3.381157285655539191e+00 -1.546557149392506325e+00 3.860000000000000000e+02
-3.394738751789291520e+00 3.561009089995823551e+00 3.870000000000000000e+02
-2.265422745548486549e+00 2.709748050097768424e+00 3.870000000000000000e+02
-1.136106739307681135e+00 1.858487010199713518e+00 3.870000000000000000e+02
-6.790733066876185331e-03 1.007225970301658613e+00 3.870000000000000000e+02
1.122525273173928806e+00 1.559649304036037076e-01 3.870000000000000000e+02
2.251841279414734220e+00 -6.952961094944511977e-01 3.870000000000000000e+02
3.381157285655539191e+00 -1.546557149392506325e+00 3.870000000000000000e+02
-3.255711268617916598e+00 2.570720566926393502e+00 3.880000000000000000e+02
-2.126395262377111628e+00 1.719459527028338375e+00 3.880000000000000000e+02
-9.970792561363062134e-01 8.681984871302835804e-01 3.880000000000000000e+02
1.322367501044989235e-01 1.693744723222867510e-02 3.880000000000000000e+02
1.261552756345303949e+00 -8.343235926658263413e-01 3.880000000000000000e+02
2.390868762586109142e+00 -1.685584632563881247e+00 3.880000000000000000e+02
-3.255711268617916598e+00 2.570720566926393502e+00 3.890000000000000000e+02
-2.126395262377111628e+00 1.719459527028338375e+00 3.890000000000000000e+02
-9.970792561363062134e-01 8.681984871302835804e-01 3.890000000000000000e+02
1.322367501044989235e-01 1.693744723222867510e-02 3.890000000000000000e+02
1.261552756345303949e+00 -8.343235926658263413e-01 3.890000000000000000e+02
2.390868762586109142e+00 -1.685584632563881247e+00 3.890000000000000000e+02
-3.255711268617916598e+00 2.570720566926393502e+00 3.900000000000000000e+02
-2.126395262377111628e+00 1.719459527028338375e+00 3.900000000000000000e+02
-9.970792561363062134e-01 8.681984871302835804e-01 3.900000000000000000e+02
1.322367501044989235e-01 1.693744723222867510e-02 3.900000000000000000e+02
1.261552756345303949e+00 -8.343235926658263413e-01 3.900000000000000000e+02
2.390868762586109142e+00 -1.685584632563881247e+00 3.900000000000000000e+02
-3.255711268617916598e+00 2.570720566926393502e+00 3.910000000000000000e+02
-2.126395262377111628e+00 1.719459527028338375e+00 3.910000000000000000e+02
-9.970792561363062134e-01 8.681984871302835804e-01 3.910000000000000000e+02
1.322367501044989235e-01 1.693744723222867510e-02 3.910000000000000000e+02
1.261552756345303949e+00 -8.343235926658263413e-01 3.910000000000000000e+02
2.390868762586109142e+00 -1.685584632563881247e+00 3.910000000000000000e+02
-3.394738751789291520e+00 3.561009089995823551e+00 3.920000000000000000e+02
-2.265422745548486549e+00 2.709748050097768424e+00 3.920000000000000000e+02
-1.136106739307681135e+00 1.858487010199713518e+00 3.920000000000000000e+02
-6.790733066876185331e-03 1.007225970301658613e+00 3.920000000000000000e+02
1.122525273173928806e+00 1.559649304036037076e-01 3.920000000000000000e+02
2.251841279414734220e+00 -6.952961094944511977e-01 3.920000000000000000e+02
3.381157285655539191e+00 -1.546557149392506325e+00 3.920000000000000000e+02
-3.394738751789291520e+00 3.561009089995823551e+00 3.930000000000000000e+02
-2.265422745548486549e+00 2.709748050097768424e+00 3.930000000000000000e+02
-1.136106739307681135e+00 1.858487010199713518e+00 3.930000000000000000e+02
-6.790733066876185331e-03 1.007225970301658613e+00 3.930000000000000000e+02
1.122525273173928806e+00 1.559649304036037076e-01 3.930000000000000000e+02
2.251841279414734220e+00 -6.952961094944511977e-01 3.930000000000000000e+02
3.381157285655539191e+00 -1.546557149392506325e+00 3.930000000000000000e+02
-3.394738751789291520e+00 3.561009089995823551e+00 3.940000000000000000e+02
-2.265422745548486549e+00 2.709748050097768424e+00 3.940000000000000000e+02
-1.136106739307681135e+00 1.858487010199713518e+00 3.940000000000000000e+02
-6.790733066876185331e-03 1.007225970301658613e+00 3.940000000000000000e+02
1.122525273173928806e+00 1.559649304036037076e-01 3.940000000000000000e+02
2.251841279414734220e+00 -6.952961094944511977e-01 3.940000000000000000e+02
3.381157285655539191e+00 -1.546557149392506325e+00 3.940000000000000000e+02
-3.394738751789291520e+00 3.561009089995823551e+00 3.950000000000000000e+02
-2.265422745548486549e+00 2.709748050097768424e+00 3.950000000000000000e+02
-1.136106739307681135e+00 1.858487010199713518e+00 3.950000000000000000e+02
-6.790733066876185331e-03 1.007225970301658613e+00 3.950000000000000000e+02
1.122525273173928806e+00 1.559649304036037076e-01 3.950000000000000000e+02
2.251841279414734220e+00 -6.952961094944511977e-01 3.950000000000000000e+02
3.381157285655539191e+00 -1.546557149392506325e+00 3.950000000000000000e+02
-3.255711268617916598e+00 2.570720566926393502e+00 3.960000000000000000e+02
-2.126395262377111628e+00 1.719459527028338375e+00 3.960000000000000000e+02
-9.970792561363062134e-01 8.681984871302835804e-01 3.960000000000000000e+02
1.322367501044989235e-01 1.693744723222867510e-02 3.960000000000000000e+02
1.261552756345303949e+00 -8.343235926658263413e-01 3.960000000000000000e+02
2.390868762586109142e+00 -1.685584632563881247e+00 3.960000000000000000e+02
-3.255711268617916598e+00 2.570720566926393502e+00 3.970000000000000000e+02
-2.126395262377111628e+00 1.719459527028338375e+00 3.970000000000000000e+02
-9.970792561363062134e-01 8.681984871302835804e-01 3.970000000000000000e+02
1.322367501044989235e-01 1.693744723222867510e-02 3.970000000000000000e+02
1.261552756345303949e+00 -8.343235926658263413e-01 3.970000000000000000e+02
2.390868762586109142e+00 -1.685584632563881247e+00 3.970000000000000000e+02
-3.255711268617916598e+00 2.570720566926393502e+00 3.980000000000000000e+02
-2.126395262377111628e+00 1.719459527028338375e+00 3.980000000000000000e+02
-9.970792561363062134e-01 8.681984871302835804e-01 3.980000000000000000e+02
1.322367501044989235e-01 1.693744723222867510e-02 3.980000000000000000e+02
1.261552756345303949e+00 -8.343235926658263413e-01 3.980000000000000000e+02
2.390868762586109142e+00 -1.685584632563881247e+00 3.980000000000000000e+02
-3.255711268617916598e+00 2.570720566926393502e+00 3.990000000000000000e+02
-2.126395262377111628e+00 1.719459527028338375e+00 3.990000000000000000e+02
-9.970792561363062134e-01 8.681984871302835804e-01 3.990000000000000000e+02
1.322367501044989235e-01 1.693744723222867510e-02 3.990000000000000000e+02
1.261552756345303949e+00 -8.343235926658263413e-01 3.990000000000000000e+02
2.390868762586109142e+00 -1.685584632563881247e+00 3.990000000000000000e+02
-3.255711268617916598e+00 2.570720566926393502e+00 4.000000000000000000e+02
-2.126395262377111628e+00 1.719459527028338375e+00 4.000000000000000000e+02
-9.970792561363062134e-01 8.681984871302835804e-01 4.000000000000000000e+02
1.322367501044989235e-01 1.693744723222867510e-02 4.000000000000000000e+02
1.261552756345303949e+00 -8.343235926658263413e-01 4.000000000000000000e+02
2.390868762586109142e+00 -1.685584632563881247e+00 4.000000000000000000e+02
3.520184768826914556e+00 -2.536845672461936374e+00 4.000000000000000000e+02
-3.255711268617916598e+00 2.570720566926393502e+00 4.010000000000000000e+02
-2.126395262377111628e+00 1.719459527028338375e+00 4.010000000000000000e+02
-9.970792561363062134e-01 8.681984871302835804e-01 4.010000000000000000e+02
1.322367501044989235e-01 1.693744723222867510e-02 4.010000000000000000e+02
1.261552756345303949e+00 -8.343235926658263413e-01 4.010000000000000000e+02
2.390868762586109142e+00 -1.685584632563881247e+00 4.010000000000000000e+02
3.520184768826914556e+00 -2.536845672461936374e+00 4.010000000000000000e+02
-3.255711268617916598e+00 2.570720566926393502e+00 4.020000000000000000e+02
-2.126395262377111628e+00 1.719459527028338375e+00 4.020000000000000000e+02
-9.970792561363062134e-01 8.681984871302835804e-01 4.020000000000000000e+02
1.322367501044989235e-01 1.693744723222867510e-02 4.020000000000000000e+02
1.261552756345303949e+00 -8.343235926658263413e-01 4.020000000000000000e+02
2.390868762586109142e+00 -1.685584632563881247e+00 4.020000000000000000e+02
3.520184768826914556e+00 -2.536845672461936374e+00 4.020000000000000000e+02
-3.255711268617916598e+00 2.570720566926393502e+00 4.030000000000000000e+02
-2.126395262377111628e+00 1.719459527028338375e+00 4.030000000000000000e+02
-9.970792561363062134e-01 8.681984871302835804e-01 4.030000000000000000e+02
1.322367501044989235e-01 1.693744723222867510e-02 4.030000000000000000e+02
1.261552756345303949e+00 -8.343235926658263413e-01 4.030000000000000000e+02
2.390868762586109142e+00 -1.685584632563881247e+00 4.030000000000000000e+02
-3.255711268617916598e+00 2.570720566926393502e+00 4.040000000000000000e+02
-2.126395262377111628e+00 1.719459527028338375e+00 4.040000000000000000e+02
-9.970792561363062134e-01 8.681984871302835804e-01 4.040000000000000000e+02
1.322367501044989235e-01 1.693744723222867510e-02 4.040000000000000000e+02
1.261552756345303949e+00 -8.343235926658263413e-01 4.040000000000000000e+02
2.390868762586109142e+00 -1.685584632563881247e+00 4.040000000000000000e+02
-3.255711268617916598e+00 2.570720566926393502e+00 4.050000000000000000e+02
-2.126395262377111628e+00 1.719459527028338375e+00 4.050000000000000000e+02
-9.970792561363062134e-01 8.681984871302835804e-01 4.050000000000000000e+02
1.322367501044989235e-01 1.693744723222867510e-02 4.050000000000000000e+02
1.261552756345303949e+00 -8.343235926658263413e-01 4.050000000000000000e+02
2.390868762586109142e+00 -1.685584632563881247e+00 4.050000000000000000e+02
-3.255711268617916598e+00 2.570720566926393502e+00 4.060000000000000000e+02
-2.126395262377111628e+00 1.719459527028338375e+00 4.060000000000000000e+02
-9.970792561363062134e-01 8.681984871302835804e-01 4.060000000000000000e+02
1.322367501044989235e-01 1.693744723222867510e-02 4.060000000000000000e+02
1.261552756345303949e+00 -8.343235926658263413e-01 4.060000000000000000e+02
2.390868762586109142e+00 -1.685584632563881247e+00 4.060000000000000000e+02
-3.255711268617916598e+00 2.570720566926393502e+00 4.070000000000000000e+02
-2.126395262377111628e+00 1.719459527028338375e+00 4.070000000000000000e+02
-9.970792561363062134e-01 8.681984871302835804e-01 4.070000000000000000e+02
1.322367501044989235e-01 1.693744723222867510e-02 4.070000000000000000e+02
1.261552756345303949e+00 -8.343235926658263413e-01 4.070000000000000000e+02
2.390868762586109142e+00 -1.685584632563881247e+00 4.070000000000000000e+02
-3.255711268617916598e+00 2.570720566926393502e+00 4.080000000000000000e+02
-2.126395262377111628e+00 1.719459527028338375e+00 4.080000000000000000e+02
-9.970792561363062134e-01 8.681984871302835804e-01 4.080000000000000000e+02
1.322367501044989235e-01 1.693744723222867510e-02 4.080000000000000000e+02
1.261552756345303949e+00 -8.343235926658263413e-01 4.080000000000000000e+02
2.390868762586109142e+00 -1.685584632563881247e+00 4.080000000000000000e+02
-3.255711268617916598e+00 2.570720566926393502e+00 4.090000000000000000e+02
-2.126395262377111628e+00 1.719459527028338375e+00 4.090000000000000000e+02
-9.970792561363062134e-01 8.681984871302835804e-01 4.090000000000000000e+02
1.322367501044989235e-01 1.693744723222867510e-02 4.090000000000000000e+02
1.261552756345303949e+00 -8.343235926658263413e-01 4.090000000000000000e+02
2.390868762586109142e+00 -1.685584632563881247e+00 4.090000000000000000e+02
3.520184768826914556e+00 -2.536845672461936374e+00 4.090000000000000000e+02
-3.394738751789291520e+00 3.561009089995823551e+00 4.100000000000000000e+02
-2.265422745548486549e+00 2.709748050097768424e+00 4.100000000000000000e+02
-1.136106739307681135e+00 1.858487010199713518e+00 4.100000000000000000e+02
-6.790733066876185331e-03 1.007225970301658613e+00 4.100000000000000000e+02
1.122525273173928806e+00 1.559649304036037076e-01 4.100000000000000000e+02
2.251841279414734220e+00 -6.952961094944511977e-01 4.100000000000000000e+02
3.381157285655539191e+00 -1.546557149392506325e+00 4.100000000000000000e+02
4.510473291896344605e+00 -2.397818189290561008e+00 4.100000000000000000e+02
-3.394738751789291520e+00 3.561009089995823551e+00 4.110000000000000000e+02
-2.265422745548486549e+00 2.709748050097768424e+00 4.110000000000000000e+02
-1.136106739307681135e+00 1.858487010199713518e+00 4.110000000000000000e+02
-6.790733066876185331e-03 1.007225970301658613e+00 4.110000000000000000e+02
1.122525273173928806e+00 1.559649304036037076e-01 4.110000000000000000e+02
2.251841279414734220e+00 -6.952961094944511977e-01 4.110000000000000000e+02
3.381157285655539191e+00 -1.546557149392506325e+00 4.110000000000000000e+02
-3.394738751789291520e+00 3.561009089995823551e+00 4.120000000000000000e+02
-2.265422745548486549e+00 2.709748050097768424e+00 4.120000000000000000e+02
-1.136106739307681135e+00 1.858487010199713518e+00 4.120000000000000000e+02
-6.790733066876185331e-03 1.007225970301658613e+00 4.120000000000000000e+02
1.122525273173928806e+00 1.559649304036037076e-01 4.120000000000000000e+02
2.251841279414734220e+00 -6.952961094944511977e-01 4.120000000000000000e+02
3.381157285655539191e+00 -1.546557149392506325e+00 4.120000000000000000e+02
-3.394738751789291520e+00 3.561009089995823551e+00 4.130000000000000000e+02
-2.265422745548486549e+00 2.709748050097768424e+00 4.130000000000000000e+02
-1.136106739307681135e+00 1.858487010199713518e+00 4.130000000000000000e+02
-6.790733066876185331e-03 1.007225970301658613e+00 4.130000000000000000e+02
1.122525273173928806e+00 1.559649304036037076e-01 4.130000000000000000e+02
2.251841279414734220e+00 -6.952961094944511977e-01 4.130000000000000000e+02
3.381157285655539191e+00 -1.546557149392506325e+00 4.130000000000000000e+02
-3.255711268617916598e+00 2.570720566926393502e+00 4.140000000000000000e+02
-2.126395262377111628e+00 1.719459527028338375e+00 4.140000000000000000e+02
-9.970792561363062134e-01 8.681984871302835804e-01 4.140000000000000000e+02
1.322367501044989235e-01 1.693744723222867510e-02 4.140000000000000000e+02
1.261552756345303949e+00 -8.343235926658263413e-01 4.140000000000000000e+02
2.390868762586109142e+00 -1.685584632563881247e+00 4.140000000000000000e+02
-3.394738751789291520e+00 3.561009089995823551e+00 4.150000000000000000e+02
-2.265422745548486549e+00 2.709748050097768424e+00 4.150000000000000000e+02
-1.136106739307681135e+00 1.858487010199713518e+00 4.150000000000000000e+02
-6.790733066876185331e-03 1.007225970301658613e+00 4.150000000000000000e+02
1.122525273173928806e+00 1.559649304036037076e-01 4.150000000000000000e+02
2.251841279414734220e+00 -6.952961094944511977e-01 4.150000000000000000e+02
3.381157285655539191e+00 -1.546557149392506325e+00 4.150000000000000000e+02
-3.394738751789291520e+00 3.561009089995823551e+00 4.160000000000000000e+02
-2.265422745548486549e+00 2.709748050097768424e+00 4.160000000000000000e+02
-1.136106739307681135e+00 1.858487010199713518e+00 4.160000000000000000e+02
-6.790733066876185331e-03 1.007225970301658613e+00 4.160000000000000000e+02
1.122525273173928806e+00 1.559649304036037076e-01 4.160000000000000000e+02
2.251841279414734220e+00 -6.952961094944511977e-01 4.160000000000000000e+02
3.381157285655539191e+00 -1.546557149392506325e+00 4.160000000000000000e+02
-3.394738751789291520e+00 3.561009089995823551e+00 4.170000000000000000e+02
-2.265422745548486549e+00 2.709748050097768424e+00 4.170000000000000000e+02
-1.136106739307681135e+00 1.858487010199713518e+00 4.170000000000000000e+02
-6.790733066876185331e-03 1.007225970301658613e+00 4.170000000000000000e+02
1.122525273173928806e+00 1.559649304036037076e-01 4.170000000000000000e+02
2.251841279414734220e+00 -6.952961094944511977e-01 4.170000000000000000e+02
3.381157285655539191e+00 -1.546557149392506325e+00 4.170000000000000000e+02
-3.394738751789291520e+00 3.561009089995823551e+00 4.180000000000000000e+02
-2.265422745548486549e+00 2.709748050097768424e+00 4.180000000000000000e+02
-1.136106739307681135e+00 1.858487010199713518e+00 4.180000000000000000e+02
-6.790733066876185331e-03 1.007225970301658613e+00 4.180000000000000000e+02
1.122525273173928806e+00 1.559649304036037076e-01 4.180000000000000000e+02
2.251841279414734220e+00 -6.952961094944511977e-01 4.180000000000000000e+02
3.381157285655539191e+00 -1.546557149392506325e+00 4.180000000000000000e+02
-3.394738751789291520e+00 3.561009089995823551e+00 4.190000000000000000e+02
-2.265422745548486549e+00 2.709748050097768424e+00 4.190000000000000000e+02
-1.136106739307681135e+00 1.858487010199713518e+00 4.190000000000000000e+02
-6.790733066876185331e-03 1.007225970301658613e+00 4.190000000000000000e+02
1.122525273173928806e+00 1.559649304036037076e-01 4.190000000000000000e+02
2.251841279414734220e+00 -6.952961094944511977e-01 4.190000000000000000e+02
