8.225767099972406404e-01 -2.259448415357568907e-01 3.350000000000000000e+02
2.221761026483748847e+00 -4.315737512206114790e-01 3.350000000000000000e+02
3.620945342970257830e+00 -6.372026609054664004e-01 3.350000000000000000e+02
5.020129659456766369e+00 -8.428315705903208777e-01 3.350000000000000000e+02
-6.173344872435301944e+00 8.021997068885171611e-01 3.360000000000000000e+02
-4.774160555948792961e+00 5.965707972036626838e-01 3.360000000000000000e+02
-3.374976239462284422e+00 3.909418875188075404e-01 3.360000000000000000e+02
-1.975791922975776327e+00 1.853129778339527856e-01 3.360000000000000000e+02
-5.766076064892677877e-01 -2.031593185090208031e-02 3.360000000000000000e+02
8.225767099972406404e-01 -2.259448415357568907e-01 3.360000000000000000e+02
2.221761026483748847e+00 -4.315737512206114790e-01 3.360000000000000000e+02
3.620945342970257830e+00 -6.372026609054664004e-01 3.360000000000000000e+02
5.020129659456766369e+00 -8.428315705903208777e-01 3.360000000000000000e+02
-6.173344872435301944e+00 8.021997068885171611e-01 3.370000000000000000e+02
-4.774160555948792961e+00 5.965707972036626838e-01 3.370000000000000000e+02
-3.374976239462284422e+00 3.909418875188075404e-01 3.370000000000000000e+02
-1.975791922975776327e+00 1.853129778339527856e-01 3.370000000000000000e+02
-5.766076064892677877e-01 -2.031593185090208031e-02 3.370000000000000000e+02
8.225767099972406404e-01 -2.259448415357568907e-01 3.370000000000000000e+02
2.221761026483748847e+00 -4.315737512206114790e-01 3.370000000000000000e+02
3.620945342970257830e+00 -6.372026609054664004e-01 3.370000000000000000e+02
5.020129659456766369e+00 -8.428315705903208777e-01 3.370000000000000000e+02
-6.173344872435301944e+00 8.021997068885171611e-01 3.380000000000000000e+02
-4.774160555948792961e+00 5.965707972036626838e-01 3.380000000000000000e+02
-3.374976239462284422e+00 3.909418875188075404e-01 3.380000000000000000e+02
-1.975791922975776327e+00 1.853129778339527856e-01 3.380000000000000000e+02
-5.766076064892677877e-01 -2.031593185090208031e-02 3.380000000000000000e+02
8.225767099972406404e-01 -2.259448415357568907e-01 3.380000000000000000e+02
2.221761026483748847e+00 -4.315737512206114790e-01 3.380000000000000000e+02
3.620945342970257830e+00 -6.372026609054664004e-01 3.380000000000000000e+02
5.020129659456766369e+00 -8.428315705903208777e-01 3.380000000000000000e+02
-6.173344872435301944e+00 8.021997068885171611e-01 3.390000000000000000e+02
-4.774160555948792961e+00 5.965707972036626838e-01 3.390000000000000000e+02
-3.374976239462284422e+00 3.909418875188075404e-01 3.390000000000000000e+02
-1.975791922975776327e+00 1.853129778339527856e-01 3.390000000000000000e+02
-5.766076064892677877e-01 -2.031593185090208031e-02 3.390000000000000000e+02
8.225767099972406404e-01 -2.259448415357568907e-01 3.390000000000000000e+02
2.221761026483748847e+00 -4.315737512206114790e-01 3.390000000000000000e+02
3.620945342970257830e+00 -6.372026609054664004e-01 3.390000000000000000e+02
5.020129659456766369e+00 -8.428315705903208777e-01 3.390000000000000000e+02
-6.770122575836128753e+00 1.604606319974198447e+00 3.400000000000000000e+02
-5.370938259349619770e+00 1.398977410289344414e+00 3.400000000000000000e+02
-3.971753942863111675e+00 1.193348500604489493e+00 3.400000000000000000e+02
-2.572569626376603136e+00 9.877195909196343493e-01 3.400000000000000000e+02
-1.173385309890094597e+00 7.820906812347794279e-01 3.400000000000000000e+02
2.257990065964138315e-01 5.764617715499247286e-01 3.400000000000000000e+02
1.624983323082922038e+00 3.708328618650700292e-01 3.400000000000000000e+02
3.024167639569430577e+00 1.652039521802153299e-01 3.400000000000000000e+02
4.423351956055939560e+00 -4.042495750463959148e-02 3.400000000000000000e+02
5.822536272542447655e+00 -2.460538671894945129e-01 3.400000000000000000e+02
-6.173344872435301944e+00 8.021997068885171611e-01 3.410000000000000000e+02
-4.774160555948792961e+00 5.965707972036626838e-01 3.410000000000000000e+02
-3.374976239462284422e+00 3.909418875188075404e-01 3.410000000000000000e+02
-1.975791922975776327e+00 1.853129778339527856e-01 3.410000000000000000e+02
-5.766076064892677877e-01 -2.031593185090208031e-02 3.410000000000000000e+02
8.225767099972406404e-01 -2.259448415357568907e-01 3.410000000000000000e+02
2.221761026483748847e+00 -4.315737512206114790e-01 3.410000000000000000e+02
3.620945342970257830e+00 -6.372026609054664004e-01 3.410000000000000000e+02
5.020129659456766369e+00 -8.428315705903208777e-01 3.410000000000000000e+02
-6.173344872435301944e+00 8.021997068885171611e-01 3.420000000000000000e+02
-4.774160555948792961e+00 5.965707972036626838e-01 3.420000000000000000e+02
-3.374976239462284422e+00 3.909418875188075404e-01 3.420000000000000000e+02
-1.975791922975776327e+00 1.853129778339527856e-01 3.420000000000000000e+02
-5.766076064892677877e-01 -2.031593185090208031e-02 3.420000000000000000e+02
8.225767099972406404e-01 -2.259448415357568907e-01 3.420000000000000000e+02
2.221761026483748847e+00 -4.315737512206114790e-01 3.420000000000000000e+02
3.620945342970257830e+00 -6.372026609054664004e-01 3.420000000000000000e+02
5.020129659456766369e+00 -8.428315705903208777e-01 3.420000000000000000e+02
-6.173344872435301944e+00 8.021997068885171611e-01 3.430000000000000000e+02
-4.774160555948792961e+00 5.965707972036626838e-01 3.430000000000000000e+02
-3.374976239462284422e+00 3.909418875188075404e-01 3.430000000000000000e+02
-1.975791922975776327e+00 1.853129778339527856e-01 3.430000000000000000e+02
-5.766076064892677877e-01 -2.031593185090208031e-02 3.430000000000000000e+02
8.225767099972406404e-01 -2.259448415357568907e-01 3.430000000000000000e+02
2.221761026483748847e+00 -4.315737512206114790e-01 3.430000000000000000e+02
3.620945342970257830e+00 -6.372026609054664004e-01 3.430000000000000000e+02
5.020129659456766369e+00 -8.428315705903208777e-01 3.430000000000000000e+02
6.419313975943274464e+00 -1.048460480275176243e+00 3.430000000000000000e+02
-6.173344872435301944e+00 8.021997068885171611e-01 3.440000000000000000e+02
-4.774160555948792961e+00 5.965707972036626838e-01 3.440000000000000000e+02
-3.374976239462284422e+00 3.909418875188075404e-01 3.440000000000000000e+02
-1.975791922975776327e+00 1.853129778339527856e-01 3.440000000000000000e+02
-5.766076064892677877e-01 -2.031593185090208031e-02 3.440000000000000000e+02
8.225767099972406404e-01 -2.259448415357568907e-01 3.440000000000000000e+02
2.221761026483748847e+00 -4.315737512206114790e-01 3.440000000000000000e+02
3.620945342970257830e+00 -6.372026609054664004e-01 3.440000000000000000e+02
5.020129659456766369e+00 -8.428315705903208777e-01 3.440000000000000000e+02
6.419313975943274464e+00 -1.048460480275176243e+00 3.440000000000000000e+02
-6.173344872435301944e+00 8.021997068885171611e-01 3.450000000000000000e+02
-4.774160555948792961e+00 5.965707972036626838e-01 3.450000000000000000e+02
-3.374976239462284422e+00 3.909418875188075404e-01 3.450000000000000000e+02
-1.975791922975776327e+00 1.853129778339527856e-01 3.450000000000000000e+02
-5.766076064892677877e-01 -2.031593185090208031e-02 3.450000000000000000e+02
8.225767099972406404e-01 -2.259448415357568907e-01 3.450000000000000000e+02
2.221761026483748847e+00 -4.315737512206114790e-01 3.450000000000000000e+02
3.620945342970257830e+00 -6.372026609054664004e-01 3.450000000000000000e+02
5.020129659456766369e+00 -8.428315705903208777e-01 3.450000000000000000e+02
6.419313975943274464e+00 -1.048460480275176243e+00 3.450000000000000000e+02
-6.173344872435301944e+00 8.021997068885171611e-01 3.460000000000000000e+02
-4.774160555948792961e+00 5.965707972036626838e-01 3.460000000000000000e+02
-3.374976239462284422e+00 3.909418875188075404e-01 3.460000000000000000e+02
-1.975791922975776327e+00 1.853129778339527856e-01 3.460000000000000000e+02
-5.766076064892677877e-01 -2.031593185090208031e-02 3.460000000000000000e+02
8.225767099972406404e-01 -2.259448415357568907e-01 3.460000000000000000e+02
2.221761026483748847e+00 -4.315737512206114790e-01 3.460000000000000000e+02
3.620945342970257830e+00 -6.372026609054664004e-01 3.460000000000000000e+02
5.020129659456766369e+00 -8.428315705903208777e-01 3.460000000000000000e+02
-6.173344872435301944e+00 8.021997068885171611e-01 3.470000000000000000e+02
-4.774160555948792961e+00 5.965707972036626838e-01 3.470000000000000000e+02
-3.374976239462284422e+00 3.909418875188075404e-01 3.470000000000000000e+02
-1.975791922975776327e+00 1.853129778339527856e-01 3.470000000000000000e+02
-5.766076064892677877e-01 -2.031593185090208031e-02 3.470000000000000000e+02
8.225767099972406404e-01 -2.259448415357568907e-01 3.470000000000000000e+02
2.221761026483748847e+00 -4.315737512206114790e-01 3.470000000000000000e+02
3.620945342970257830e+00 -6.372026609054664004e-01 3.470000000000000000e+02
5.020129659456766369e+00 -8.428315705903208777e-01 3.470000000000000000e+02
-6.173344872435301944e+00 8.021997068885171611e-01 3.480000000000000000e+02
-4.774160555948792961e+00 5.965707972036626838e-01 3.480000000000000000e+02
-3.374976239462284422e+00 3.909418875188075404e-01 3.480000000000000000e+02
-1.975791922975776327e+00 1.853129778339527856e-01 3.480000000000000000e+02
-5.766076064892677877e-01 -2.031593185090208031e-02 3.480000000000000000e+02
8.225767099972406404e-01 -2.259448415357568907e-01 3.480000000000000000e+02
2.221761026483748847e+00 -4.315737512206114790e-01 3.480000000000000000e+02
3.620945342970257830e+00 -6.372026609054664004e-01 3.480000000000000000e+02
5.020129659456766369e+00 -8.428315705903208777e-01 3.480000000000000000e+02
-6.173344872435301944e+00 8.021997068885171611e-01 3.490000000000000000e+02
-4.774160555948792961e+00 5.965707972036626838e-01 3.490000000000000000e+02
-3.374976239462284422e+00 3.909418875188075404e-01 3.490000000000000000e+02
-1.975791922975776327e+00 1.853129778339527856e-01 3.490000000000000000e+02
-5.766076064892677877e-01 -2.031593185090208031e-02 3.490000000000000000e+02
8.225767099972406404e-01 -2.259448415357568907e-01 3.490000000000000000e+02
2.221761026483748847e+00 -4.315737512206114790e-01 3.490000000000000000e+02
3.620945342970257830e+00 -6.372026609054664004e-01 3.490000000000000000e+02
5.020129659456766369e+00 -8.428315705903208777e-01 3.490000000000000000e+02
-6.770122575836128753e+00 1.604606319974198447e+00 3.500000000000000000e+02
-5.370938259349619770e+00 1.398977410289344414e+00 3.500000000000000000e+02
-3.971753942863111675e+00 1.193348500604489493e+00 3.500000000000000000e+02
-2.572569626376603136e+00 9.877195909196343493e-01 3.500000000000000000e+02
-1.173385309890094597e+00 7.820906812347794279e-01 3.500000000000000000e+02
2.257990065964138315e-01 5.764617715499247286e-01 3.500000000000000000e+02
1.624983323082922038e+00 3.708328618650700292e-01 3.500000000000000000e+02
3.024167639569430577e+00 1.652039521802153299e-01 3.500000000000000000e+02
4.423351956055939560e+00 -4.042495750463959148e-02 3.500000000000000000e+02
5.822536272542447655e+00 -2.460538671894945129e-01 3.500000000000000000e+02
7.221720589028955750e+00 -4.516827768743494342e-01 3.500000000000000000e+02
-6.770122575836128753e+00 1.604606319974198447e+00 3.510000000000000000e+02
-5.370938259349619770e+00 1.398977410289344414e+00 3.510000000000000000e+02
-3.971753942863111675e+00 1.193348500604489493e+00 3.510000000000000000e+02
-2.572569626376603136e+00 9.877195909196343493e-01 3.510000000000000000e+02
-1.173385309890094597e+00 7.820906812347794279e-01 3.510000000000000000e+02
2.257990065964138315e-01 5.764617715499247286e-01 3.510000000000000000e+02
1.624983323082922038e+00 3.708328618650700292e-01 3.510000000000000000e+02
3.024167639569430577e+00 1.652039521802153299e-01 3.510000000000000000e+02
4.423351956055939560e+00 -4.042495750463959148e-02 3.510000000000000000e+02
5.822536272542447655e+00 -2.460538671894945129e-01 3.510000000000000000e+02
7.221720589028955750e+00 -4.516827768743494342e-01 3.510000000000000000e+02
-6.173344872435301944e+00 8.021997068885171611e-01 3.520000000000000000e+02
-4.774160555948792961e+00 5.965707972036626838e-01 3.520000000000000000e+02
-3.374976239462284422e+00 3.909418875188075404e-01 3.520000000000000000e+02
-1.975791922975776327e+00 1.853129778339527856e-01 3.520000000000000000e+02
-5.766076064892677877e-01 -2.031593185090208031e-02 3.520000000000000000e+02
8.225767099972406404e-01 -2.259448415357568907e-01 3.520000000000000000e+02
2.221761026483748847e+00 -4.315737512206114790e-01 3.520000000000000000e+02
3.620945342970257830e+00 -6.372026609054664004e-01 3.520000000000000000e+02
5.020129659456766369e+00 -8.428315705903208777e-01 3.520000000000000000e+02
6.419313975943274464e+00 -1.048460480275176243e+00 3.520000000000000000e+02
-6.173344872435301944e+00 8.021997068885171611e-01 3.530000000000000000e+02
-4.774160555948792961e+00 5.965707972036626838e-01 3.530000000000000000e+02
-3.374976239462284422e+00 3.909418875188075404e-01 3.530000000000000000e+02
-1.975791922975776327e+00 1.853129778339527856e-01 3.530000000000000000e+02
-5.766076064892677877e-01 -2.031593185090208031e-02 3.530000000000000000e+02
8.225767099972406404e-01 -2.259448415357568907e-01 3.530000000000000000e+02
2.221761026483748847e+00 -4.315737512206114790e-01 3.530000000000000000e+02
3.620945342970257830e+00 -6.372026609054664004e-01 3.530000000000000000e+02
5.020129659456766369e+00 -8.428315705903208777e-01 3.530000000000000000e+02
6.419313975943274464e+00 -1.048460480275176243e+00 3.530000000000000000e+02
-6.173344872435301944e+00 8.021997068885171611e-01 3.540000000000000000e+02
-4.774160555948792961e+00 5.965707972036626838e-01 3.540000000000000000e+02
-3.374976239462284422e+00 3.909418875188075404e-01 3.540000000000000000e+02
-1.975791922975776327e+00 1.853129778339527856e-01 3.540000000000000000e+02
-5.766076064892677877e-01 -2.031593185090208031e-02 3.540000000000000000e+02
8.225767099972406404e-01 -2.259448415357568907e-01 3.540000000000000000e+02
2.221761026483748847e+00 -4.315737512206114790e-01 3.540000000000000000e+02
3.620945342970257830e+00 -6.372026609054664004e-01 3.540000000000000000e+02
5.020129659456766369e+00 -8.428315705903208777e-01 3.540000000000000000e+02
6.419313975943274464e+00 -1.048460480275176243e+00 3.540000000000000000e+02
-6.770122575836128753e+00 1.604606319974198447e+00 3.550000000000000000e+02
-5.370938259349619770e+00 1.398977410289344414e+00 3.550000000000000000e+02
-3.971753942863111675e+00 1.193348500604489493e+00 3.550000000000000000e+02
-2.572569626376603136e+00 9.877195909196343493e-01 3.550000000000000000e+02
-1.173385309890094597e+00 7.820906812347794279e-01 3.550000000000000000e+02
2.257990065964138315e-01 5.764617715499247286e-01 3.550000000000000000e+02
1.624983323082922038e+00 3.708328618650700292e-01 3.550000000000000000e+02
3.024167639569430577e+00 1.652039521802153299e-01 3.550000000000000000e+02
4.423351956055939560e+00 -4.042495750463959148e-02 3.550000000000000000e+02
5.822536272542447655e+00 -2.460538671894945129e-01 3.550000000000000000e+02
7.221720589028955750e+00 -4.516827768743494342e-01 3.550000000000000000e+02
-6.173344872435301944e+00 8.021997068885171611e-01 3.560000000000000000e+02
-4.774160555948792961e+00 5.965707972036626838e-01 3.560000000000000000e+02
-3.374976239462284422e+00 3.909418875188075404e-01 3.560000000000000000e+02
-1.975791922975776327e+00 1.853129778339527856e-01 3.560000000000000000e+02
-5.766076064892677877e-01 -2.031593185090208031e-02 3.560000000000000000e+02
8.225767099972406404e-01 -2.259448415357568907e-01 3.560000000000000000e+02
2.221761026483748847e+00 -4.315737512206114790e-01 3.560000000000000000e+02
3.620945342970257830e+00 -6.372026609054664004e-01 3.560000000000000000e+02
5.020129659456766369e+00 -8.428315705903208777e-01 3.560000000000000000e+02
-6.173344872435301944e+00 8.021997068885171611e-01 3.570000000000000000e+02
-4.774160555948792961e+00 5.965707972036626838e-01 3.570000000000000000e+02
-3.374976239462284422e+00 3.909418875188075404e-01 3.570000000000000000e+02
-1.975791922975776327e+00 1.853129778339527856e-01 3.570000000000000000e+02
-5.766076064892677877e-01 -2.031593185090208031e-02 3.570000000000000000e+02
8.225767099972406404e-01 -2.259448415357568907e-01 3.570000000000000000e+02
2.221761026483748847e+00 -4.315737512206114790e-01 3.570000000000000000e+02
3.620945342970257830e+00 -6.372026609054664004e-01 3.570000000000000000e+02
5.020129659456766369e+00 -8.428315705903208777e-01 3.570000000000000000e+02
-6.173344872435301944e+00 8.021997068885171611e-01 3.580000000000000000e+02
-4.774160555948792961e+00 5.965707972036626838e-01 3.580000000000000000e+02
-3.374976239462284422e+00 3.909418875188075404e-01 3.580000000000000000e+02
-1.975791922975776327e+00 1.853129778339527856e-01 3.580000000000000000e+02
-5.766076064892677877e-01 -2.031593185090208031e-02 3.580000000000000000e+02
8.225767099972406404e-01 -2.259448415357568907e-01 3.580000000000000000e+02
2.221761026483748847e+00 -4.315737512206114790e-01 3.580000000000000000e+02
3.620945342970257830e+00 -6.372026609054664004e-01 3.580000000000000000e+02
5.020129659456766369e+00 -8.428315705903208777e-01 3.580000000000000000e+02
-6.173344872435301944e+00 8.021997068885171611e-01 3.590000000000000000e+02
-4.774160555948792961e+00 5.965707972036626838e-01 3.590000000000000000e+02
-3.374976239462284422e+00 3.909418875188075404e-01 3.590000000000000000e+02
-1.975791922975776327e+00 1.853129778339527856e-01 3.590000000000000000e+02
-5.766076064892677877e-01 -2.031593185090208031e-02 3.590000000000000000e+02
8.225767099972406404e-01 -2.259448415357568907e-01 3.590000000000000000e+02
2.221761026483748847e+00 -4.315737512206114790e-01 3.590000000000000000e+02
3.620945342970257830e+00 -6.372026609054664004e-01 3.590000000000000000e+02
5.020129659456766369e+00 -8.428315705903208777e-01 3.590000000000000000e+02
6.419313975943274464e+00 -1.048460480275176243e+00 3.590000000000000000e+02
-6.173344872435301944e+00 8.021997068885171611e-01 3.600000000000000000e+02
-4.774160555948792961e+00 5.965707972036626838e-01 3.600000000000000000e+02
-3.374976239462284422e+00 3.909418875188075404e-01 3.600000000000000000e+02
-1.975791922975776327e+00 1.853129778339527856e-01 3.600000000000000000e+02
-5.766076064892677877e-01 -2.031593185090208031e-02 3.600000000000000000e+02
8.225767099972406404e-01 -2.259448415357568907e-01 3.600000000000000000e+02
2.221761026483748847e+00 -4.315737512206114790e-01 3.600000000000000000e+02
3.620945342970257830e+00 -6.372026609054664004e-01 3.600000000000000000e+02
5.020129659456766369e+00 -8.428315705903208777e-01 3.600000000000000000e+02
6.419313975943274464e+00 -1.048460480275176243e+00 3.600000000000000000e+02
-6.173344872435301944e+00 8.021997068885171611e-01 3.610000000000000000e+02
-4.774160555948792961e+00 5.965707972036626838e-01 3.610000000000000000e+02
-3.374976239462284422e+00 3.909418875188075404e-01 3.610000000000000000e+02
-1.975791922975776327e+00 1.853129778339527856e-01 3.610000000000000000e+02
-5.766076064892677877e-01 -2.031593185090208031e-02 3.610000000000000000e+02
8.225767099972406404e-01 -2.259448415357568907e-01 3.610000000000000000e+02
2.221761026483748847e+00 -4.315737512206114790e-01 3.610000000000000000e+02
3.620945342970257830e+00 -6.372026609054664004e-01 3.610000000000000000e+02
5.020129659456766369e+00 -8.428315705903208777e-01 3.610000000000000000e+02
6.419313975943274464e+00 -1.048460480275176243e+00 3.610000000000000000e+02
-6.173344872435301944e+00 8.021997068885171611e-01 3.620000000000000000e+02
-4.774160555948792961e+00 5.965707972036626838e-01 3.620000000000000000e+02
-3.374976239462284422e+00 3.909418875188075404e-01 3.620000000000000000e+02
-1.975791922975776327e+00 1.853129778339527856e-01 3.620000000000000000e+02
-5.766076064892677877e-01 -2.031593185090208031e-02 3.620000000000000000e+02
8.225767099972406404e-01 -2.259448415357568907e-01 3.620000000000000000e+02
2.221761026483748847e+00 -4.315737512206114790e-01 3.620000000000000000e+02
3.620945342970257830e+00 -6.372026609054664004e-01 3.620000000000000000e+02
5.020129659456766369e+00 -8.428315705903208777e-01 3.620000000000000000e+02
6.419313975943274464e+00 -1.048460480275176243e+00 3.620000000000000000e+02
-6.173344872435301944e+00 8.021997068885171611e-01 3.630000000000000000e+02
-4.774160555948792961e+00 5.965707972036626838e-01 3.630000000000000000e+02
-3.374976239462284422e+00 3.909418875188075404e-01 3.630000000000000000e+02
-1.975791922975776327e+00 1.853129778339527856e-01 3.630000000000000000e+02
-5.766076064892677877e-01 -2.031593185090208031e-02 3.630000000000000000e+02
8.225767099972406404e-01 -2.259448415357568907e-01 3.630000000000000000e+02
2.221761026483748847e+00 -4.315737512206114790e-01 3.630000000000000000e+02
3.620945342970257830e+00 -6.372026609054664004e-01 3.630000000000000000e+02
5.020129659456766369e+00 -8.428315705903208777e-01 3.630000000000000000e+02
6.419313975943274464e+00 -1.048460480275176243e+00 3.630000000000000000e+02
-6.173344872435301944e+00 8.021997068885171611e-01 3.640000000000000000e+02
-4.774160555948792961e+00 5.965707972036626838e-01 3.640000000000000000e+02
-3.374976239462284422e+00 3.909418875188075404e-01 3.640000000000000000e+02
-1.975791922975776327e+00 1.853129778339527856e-01 3.640000000000000000e+02
-5.766076064892677877e-01 -2.031593185090208031e-02 3.640000000000000000e+02
8.225767099972406404e-01 -2.259448415357568907e-01 3.640000000000000000e+02
2.221761026483748847e+00 -4.315737512206114790e-01 3.640000000000000000e+02
3.620945342970257830e+00 -6.372026609054664004e-01 3.640000000000000000e+02
5.020129659456766369e+00 -8.428315705903208777e-01 3.640000000000000000e+02
6.419313975943274464e+00 -1.048460480275176243e+00 3.640000000000000000e+02
-6.173344872435301944e+00 8.021997068885171611e-01 3.650000000000000000e+02
-4.774160555948792961e+00 5.965707972036626838e-01 3.650000000000000000e+02
-3.374976239462284422e+00 3.909418875188075404e-01 3.650000000000000000e+02
-1.975791922975776327e+00 1.853129778339527856e-01 3.650000000000000000e+02
-5.766076064892677877e-01 -2.031593185090208031e-02 3.650000000000000000e+02
8.225767099972406404e-01 -2.259448415357568907e-01 3.650000000000000000e+02
2.221761026483748847e+00 -4.315737512206114790e-01 3.650000000000000000e+02
3.620945342970257830e+00 -6.372026609054664004e-01 3.650000000000000000e+02
5.020129659456766369e+00 -8.428315705903208777e-01 3.650000000000000000e+02
-6.173344872435301944e+00 8.021997068885171611e-01 3.660000000000000000e+02
-4.774160555948792961e+00 5.965707972036626838e-01 3.660000000000000000e+02
-3.374976239462284422e+00 3.909418875188075404e-01 3.660000000000000000e+02
-1.975791922975776327e+00 1.853129778339527856e-01 3.660000000000000000e+02
-5.766076064892677877e-01 -2.031593185090208031e-02 3.660000000000000000e+02
8.225767099972406404e-01 -2.259448415357568907e-01 3.660000000000000000e+02
2.221761026483748847e+00 -4.315737512206114790e-01 3.660000000000000000e+02
3.620945342970257830e+00 -6.372026609054664004e-01 3.660000000000000000e+02
5.020129659456766369e+00 -8.428315705903208777e-01 3.660000000000000000e+02
-6.173344872435301944e+00 8.021997068885171611e-01 3.670000000000000000e+02
-4.774160555948792961e+00 5.965707972036626838e-01 3.670000000000000000e+02
-3.374976239462284422e+00 3.909418875188075404e-01 3.670000000000000000e+02
-1.975791922975776327e+00 1.853129778339527856e-01 3.670000000000000000e+02
-5.766076064892677877e-01 -2.031593185090208031e-02 3.670000000000000000e+02
8.225767099972406404e-01 -2.259448415357568907e-01 3.670000000000000000e+02
2.221761026483748847e+00 -4.315737512206114790e-01 3.670000000000000000e+02
3.620945342970257830e+00 -6.372026609054664004e-01 3.670000000000000000e+02
5.020129659456766369e+00 -8.428315705903208777e-01 3.670000000000000000e+02
-6.173344872435301944e+00 8.021997068885171611e-01 3.680000000000000000e+02
-4.774160555948792961e+00 5.965707972036626838e-01 3.680000000000000000e+02
-3.374976239462284422e+00 3.909418875188075404e-01 3.680000000000000000e+02
-1.975791922975776327e+00 1.853129778339527856e-01 3.680000000000000000e+02
-5.766076064892677877e-01 -2.031593185090208031e-02 3.680000000000000000e+02
8.225767099972406404e-01 -2.259448415357568907e-01 3.680000000000000000e+02
2.221761026483748847e+00 -4.315737512206114790e-01 3.680000000000000000e+02
3.620945342970257830e+00 -6.372026609054664004e-01 3.680000000000000000e+02
5.020129659456766369e+00 -8.428315705903208777e-01 3.680000000000000000e+02
-6.173344872435301944e+00 8.021997068885171611e-01 3.690000000000000000e+02
-4.774160555948792961e+00 5.965707972036626838e-01 3.690000000000000000e+02
-3.374976239462284422e+00 3.909418875188075404e-01 3.690000000000000000e+02
-1.975791922975776327e+00 1.853129778339527856e-01 3.690000000000000000e+02
-5.766076064892677877e-01 -2.031593185090208031e-02 3.690000000000000000e+02
8.225767099972406404e-01 -2.259448415357568907e-01 3.690000000000000000e+02
2.221761026483748847e+00 -4.315737512206114790e-01 3.690000000000000000e+02
3.620945342970257830e+00 -6.372026609054664004e-01 3.690000000000000000e+02
5.020129659456766369e+00 -8.428315705903208777e-01 3.690000000000000000e+02
-6.173344872435301944e+00 8.021997068885171611e-01 3.700000000000000000e+02
-4.774160555948792961e+00 5.965707972036626838e-01 3.700000000000000000e+02
-3.374976239462284422e+00 3.909418875188075404e-01 3.700000000000000000e+02
-1.975791922975776327e+00 1.853129778339527856e-01 3.700000000000000000e+02
-5.766076064892677877e-01 -2.031593185090208031e-02 3.700000000000000000e+02
8.225767099972406404e-01 -2.259448415357568907e-01 3.700000000000000000e+02
2.221761026483748847e+00 -4.315737512206114790e-01 3.700000000000000000e+02
3.620945342970257830e+00 -6.372026609054664004e-01 3.700000000000000000e+02
5.020129659456766369e+00 -8.428315705903208777e-01 3.700000000000000000e+02
6.419313975943274464e+00 -1.048460480275176243e+00 3.700000000000000000e+02
-6.173344872435301944e+00 8.021997068885171611e-01 3.710000000000000000e+02
-4.774160555948792961e+00 5.965707972036626838e-01 3.710000000000000000e+02
-3.374976239462284422e+00 3.909418875188075404e-01 3.710000000000000000e+02
-1.975791922975776327e+00 1.853129778339527856e-01 3.710000000000000000e+02
-5.766076064892677877e-01 -2.031593185090208031e-02 3.710000000000000000e+02
8.225767099972406404e-01 -2.259448415357568907e-01 3.710000000000000000e+02
2.221761026483748847e+00 -4.315737512206114790e-01 3.710000000000000000e+02
3.620945342970257830e+00 -6.372026609054664004e-01 3.710000000000000000e+02
5.020129659456766369e+00 -8.428315705903208777e-01 3.710000000000000000e+02
6.419313975943274464e+00 -1.048460480275176243e+00 3.710000000000000000e+02
-6.173344872435301944e+00 8.021997068885171611e-01 3.720000000000000000e+02
-4.774160555948792961e+00 5.965707972036626838e-01 3.720000000000000000e+02
-3.374976239462284422e+00 3.909418875188075404e-01 3.720000000000000000e+02
-1.975791922975776327e+00 1.853129778339527856e-01 3.720000000000000000e+02
-5.766076064892677877e-01 -2.031593185090208031e-02 3.720000000000000000e+02
8.225767099972406404e-01 -2.259448415357568907e-01 3.720000000000000000e+02
2.221761026483748847e+00 -4.315737512206114790e-01 3.720000000000000000e+02
3.620945342970257830e+00 -6.372026609054664004e-01 3.720000000000000000e+02
5.020129659456766369e+00 -8.428315705903208777e-01 3.720000000000000000e+02
6.419313975943274464e+00 -1.048460480275176243e+00 3.720000000000000000e+02
-6.173344872435301944e+00 8.021997068885171611e-01 3.730000000000000000e+02
-4.774160555948792961e+00 5.965707972036626838e-01 3.730000000000000000e+02
-3.374976239462284422e+00 3.909418875188075404e-01 3.730000000000000000e+02
-1.975791922975776327e+00 1.853129778339527856e-01 3.730000000000000000e+02
-5.766076064892677877e-01 -2.031593185090208031e-02 3.730000000000000000e+02
8.225767099972406404e-01 -2.259448415357568907e-01 3.730000000000000000e+02
2.221761026483748847e+00 -4.315737512206114790e-01 3.730000000000000000e+02
3.620945342970257830e+00 -6.372026609054664004e-01 3.730000000000000000e+02
5.020129659456766369e+00 -8.428315705903208777e-01 3.730000000000000000e+02
6.419313975943274464e+00 -1.048460480275176243e+00 3.730000000000000000e+02
-6.173344872435301944e+00 8.021997068885171611e-01 3.740000000000000000e+02
-4.774160555948792961e+00 5.965707972036626838e-01 3.740000000000000000e+02
-3.374976239462284422e+00 3.909418875188075404e-01 3.740000000000000000e+02
-1.975791922975776327e+00 1.853129778339527856e-01 3.740000000000000000e+02
-5.766076064892677877e-01 -2.031593185090208031e-02 3.740000000000000000e+02
8.225767099972406404e-01 -2.259448415357568907e-01 3.740000000000000000e+02
2.221761026483748847e+00 -4.315737512206114790e-01 3.740000000000000000e+02
3.620945342970257830e+00 -6.372026609054664004e-01 3.740000000000000000e+02
5.020129659456766369e+00 -8.428315705903208777e-01 3.740000000000000000e+02
-6.173344872435301944e+00 8.021997068885171611e-01 3.750000000000000000e+02
-4.774160555948792961e+00 5.965707972036626838e-01 3.750000000000000000e+02
-3.374976239462284422e+00 3.909418875188075404e-01 3.750000000000000000e+02
-1.975791922975776327e+00 1.853129778339527856e-01 3.750000000000000000e+02
-5.766076064892677877e-01 -2.031593185090208031e-02 3.750000000000000000e+02
8.225767099972406404e-01 -2.259448415357568907e-01 3.750000000000000000e+02
2.221761026483748847e+00 -4.315737512206114790e-01 3.750000000000000000e+02
3.620945342970257830e+00 -6.372026609054664004e-01 3.750000000000000000e+02
5.020129659456766369e+00 -8.428315705903208777e-01 3.750000000000000000e+02
-6.173344872435301944e+00 8.021997068885171611e-01 3.760000000000000000e+02
-4.774160555948792961e+00 5.965707972036626838e-01 3.760000000000000000e+02
-3.374976239462284422e+00 3.909418875188075404e-01 3.760000000000000000e+02
-1.975791922975776327e+00 1.853129778339527856e-01 3.760000000000000000e+02
-5.766076064892677877e-01 -2.031593185090208031e-02 3.760000000000000000e+02
8.225767099972406404e-01 -2.259448415357568907e-01 3.760000000000000000e+02
2.221761026483748847e+00 -4.315737512206114790e-01 3.760000000000000000e+02
3.620945342970257830e+00 -6.372026609054664004e-01 3.760000000000000000e+02
5.020129659456766369e+00 -8.428315705903208777e-01 3.760000000000000000e+02
-6.173344872435301944e+00 8.021997068885171611e-01 3.770000000000000000e+02
-4.774160555948792961e+00 5.965707972036626838e-01 3.770000000000000000e+02
-3.374976239462284422e+00 3.909418875188075404e-01 3.770000000000000000e+02
-1.975791922975776327e+00 1.853129778339527856e-01 3.770000000000000000e+02
-5.766076064892677877e-01 -2.031593185090208031e-02 3.770000000000000000e+02
8.225767099972406404e-01 -2.259448415357568907e-01 3.770000000000000000e+02
2.221761026483748847e+00 -4.315737512206114790e-01 3.770000000000000000e+02
3.620945342970257830e+00 -6.372026609054664004e-01 3.770000000000000000e+02
5.020129659456766369e+00 -8.428315705903208777e-01 3.770000000000000000e+02
-6.173344872435301944e+00 8.021997068885171611e-01 3.780000000000000000e+02
-4.774160555948792961e+00 5.965707972036626838e-01 3.780000000000000000e+02
-3.374976239462284422e+00 3.909418875188075404e-01 3.780000000000000000e+02
-1.975791922975776327e+00 1.853129778339527856e-01 3.780000000000000000e+02
-5.766076064892677877e-01 -2.031593185090208031e-02 3.780000000000000000e+02
8.225767099972406404e-01 -2.259448415357568907e-01 3.780000000000000000e+02
2.221761026483748847e+00 -4.315737512206114790e-01 3.780000000000000000e+02
3.620945342970257830e+00 -6.372026609054664004e-01 3.780000000000000000e+02
5.020129659456766369e+00 -8.428315705903208777e-01 3.780000000000000000e+02
6.419313975943274464e+00 -1.048460480275176243e+00 3.780000000000000000e+02
-6.173344872435301944e+00 8.021997068885171611e-01 3.790000000000000000e+02
-4.774160555948792961e+00 5.965707972036626838e-01 3.790000000000000000e+02
-3.374976239462284422e+00 3.909418875188075404e-01 3.790000000000000000e+02
-1.975791922975776327e+00 1.853129778339527856e-01 3.790000000000000000e+02
-5.766076064892677877e-01 -2.031593185090208031e-02 3.790000000000000000e+02
8.225767099972406404e-01 -2.259448415357568907e-01 3.790000000000000000e+02
2.221761026483748847e+00 -4.315737512206114790e-01 3.790000000000000000e+02
3.620945342970257830e+00 -6.372026609054664004e-01 3.790000000000000000e+02
5.020129659456766369e+00 -8.428315705903208777e-01 3.790000000000000000e+02
6.419313975943274464e+00 -1.048460480275176243e+00 3.790000000000000000e+02
-6.173344872435301944e+00 8.021997068885171611e-01 3.800000000000000000e+02
-4.774160555948792961e+00 5.965707972036626838e-01 3.800000000000000000e+02
-3.374976239462284422e+00 3.909418875188075404e-01 3.800000000000000000e+02
-1.975791922975776327e+00 1.853129778339527856e-01 3.800000000000000000e+02
-5.766076064892677877e-01 -2.031593185090208031e-02 3.800000000000000000e+02
8.225767099972406404e-01 -2.259448415357568907e-01 3.800000000000000000e+02
2.221761026483748847e+00 -4.315737512206114790e-01 3.800000000000000000e+02
3.620945342970257830e+00 -6.372026609054664004e-01 3.800000000000000000e+02
5.020129659456766369e+00 -8.428315705903208777e-01 3.800000000000000000e+02
6.419313975943274464e+00 -1.048460480275176243e+00 3.800000000000000000e+02
-6.173344872435301944e+00 8.021997068885171611e-01 3.810000000000000000e+02
-4.774160555948792961e+00 5.965707972036626838e-01 3.810000000000000000e+02
-3.374976239462284422e+00 3.909418875188075404e-01 3.810000000000000000e+02
-1.975791922975776327e+00 1.853129778339527856e-01 3.810000000000000000e+02
-5.766076064892677877e-01 -2.031593185090208031e-02 3.810000000000000000e+02
8.225767099972406404e-01 -2.259448415357568907e-01 3.810000000000000000e+02
2.221761026483748847e+00 -4.315737512206114790e-01 3.810000000000000000e+02
3.620945342970257830e+00 -6.372026609054664004e-01 3.810000000000000000e+02
5.020129659456766369e+00 -8.428315705903208777e-01 3.810000000000000000e+02
6.419313975943274464e+00 -1.048460480275176243e+00 3.810000000000000000e+02
-6.173344872435301944e+00 8.021997068885171611e-01 3.820000000000000000e+02
-4.774160555948792961e+00 5.965707972036626838e-01 3.820000000000000000e+02
-3.374976239462284422e+00 3.909418875188075404e-01 3.820000000000000000e+02
-1.975791922975776327e+00 1.853129778339527856e-01 3.820000000000000000e+02
-5.766076064892677877e-01 -2.031593185090208031e-02 3.820000000000000000e+02
8.225767099972406404e-01 -2.259448415357568907e-01 3.820000000000000000e+02
2.221761026483748847e+00 -4.315737512206114790e-01 3.820000000000000000e+02
3.620945342970257830e+00 -6.372026609054664004e-01 3.820000000000000000e+02
5.020129659456766369e+00 -8.428315705903208777e-01 3.820000000000000000e+02
6.419313975943274464e+00 -1.048460480275176243e+00 3.820000000000000000e+02
-6.173344872435301944e+00 8.021997068885171611e-01 3.830000000000000000e+02
-4.774160555948792961e+00 5.965707972036626838e-01 3.830000000000000000e+02
-3.374976239462284422e+00 3.909418875188075404e-01 3.830000000000000000e+02
-1.975791922975776327e+00 1.853129778339527856e-01 3.830000000000000000e+02
-5.766076064892677877e-01 -2.031593185090208031e-02 3.830000000000000000e+02
8.225767099972406404e-01 -2.259448415357568907e-01 3.830000000000000000e+02
2.221761026483748847e+00 -4.315737512206114790e-01 3.830000000000000000e+02
3.620945342970257830e+00 -6.372026609054664004e-01 3.830000000000000000e+02
5.020129659456766369e+00 -8.428315705903208777e-01 3.830000000000000000e+02
6.419313975943274464e+00 -1.048460480275176243e+00 3.830000000000000000e+02
-6.173344872435301944e+00 8.021997068885171611e-01 3.840000000000000000e+02
-4.774160555948792961e+00 5.965707972036626838e-01 3.840000000000000000e+02
-3.374976239462284422e+00 3.909418875188075404e-01 3.840000000000000000e+02
-1.975791922975776327e+00 1.853129778339527856e-01 3.840000000000000000e+02
-5.766076064892677877e-01 -2.031593185090208031e-02 3.840000000000000000e+02
8.225767099972406404e-01 -2.259448415357568907e-01 3.840000000000000000e+02
2.221761026483748847e+00 -4.315737512206114790e-01 3.840000000000000000e+02
3.620945342970257830e+00 -6.372026609054664004e-01 3.840000000000000000e+02
5.020129659456766369e+00 -8.428315705903208777e-01 3.840000000000000000e+02
-6.173344872435301944e+00 8.021997068885171611e-01 3.850000000000000000e+02
-4.774160555948792961e+00 5.965707972036626838e-01 3.850000000000000000e+02
-3.374976239462284422e+00 3.909418875188075404e-01 3.850000000000000000e+02
-1.975791922975776327e+00 1.853129778339527856e-01 3.850000000000000000e+02
-5.766076064892677877e-01 -2.031593185090208031e-02 3.850000000000000000e+02
8.225767099972406404e-01 -2.259448415357568907e-01 3.850000000000000000e+02
2.221761026483748847e+00 -4.315737512206114790e-01 3.850000000000000000e+02
3.620945342970257830e+00 -6.372026609054664004e-01 3.850000000000000000e+02
5.020129659456766369e+00 -8.428315705903208777e-01 3.850000000000000000e+02
-6.173344872435301944e+00 8.021997068885171611e-01 3.860000000000000000e+02
-4.774160555948792961e+00 5.965707972036626838e-01 3.860000000000000000e+02
-3.374976239462284422e+00 3.909418875188075404e-01 3.860000000000000000e+02
-1.975791922975776327e+00 1.853129778339527856e-01 3.860000000000000000e+02
-5.766076064892677877e-01 -2.031593185090208031e-02 3.860000000000000000e+02
8.225767099972406404e-01 -2.259448415357568907e-01 3.860000000000000000e+02
2.221761026483748847e+00 -4.315737512206114790e-01 3.860000000000000000e+02
3.620945342970257830e+00 -6.372026609054664004e-01 3.860000000000000000e+02
5.020129659456766369e+00 -8.428315705903208777e-01 3.860000000000000000e+02
-6.173344872435301944e+00 8.021997068885171611e-01 3.870000000000000000e+02
-4.774160555948792961e+00 5.965707972036626838e-01 3.870000000000000000e+02
-3.374976239462284422e+00 3.909418875188075404e-01 3.870000000000000000e+02
-1.975791922975776327e+00 1.853129778339527856e-01 3.870000000000000000e+02
-5.766076064892677877e-01 -2.031593185090208031e-02 3.870000000000000000e+02
8.225767099972406404e-01 -2.259448415357568907e-01 3.870000000000000000e+02
2.221761026483748847e+00 -4.315737512206114790e-01 3.870000000000000000e+02
3.620945342970257830e+00 -6.372026609054664004e-01 3.870000000000000000e+02
5.020129659456766369e+00 -8.428315705903208777e-01 3.870000000000000000e+02
-6.770122575836128753e+00 1.604606319974198447e+00 3.880000000000000000e+02
-5.370938259349619770e+00 1.398977410289344414e+00 3.880000000000000000e+02
-3.971753942863111675e+00 1.193348500604489493e+00 3.880000000000000000e+02
-2.572569626376603136e+00 9.877195909196343493e-01 3.880000000000000000e+02
-1.173385309890094597e+00 7.820906812347794279e-01 3.880000000000000000e+02
2.257990065964138315e-01 5.764617715499247286e-01 3.880000000000000000e+02
1.624983323082922038e+00 3.708328618650700292e-01 3.880000000000000000e+02
3.024167639569430577e+00 1.652039521802153299e-01 3.880000000000000000e+02
4.423351956055939560e+00 -4.042495750463959148e-02 3.880000000000000000e+02
5.822536272542447655e+00 -2.460538671894945129e-01 3.880000000000000000e+02
-6.770122575836128753e+00 1.604606319974198447e+00 3.890000000000000000e+02
-5.370938259349619770e+00 1.398977410289344414e+00 3.890000000000000000e+02
-3.971753942863111675e+00 1.193348500604489493e+00 3.890000000000000000e+02
-2.572569626376603136e+00 9.877195909196343493e-01 3.890000000000000000e+02
-1.173385309890094597e+00 7.820906812347794279e-01 3.890000000000000000e+02
2.257990065964138315e-01 5.764617715499247286e-01 3.890000000000000000e+02
1.624983323082922038e+00 3.708328618650700292e-01 3.890000000000000000e+02
3.024167639569430577e+00 1.652039521802153299e-01 3.890000000000000000e+02
4.423351956055939560e+00 -4.042495750463959148e-02 3.890000000000000000e+02
5.822536272542447655e+00 -2.460538671894945129e-01 3.890000000000000000e+02
-6.770122575836128753e+00 1.604606319974198447e+00 3.900000000000000000e+02
-5.370938259349619770e+00 1.398977410289344414e+00 3.900000000000000000e+02
-3.971753942863111675e+00 1.193348500604489493e+00 3.900000000000000000e+02
-2.572569626376603136e+00 9.877195909196343493e-01 3.900000000000000000e+02
-1.173385309890094597e+00 7.820906812347794279e-01 3.900000000000000000e+02
2.257990065964138315e-01 5.764617715499247286e-01 3.900000000000000000e+02
1.624983323082922038e+00 3.708328618650700292e-01 3.900000000000000000e+02
3.024167639569430577e+00 1.652039521802153299e-01 3.900000000000000000e+02
4.423351956055939560e+00 -4.042495750463959148e-02 3.900000000000000000e+02
5.822536272542447655e+00 -2.460538671894945129e-01 3.900000000000000000e+02
-6.770122575836128753e+00 1.604606319974198447e+00 3.910000000000000000e+02
-5.370938259349619770e+00 1.398977410289344414e+00 3.910000000000000000e+02
-3.971753942863111675e+00 1.193348500604489493e+00 3.910000000000000000e+02
-2.572569626376603136e+00 9.877195909196343493e-01 3.910000000000000000e+02
-1.173385309890094597e+00 7.820906812347794279e-01 3.910000000000000000e+02
2.257990065964138315e-01 5.764617715499247286e-01 3.910000000000000000e+02
1.624983323082922038e+00 3.708328618650700292e-01 3.910000000000000000e+02
3.024167639569430577e+00 1.652039521802153299e-01 3.910000000000000000e+02
4.423351956055939560e+00 -4.042495750463959148e-02 3.910000000000000000e+02
5.822536272542447655e+00 -2.460538671894945129e-01 3.910000000000000000e+02
-6.173344872435301944e+00 8.021997068885171611e-01 3.920000000000000000e+02
-4.774160555948792961e+00 5.965707972036626838e-01 3.920000000000000000e+02
-3.374976239462284422e+00 3.909418875188075404e-01 3.920000000000000000e+02
-1.975791922975776327e+00 1.853129778339527856e-01 3.920000000000000000e+02
-5.766076064892677877e-01 -2.031593185090208031e-02 3.920000000000000000e+02
8.225767099972406404e-01 -2.259448415357568907e-01 3.920000000000000000e+02
2.221761026483748847e+00 -4.315737512206114790e-01 3.920000000000000000e+02
3.620945342970257830e+00 -6.372026609054664004e-01 3.920000000000000000e+02
5.020129659456766369e+00 -8.428315705903208777e-01 3.920000000000000000e+02
-6.173344872435301944e+00 8.021997068885171611e-01 3.930000000000000000e+02
-4.774160555948792961e+00 5.965707972036626838e-01 3.930000000000000000e+02
-3.374976239462284422e+00 3.909418875188075404e-01 3.930000000000000000e+02
-1.975791922975776327e+00 1.853129778339527856e-01 3.930000000000000000e+02
-5.766076064892677877e-01 -2.031593185090208031e-02 3.930000000000000000e+02
8.225767099972406404e-01 -2.259448415357568907e-01 3.930000000000000000e+02
2.221761026483748847e+00 -4.315737512206114790e-01 3.930000000000000000e+02
3.620945342970257830e+00 -6.372026609054664004e-01 3.930000000000000000e+02
5.020129659456766369e+00 -8.428315705903208777e-01 3.930000000000000000e+02
-6.173344872435301944e+00 8.021997068885171611e-01 3.940000000000000000e+02
-4.774160555948792961e+00 5.965707972036626838e-01 3.940000000000000000e+02
-3.374976239462284422e+00 3.909418875188075404e-01 3.940000000000000000e+02
-1.975791922975776327e+00 1.853129778339527856e-01 3.940000000000000000e+02
-5.766076064892677877e-01 -2.031593185090208031e-02 3.940000000000000000e+02
8.225767099972406404e-01 -2.259448415357568907e-01 3.940000000000000000e+02
2.221761026483748847e+00 -4.315737512206114790e-01 3.940000000000000000e+02
3.620945342970257830e+00 -6.372026609054664004e-01 3.940000000000000000e+02
5.020129659456766369e+00 -8.428315705903208777e-01 3.940000000000000000e+02
-6.173344872435301944e+00 8.021997068885171611e-01 3.950000000000000000e+02
-4.774160555948792961e+00 5.965707972036626838e-01 3.950000000000000000e+02
-3.374976239462284422e+00 3.909418875188075404e-01 3.950000000000000000e+02
-1.975791922975776327e+00 1.853129778339527856e-01 3.950000000000000000e+02
-5.766076064892677877e-01 -2.031593185090208031e-02 3.950000000000000000e+02
8.225767099972406404e-01 -2.259448415357568907e-01 3.950000000000000000e+02
2.221761026483748847e+00 -4.315737512206114790e-01 3.950000000000000000e+02
3.620945342970257830e+00 -6.372026609054664004e-01 3.950000000000000000e+02
5.020129659456766369e+00 -8.428315705903208777e-01 3.950000000000000000e+02
-6.173344872435301944e+00 8.021997068885171611e-01 3.960000000000000000e+02
-4.774160555948792961e+00 5.965707972036626838e-01 3.960000000000000000e+02
-3.374976239462284422e+00 3.909418875188075404e-01 3.960000000000000000e+02
-1.975791922975776327e+00 1.853129778339527856e-01 3.960000000000000000e+02
-5.766076064892677877e-01 -2.031593185090208031e-02 3.960000000000000000e+02
8.225767099972406404e-01 -2.259448415357568907e-01 3.960000000000000000e+02
2.221761026483748847e+00 -4.315737512206114790e-01 3.960000000000000000e+02
3.620945342970257830e+00 -6.372026609054664004e-01 3.960000000000000000e+02
-6.173344872435301944e+00 8.021997068885171611e-01 3.970000000000000000e+02
-4.774160555948792961e+00 5.965707972036626838e-01 3.970000000000000000e+02
-3.374976239462284422e+00 3.909418875188075404e-01 3.970000000000000000e+02
-1.975791922975776327e+00 1.853129778339527856e-01 3.970000000000000000e+02
-5.766076064892677877e-01 -2.031593185090208031e-02 3.970000000000000000e+02
8.225767099972406404e-01 -2.259448415357568907e-01 3.970000000000000000e+02
2.221761026483748847e+00 -4.315737512206114790e-01 3.970000000000000000e+02
3.620945342970257830e+00 -6.372026609054664004e-01 3.970000000000000000e+02
5.020129659456766369e+00 -8.428315705903208777e-01 3.970000000000000000e+02
-6.173344872435301944e+00 8.021997068885171611e-01 3.980000000000000000e+02
-4.774160555948792961e+00 5.965707972036626838e-01 3.980000000000000000e+02
-3.374976239462284422e+00 3.909418875188075404e-01 3.980000000000000000e+02
-1.975791922975776327e+00 1.853129778339527856e-01 3.980000000000000000e+02
-5.766076064892677877e-01 -2.031593185090208031e-02 3.980000000000000000e+02
8.225767099972406404e-01 -2.259448415357568907e-01 3.980000000000000000e+02
2.221761026483748847e+00 -4.315737512206114790e-01 3.980000000000000000e+02
3.620945342970257830e+00 -6.372026609054664004e-01 3.980000000000000000e+02
5.020129659456766369e+00 -8.428315705903208777e-01 3.980000000000000000e+02
-6.173344872435301944e+00 8.021997068885171611e-01 3.990000000000000000e+02
-4.774160555948792961e+00 5.965707972036626838e-01 3.990000000000000000e+02
-3.374976239462284422e+00 3.909418875188075404e-01 3.990000000000000000e+02
-1.975791922975776327e+00 1.853129778339527856e-01 3.990000000000000000e+02
-5.766076064892677877e-01 -2.031593185090208031e-02 3.990000000000000000e+02
8.225767099972406404e-01 -2.259448415357568907e-01 3.990000000000000000e+02
2.221761026483748847e+00 -4.315737512206114790e-01 3.990000000000000000e+02
3.620945342970257830e+00 -6.372026609054664004e-01 3.990000000000000000e+02
5.020129659456766369e+00 -8.428315705903208777e-01 3.990000000000000000e+02
-6.173344872435301944e+00 8.021997068885171611e-01 4.000000000000000000e+02
-4.774160555948792961e+00 5.965707972036626838e-01 4.000000000000000000e+02
-3.374976239462284422e+00 3.909418875188075404e-01 4.000000000000000000e+02
-1.975791922975776327e+00 1.853129778339527856e-01 4.000000000000000000e+02
-5.766076064892677877e-01 -2.031593185090208031e-02 4.000000000000000000e+02
8.225767099972406404e-01 -2.259448415357568907e-01 4.000000000000000000e+02
2.221761026483748847e+00 -4.315737512206114790e-01 4.000000000000000000e+02
3.620945342970257830e+00 -6.372026609054664004e-01 4.000000000000000000e+02
5.020129659456766369e+00 -8.428315705903208777e-01 4.000000000000000000e+02
-6.173344872435301944e+00 8.021997068885171611e-01 4.010000000000000000e+02
-4.774160555948792961e+00 5.965707972036626838e-01 4.010000000000000000e+02
-3.374976239462284422e+00 3.909418875188075404e-01 4.010000000000000000e+02
-1.975791922975776327e+00 1.853129778339527856e-01 4.010000000000000000e+02
-5.766076064892677877e-01 -2.031593185090208031e-02 4.010000000000000000e+02
8.225767099972406404e-01 -2.259448415357568907e-01 4.010000000000000000e+02
2.221761026483748847e+00 -4.315737512206114790e-01 4.010000000000000000e+02
3.620945342970257830e+00 -6.372026609054664004e-01 4.010000000000000000e+02
-6.770122575836128753e+00 1.604606319974198447e+00 4.020000000000000000e+02
-5.370938259349619770e+00 1.398977410289344414e+00 4.020000000000000000e+02
