-5.963179244403581158e+00 6.614834475341362374e-01 3.260000000000000000e+02
-7.312408376213618943e+00 1.085253137194843509e+00 3.260000000000000000e+02
6.179882941886758907e+00 -3.152443759412224988e+00 3.270000000000000000e+02
4.830653810076721122e+00 -2.728674069751518161e+00 3.270000000000000000e+02
3.481424678266683337e+00 -2.304904380090810889e+00 3.270000000000000000e+02
2.132195546456646440e+00 -1.881134690430104062e+00 3.270000000000000000e+02
7.829664146466084329e-01 -1.457365000769396790e+00 3.270000000000000000e+02
-5.662627171634294632e-01 -1.033595311108690185e+00 3.270000000000000000e+02
-1.915491848973467359e+00 -6.098256214479834680e-01 3.270000000000000000e+02
-3.264720980783505588e+00 -1.860559317872768070e-01 3.270000000000000000e+02
-4.613950112593543373e+00 2.377137578734297985e-01 3.270000000000000000e+02
-5.963179244403581158e+00 6.614834475341362374e-01 3.270000000000000000e+02
-7.312408376213618943e+00 1.085253137194843509e+00 3.270000000000000000e+02
6.179882941886758907e+00 -3.152443759412224988e+00 3.280000000000000000e+02
4.830653810076721122e+00 -2.728674069751518161e+00 3.280000000000000000e+02
3.481424678266683337e+00 -2.304904380090810889e+00 3.280000000000000000e+02
2.132195546456646440e+00 -1.881134690430104062e+00 3.280000000000000000e+02
7.829664146466084329e-01 -1.457365000769396790e+00 3.280000000000000000e+02
-5.662627171634294632e-01 -1.033595311108690185e+00 3.280000000000000000e+02
-1.915491848973467359e+00 -6.098256214479834680e-01 3.280000000000000000e+02
-3.264720980783505588e+00 -1.860559317872768070e-01 3.280000000000000000e+02
-4.613950112593543373e+00 2.377137578734297985e-01 3.280000000000000000e+02
-5.963179244403581158e+00 6.614834475341362374e-01 3.280000000000000000e+02
-7.312408376213618943e+00 1.085253137194843509e+00 3.280000000000000000e+02
6.179882941886758907e+00 -3.152443759412224988e+00 3.290000000000000000e+02
4.830653810076721122e+00 -2.728674069751518161e+00 3.290000000000000000e+02
3.481424678266683337e+00 -2.304904380090810889e+00 3.290000000000000000e+02
2.132195546456646440e+00 -1.881134690430104062e+00 3.290000000000000000e+02
7.829664146466084329e-01 -1.457365000769396790e+00 3.290000000000000000e+02
-5.662627171634294632e-01 -1.033595311108690185e+00 3.290000000000000000e+02
-1.915491848973467359e+00 -6.098256214479834680e-01 3.290000000000000000e+02
-3.264720980783505588e+00 -1.860559317872768070e-01 3.290000000000000000e+02
-4.613950112593543373e+00 2.377137578734297985e-01 3.290000000000000000e+02
-5.963179244403581158e+00 6.614834475341362374e-01 3.290000000000000000e+02
-7.312408376213618943e+00 1.085253137194843509e+00 3.290000000000000000e+02
6.179882941886758907e+00 -3.152443759412224988e+00 3.300000000000000000e+02
4.830653810076721122e+00 -2.728674069751518161e+00 3.300000000000000000e+02
3.481424678266683337e+00 -2.304904380090810889e+00 3.300000000000000000e+02
2.132195546456646440e+00 -1.881134690430104062e+00 3.300000000000000000e+02
7.829664146466084329e-01 -1.457365000769396790e+00 3.300000000000000000e+02
-5.662627171634294632e-01 -1.033595311108690185e+00 3.300000000000000000e+02
-1.915491848973467359e+00 -6.098256214479834680e-01 3.300000000000000000e+02
-3.264720980783505588e+00 -1.860559317872768070e-01 3.300000000000000000e+02
-4.613950112593543373e+00 2.377137578734297985e-01 3.300000000000000000e+02
-5.963179244403581158e+00 6.614834475341362374e-01 3.300000000000000000e+02
-7.312408376213618943e+00 1.085253137194843509e+00 3.300000000000000000e+02
5.717153220812093650e+00 -2.265944348676852460e+00 3.310000000000000000e+02
4.367924089002055865e+00 -1.842174659016145188e+00 3.310000000000000000e+02
3.018694957192018080e+00 -1.418404969355438583e+00 3.310000000000000000e+02
1.669465825381980517e+00 -9.946352796947313113e-01 3.310000000000000000e+02
3.202366935719428431e-01 -5.708655900340247058e-01 3.310000000000000000e+02
-1.028992438238095053e+00 -1.470959003733179338e-01 3.310000000000000000e+02
-2.378221570048133060e+00 2.766737892873888938e-01 3.310000000000000000e+02
-3.727450701858170845e+00 7.004434789480953327e-01 3.310000000000000000e+02
-5.076679833668208630e+00 1.124213168608801938e+00 3.310000000000000000e+02
-6.425908965478246415e+00 1.547982858269508766e+00 3.310000000000000000e+02
5.717153220812093650e+00 -2.265944348676852460e+00 3.320000000000000000e+02
4.367924089002055865e+00 -1.842174659016145188e+00 3.320000000000000000e+02
3.018694957192018080e+00 -1.418404969355438583e+00 3.320000000000000000e+02
1.669465825381980517e+00 -9.946352796947313113e-01 3.320000000000000000e+02
3.202366935719428431e-01 -5.708655900340247058e-01 3.320000000000000000e+02
-1.028992438238095053e+00 -1.470959003733179338e-01 3.320000000000000000e+02
-2.378221570048133060e+00 2.766737892873888938e-01 3.320000000000000000e+02
-3.727450701858170845e+00 7.004434789480953327e-01 3.320000000000000000e+02
-5.076679833668208630e+00 1.124213168608801938e+00 3.320000000000000000e+02
-6.425908965478246415e+00 1.547982858269508766e+00 3.320000000000000000e+02
5.717153220812093650e+00 -2.265944348676852460e+00 3.330000000000000000e+02
4.367924089002055865e+00 -1.842174659016145188e+00 3.330000000000000000e+02
3.018694957192018080e+00 -1.418404969355438583e+00 3.330000000000000000e+02
1.669465825381980517e+00 -9.946352796947313113e-01 3.330000000000000000e+02
3.202366935719428431e-01 -5.708655900340247058e-01 3.330000000000000000e+02
-1.028992438238095053e+00 -1.470959003733179338e-01 3.330000000000000000e+02
-2.378221570048133060e+00 2.766737892873888938e-01 3.330000000000000000e+02
-3.727450701858170845e+00 7.004434789480953327e-01 3.330000000000000000e+02
-5.076679833668208630e+00 1.124213168608801938e+00 3.330000000000000000e+02
-6.425908965478246415e+00 1.547982858269508766e+00 3.330000000000000000e+02
5.717153220812093650e+00 -2.265944348676852460e+00 3.340000000000000000e+02
4.367924089002055865e+00 -1.842174659016145188e+00 3.340000000000000000e+02
3.018694957192018080e+00 -1.418404969355438583e+00 3.340000000000000000e+02
1.669465825381980517e+00 -9.946352796947313113e-01 3.340000000000000000e+02
3.202366935719428431e-01 -5.708655900340247058e-01 3.340000000000000000e+02
-1.028992438238095053e+00 -1.470959003733179338e-01 3.340000000000000000e+02
-2.378221570048133060e+00 2.766737892873888938e-01 3.340000000000000000e+02
-3.727450701858170845e+00 7.004434789480953327e-01 3.340000000000000000e+02
-5.076679833668208630e+00 1.124213168608801938e+00 3.340000000000000000e+02
-6.425908965478246415e+00 1.547982858269508766e+00 3.340000000000000000e+02
5.717153220812093650e+00 -2.265944348676852460e+00 3.350000000000000000e+02
4.367924089002055865e+00 -1.842174659016145188e+00 3.350000000000000000e+02
3.018694957192018080e+00 -1.418404969355438583e+00 3.350000000000000000e+02
1.669465825381980517e+00 -9.946352796947313113e-01 3.350000000000000000e+02
3.202366935719428431e-01 -5.708655900340247058e-01 3.350000000000000000e+02
-1.028992438238095053e+00 -1.470959003733179338e-01 3.350000000000000000e+02
-2.378221570048133060e+00 2.766737892873888938e-01 3.350000000000000000e+02
-3.727450701858170845e+00 7.004434789480953327e-01 3.350000000000000000e+02
-5.076679833668208630e+00 1.124213168608801938e+00 3.350000000000000000e+02
-6.425908965478246415e+00 1.547982858269508766e+00 3.350000000000000000e+02
5.717153220812093650e+00 -2.265944348676852460e+00 3.360000000000000000e+02
4.367924089002055865e+00 -1.842174659016145188e+00 3.360000000000000000e+02
3.018694957192018080e+00 -1.418404969355438583e+00 3.360000000000000000e+02
1.669465825381980517e+00 -9.946352796947313113e-01 3.360000000000000000e+02
3.202366935719428431e-01 -5.708655900340247058e-01 3.360000000000000000e+02
-1.028992438238095053e+00 -1.470959003733179338e-01 3.360000000000000000e+02
-2.378221570048133060e+00 2.766737892873888938e-01 3.360000000000000000e+02
-3.727450701858170845e+00 7.004434789480953327e-01 3.360000000000000000e+02
-5.076679833668208630e+00 1.124213168608801938e+00 3.360000000000000000e+02
-6.425908965478246415e+00 1.547982858269508766e+00 3.360000000000000000e+02
5.717153220812093650e+00 -2.265944348676852460e+00 3.370000000000000000e+02
4.367924089002055865e+00 -1.842174659016145188e+00 3.370000000000000000e+02
3.018694957192018080e+00 -1.418404969355438583e+00 3.370000000000000000e+02
1.669465825381980517e+00 -9.946352796947313113e-01 3.370000000000000000e+02
3.202366935719428431e-01 -5.708655900340247058e-01 3.370000000000000000e+02
-1.028992438238095053e+00 -1.470959003733179338e-01 3.370000000000000000e+02
-2.378221570048133060e+00 2.766737892873888938e-01 3.370000000000000000e+02
-3.727450701858170845e+00 7.004434789480953327e-01 3.370000000000000000e+02
-5.076679833668208630e+00 1.124213168608801938e+00 3.370000000000000000e+02
-6.425908965478246415e+00 1.547982858269508766e+00 3.370000000000000000e+02
5.717153220812093650e+00 -2.265944348676852460e+00 3.380000000000000000e+02
4.367924089002055865e+00 -1.842174659016145188e+00 3.380000000000000000e+02
3.018694957192018080e+00 -1.418404969355438583e+00 3.380000000000000000e+02
1.669465825381980517e+00 -9.946352796947313113e-01 3.380000000000000000e+02
3.202366935719428431e-01 -5.708655900340247058e-01 3.380000000000000000e+02
-1.028992438238095053e+00 -1.470959003733179338e-01 3.380000000000000000e+02
-2.378221570048133060e+00 2.766737892873888938e-01 3.380000000000000000e+02
-3.727450701858170845e+00 7.004434789480953327e-01 3.380000000000000000e+02
-5.076679833668208630e+00 1.124213168608801938e+00 3.380000000000000000e+02
-6.425908965478246415e+00 1.547982858269508766e+00 3.380000000000000000e+02
-7.775138097288284200e+00 1.971752547930216037e+00 3.380000000000000000e+02
6.179882941886758907e+00 -3.152443759412224988e+00 3.390000000000000000e+02
4.830653810076721122e+00 -2.728674069751518161e+00 3.390000000000000000e+02
3.481424678266683337e+00 -2.304904380090810889e+00 3.390000000000000000e+02
2.132195546456646440e+00 -1.881134690430104062e+00 3.390000000000000000e+02
7.829664146466084329e-01 -1.457365000769396790e+00 3.390000000000000000e+02
-5.662627171634294632e-01 -1.033595311108690185e+00 3.390000000000000000e+02
-1.915491848973467359e+00 -6.098256214479834680e-01 3.390000000000000000e+02
-3.264720980783505588e+00 -1.860559317872768070e-01 3.390000000000000000e+02
-4.613950112593543373e+00 2.377137578734297985e-01 3.390000000000000000e+02
-5.963179244403581158e+00 6.614834475341362374e-01 3.390000000000000000e+02
-7.312408376213618943e+00 1.085253137194843509e+00 3.390000000000000000e+02
-8.661637508023655840e+00 1.509022826855550337e+00 3.390000000000000000e+02
6.179882941886758907e+00 -3.152443759412224988e+00 3.400000000000000000e+02
4.830653810076721122e+00 -2.728674069751518161e+00 3.400000000000000000e+02
3.481424678266683337e+00 -2.304904380090810889e+00 3.400000000000000000e+02
2.132195546456646440e+00 -1.881134690430104062e+00 3.400000000000000000e+02
7.829664146466084329e-01 -1.457365000769396790e+00 3.400000000000000000e+02
-5.662627171634294632e-01 -1.033595311108690185e+00 3.400000000000000000e+02
-1.915491848973467359e+00 -6.098256214479834680e-01 3.400000000000000000e+02
-3.264720980783505588e+00 -1.860559317872768070e-01 3.400000000000000000e+02
-4.613950112593543373e+00 2.377137578734297985e-01 3.400000000000000000e+02
-5.963179244403581158e+00 6.614834475341362374e-01 3.400000000000000000e+02
-7.312408376213618943e+00 1.085253137194843509e+00 3.400000000000000000e+02
6.179882941886758907e+00 -3.152443759412224988e+00 3.410000000000000000e+02
4.830653810076721122e+00 -2.728674069751518161e+00 3.410000000000000000e+02
3.481424678266683337e+00 -2.304904380090810889e+00 3.410000000000000000e+02
2.132195546456646440e+00 -1.881134690430104062e+00 3.410000000000000000e+02
7.829664146466084329e-01 -1.457365000769396790e+00 3.410000000000000000e+02
-5.662627171634294632e-01 -1.033595311108690185e+00 3.410000000000000000e+02
-1.915491848973467359e+00 -6.098256214479834680e-01 3.410000000000000000e+02
-3.264720980783505588e+00 -1.860559317872768070e-01 3.410000000000000000e+02
-4.613950112593543373e+00 2.377137578734297985e-01 3.410000000000000000e+02
-5.963179244403581158e+00 6.614834475341362374e-01 3.410000000000000000e+02
-7.312408376213618943e+00 1.085253137194843509e+00 3.410000000000000000e+02
5.717153220812093650e+00 -2.265944348676852460e+00 3.420000000000000000e+02
4.367924089002055865e+00 -1.842174659016145188e+00 3.420000000000000000e+02
3.018694957192018080e+00 -1.418404969355438583e+00 3.420000000000000000e+02
1.669465825381980517e+00 -9.946352796947313113e-01 3.420000000000000000e+02
3.202366935719428431e-01 -5.708655900340247058e-01 3.420000000000000000e+02
-1.028992438238095053e+00 -1.470959003733179338e-01 3.420000000000000000e+02
-2.378221570048133060e+00 2.766737892873888938e-01 3.420000000000000000e+02
-3.727450701858170845e+00 7.004434789480953327e-01 3.420000000000000000e+02
-5.076679833668208630e+00 1.124213168608801938e+00 3.420000000000000000e+02
-6.425908965478246415e+00 1.547982858269508766e+00 3.420000000000000000e+02
-7.775138097288284200e+00 1.971752547930216037e+00 3.420000000000000000e+02
5.717153220812093650e+00 -2.265944348676852460e+00 3.430000000000000000e+02
4.367924089002055865e+00 -1.842174659016145188e+00 3.430000000000000000e+02
3.018694957192018080e+00 -1.418404969355438583e+00 3.430000000000000000e+02
1.669465825381980517e+00 -9.946352796947313113e-01 3.430000000000000000e+02
3.202366935719428431e-01 -5.708655900340247058e-01 3.430000000000000000e+02
-1.028992438238095053e+00 -1.470959003733179338e-01 3.430000000000000000e+02
-2.378221570048133060e+00 2.766737892873888938e-01 3.430000000000000000e+02
-3.727450701858170845e+00 7.004434789480953327e-01 3.430000000000000000e+02
-5.076679833668208630e+00 1.124213168608801938e+00 3.430000000000000000e+02
-6.425908965478246415e+00 1.547982858269508766e+00 3.430000000000000000e+02
-7.775138097288284200e+00 1.971752547930216037e+00 3.430000000000000000e+02
5.717153220812093650e+00 -2.265944348676852460e+00 3.440000000000000000e+02
4.367924089002055865e+00 -1.842174659016145188e+00 3.440000000000000000e+02
3.018694957192018080e+00 -1.418404969355438583e+00 3.440000000000000000e+02
1.669465825381980517e+00 -9.946352796947313113e-01 3.440000000000000000e+02
3.202366935719428431e-01 -5.708655900340247058e-01 3.440000000000000000e+02
-1.028992438238095053e+00 -1.470959003733179338e-01 3.440000000000000000e+02
-2.378221570048133060e+00 2.766737892873888938e-01 3.440000000000000000e+02
-3.727450701858170845e+00 7.004434789480953327e-01 3.440000000000000000e+02
-5.076679833668208630e+00 1.124213168608801938e+00 3.440000000000000000e+02
-6.425908965478246415e+00 1.547982858269508766e+00 3.440000000000000000e+02
-7.775138097288284200e+00 1.971752547930216037e+00 3.440000000000000000e+02
5.717153220812093650e+00 -2.265944348676852460e+00 3.450000000000000000e+02
4.367924089002055865e+00 -1.842174659016145188e+00 3.450000000000000000e+02
3.018694957192018080e+00 -1.418404969355438583e+00 3.450000000000000000e+02
1.669465825381980517e+00 -9.946352796947313113e-01 3.450000000000000000e+02
3.202366935719428431e-01 -5.708655900340247058e-01 3.450000000000000000e+02
-1.028992438238095053e+00 -1.470959003733179338e-01 3.450000000000000000e+02
-2.378221570048133060e+00 2.766737892873888938e-01 3.450000000000000000e+02
-3.727450701858170845e+00 7.004434789480953327e-01 3.450000000000000000e+02
-5.076679833668208630e+00 1.124213168608801938e+00 3.450000000000000000e+02
-6.425908965478246415e+00 1.547982858269508766e+00 3.450000000000000000e+02
-7.775138097288284200e+00 1.971752547930216037e+00 3.450000000000000000e+02
5.717153220812093650e+00 -2.265944348676852460e+00 3.460000000000000000e+02
4.367924089002055865e+00 -1.842174659016145188e+00 3.460000000000000000e+02
3.018694957192018080e+00 -1.418404969355438583e+00 3.460000000000000000e+02
1.669465825381980517e+00 -9.946352796947313113e-01 3.460000000000000000e+02
3.202366935719428431e-01 -5.708655900340247058e-01 3.460000000000000000e+02
-1.028992438238095053e+00 -1.470959003733179338e-01 3.460000000000000000e+02
-2.378221570048133060e+00 2.766737892873888938e-01 3.460000000000000000e+02
-3.727450701858170845e+00 7.004434789480953327e-01 3.460000000000000000e+02
-5.076679833668208630e+00 1.124213168608801938e+00 3.460000000000000000e+02
-6.425908965478246415e+00 1.547982858269508766e+00 3.460000000000000000e+02
-7.775138097288284200e+00 1.971752547930216037e+00 3.460000000000000000e+02
5.717153220812093650e+00 -2.265944348676852460e+00 3.470000000000000000e+02
4.367924089002055865e+00 -1.842174659016145188e+00 3.470000000000000000e+02
3.018694957192018080e+00 -1.418404969355438583e+00 3.470000000000000000e+02
1.669465825381980517e+00 -9.946352796947313113e-01 3.470000000000000000e+02
3.202366935719428431e-01 -5.708655900340247058e-01 3.470000000000000000e+02
-1.028992438238095053e+00 -1.470959003733179338e-01 3.470000000000000000e+02
-2.378221570048133060e+00 2.766737892873888938e-01 3.470000000000000000e+02
-3.727450701858170845e+00 7.004434789480953327e-01 3.470000000000000000e+02
-5.076679833668208630e+00 1.124213168608801938e+00 3.470000000000000000e+02
-6.425908965478246415e+00 1.547982858269508766e+00 3.470000000000000000e+02
-7.775138097288284200e+00 1.971752547930216037e+00 3.470000000000000000e+02
5.717153220812093650e+00 -2.265944348676852460e+00 3.480000000000000000e+02
4.367924089002055865e+00 -1.842174659016145188e+00 3.480000000000000000e+02
3.018694957192018080e+00 -1.418404969355438583e+00 3.480000000000000000e+02
1.669465825381980517e+00 -9.946352796947313113e-01 3.480000000000000000e+02
3.202366935719428431e-01 -5.708655900340247058e-01 3.480000000000000000e+02
-1.028992438238095053e+00 -1.470959003733179338e-01 3.480000000000000000e+02
-2.378221570048133060e+00 2.766737892873888938e-01 3.480000000000000000e+02
-3.727450701858170845e+00 7.004434789480953327e-01 3.480000000000000000e+02
-5.076679833668208630e+00 1.124213168608801938e+00 3.480000000000000000e+02
-6.425908965478246415e+00 1.547982858269508766e+00 3.480000000000000000e+02
5.717153220812093650e+00 -2.265944348676852460e+00 3.490000000000000000e+02
4.367924089002055865e+00 -1.842174659016145188e+00 3.490000000000000000e+02
3.018694957192018080e+00 -1.418404969355438583e+00 3.490000000000000000e+02
1.669465825381980517e+00 -9.946352796947313113e-01 3.490000000000000000e+02
3.202366935719428431e-01 -5.708655900340247058e-01 3.490000000000000000e+02
-1.028992438238095053e+00 -1.470959003733179338e-01 3.490000000000000000e+02
-2.378221570048133060e+00 2.766737892873888938e-01 3.490000000000000000e+02
-3.727450701858170845e+00 7.004434789480953327e-01 3.490000000000000000e+02
-5.076679833668208630e+00 1.124213168608801938e+00 3.490000000000000000e+02
-6.425908965478246415e+00 1.547982858269508766e+00 3.490000000000000000e+02
5.717153220812093650e+00 -2.265944348676852460e+00 3.500000000000000000e+02
4.367924089002055865e+00 -1.842174659016145188e+00 3.500000000000000000e+02
3.018694957192018080e+00 -1.418404969355438583e+00 3.500000000000000000e+02
1.669465825381980517e+00 -9.946352796947313113e-01 3.500000000000000000e+02
3.202366935719428431e-01 -5.708655900340247058e-01 3.500000000000000000e+02
-1.028992438238095053e+00 -1.470959003733179338e-01 3.500000000000000000e+02
-2.378221570048133060e+00 2.766737892873888938e-01 3.500000000000000000e+02
-3.727450701858170845e+00 7.004434789480953327e-01 3.500000000000000000e+02
-5.076679833668208630e+00 1.124213168608801938e+00 3.500000000000000000e+02
-6.425908965478246415e+00 1.547982858269508766e+00 3.500000000000000000e+02
5.254423499737428394e+00 -1.379444937941479710e+00 3.510000000000000000e+02
3.905194367927390608e+00 -9.556752482807731042e-01 3.510000000000000000e+02
2.555965236117352823e+00 -5.319055586200658325e-01 3.510000000000000000e+02
1.206736104307315038e+00 -1.081358689593591160e-01 3.510000000000000000e+02
-1.424930275027227466e-01 3.156338207013476560e-01 3.510000000000000000e+02
-1.491722159312760754e+00 7.394035103620544280e-01 3.510000000000000000e+02
-2.840951291122798317e+00 1.163173200022761034e+00 3.510000000000000000e+02
-4.190180422932836102e+00 1.586942889683467195e+00 3.510000000000000000e+02
-5.539409554742873887e+00 2.010712579344174245e+00 3.510000000000000000e+02
5.254423499737428394e+00 -1.379444937941479710e+00 3.520000000000000000e+02
3.905194367927390608e+00 -9.556752482807731042e-01 3.520000000000000000e+02
2.555965236117352823e+00 -5.319055586200658325e-01 3.520000000000000000e+02
1.206736104307315038e+00 -1.081358689593591160e-01 3.520000000000000000e+02
-1.424930275027227466e-01 3.156338207013476560e-01 3.520000000000000000e+02
-1.491722159312760754e+00 7.394035103620544280e-01 3.520000000000000000e+02
-2.840951291122798317e+00 1.163173200022761034e+00 3.520000000000000000e+02
-4.190180422932836102e+00 1.586942889683467195e+00 3.520000000000000000e+02
-5.539409554742873887e+00 2.010712579344174245e+00 3.520000000000000000e+02
5.717153220812093650e+00 -2.265944348676852460e+00 3.530000000000000000e+02
4.367924089002055865e+00 -1.842174659016145188e+00 3.530000000000000000e+02
3.018694957192018080e+00 -1.418404969355438583e+00 3.530000000000000000e+02
1.669465825381980517e+00 -9.946352796947313113e-01 3.530000000000000000e+02
3.202366935719428431e-01 -5.708655900340247058e-01 3.530000000000000000e+02
-1.028992438238095053e+00 -1.470959003733179338e-01 3.530000000000000000e+02
-2.378221570048133060e+00 2.766737892873888938e-01 3.530000000000000000e+02
-3.727450701858170845e+00 7.004434789480953327e-01 3.530000000000000000e+02
-5.076679833668208630e+00 1.124213168608801938e+00 3.530000000000000000e+02
-6.425908965478246415e+00 1.547982858269508766e+00 3.530000000000000000e+02
5.717153220812093650e+00 -2.265944348676852460e+00 3.540000000000000000e+02
4.367924089002055865e+00 -1.842174659016145188e+00 3.540000000000000000e+02
3.018694957192018080e+00 -1.418404969355438583e+00 3.540000000000000000e+02
1.669465825381980517e+00 -9.946352796947313113e-01 3.540000000000000000e+02
3.202366935719428431e-01 -5.708655900340247058e-01 3.540000000000000000e+02
-1.028992438238095053e+00 -1.470959003733179338e-01 3.540000000000000000e+02
-2.378221570048133060e+00 2.766737892873888938e-01 3.540000000000000000e+02
-3.727450701858170845e+00 7.004434789480953327e-01 3.540000000000000000e+02
-5.076679833668208630e+00 1.124213168608801938e+00 3.540000000000000000e+02
-6.425908965478246415e+00 1.547982858269508766e+00 3.540000000000000000e+02
5.717153220812093650e+00 -2.265944348676852460e+00 3.550000000000000000e+02
4.367924089002055865e+00 -1.842174659016145188e+00 3.550000000000000000e+02
3.018694957192018080e+00 -1.418404969355438583e+00 3.550000000000000000e+02
1.669465825381980517e+00 -9.946352796947313113e-01 3.550000000000000000e+02
3.202366935719428431e-01 -5.708655900340247058e-01 3.550000000000000000e+02
-1.028992438238095053e+00 -1.470959003733179338e-01 3.550000000000000000e+02
-2.378221570048133060e+00 2.766737892873888938e-01 3.550000000000000000e+02
-3.727450701858170845e+00 7.004434789480953327e-01 3.550000000000000000e+02
-5.076679833668208630e+00 1.124213168608801938e+00 3.550000000000000000e+02
-6.425908965478246415e+00 1.547982858269508766e+00 3.550000000000000000e+02
-7.775138097288284200e+00 1.971752547930216037e+00 3.550000000000000000e+02
5.254423499737428394e+00 -1.379444937941479710e+00 3.560000000000000000e+02
3.905194367927390608e+00 -9.556752482807731042e-01 3.560000000000000000e+02
2.555965236117352823e+00 -5.319055586200658325e-01 3.560000000000000000e+02
1.206736104307315038e+00 -1.081358689593591160e-01 3.560000000000000000e+02
-1.424930275027227466e-01 3.156338207013476560e-01 3.560000000000000000e+02
-1.491722159312760754e+00 7.394035103620544280e-01 3.560000000000000000e+02
-2.840951291122798317e+00 1.163173200022761034e+00 3.560000000000000000e+02
-4.190180422932836102e+00 1.586942889683467195e+00 3.560000000000000000e+02
-5.539409554742873887e+00 2.010712579344174245e+00 3.560000000000000000e+02
-6.888638686552911672e+00 2.434482269004881072e+00 3.560000000000000000e+02
5.254423499737428394e+00 -1.379444937941479710e+00 3.570000000000000000e+02
3.905194367927390608e+00 -9.556752482807731042e-01 3.570000000000000000e+02
2.555965236117352823e+00 -5.319055586200658325e-01 3.570000000000000000e+02
1.206736104307315038e+00 -1.081358689593591160e-01 3.570000000000000000e+02
-1.424930275027227466e-01 3.156338207013476560e-01 3.570000000000000000e+02
-1.491722159312760754e+00 7.394035103620544280e-01 3.570000000000000000e+02
-2.840951291122798317e+00 1.163173200022761034e+00 3.570000000000000000e+02
-4.190180422932836102e+00 1.586942889683467195e+00 3.570000000000000000e+02
-5.539409554742873887e+00 2.010712579344174245e+00 3.570000000000000000e+02
-6.888638686552911672e+00 2.434482269004881072e+00 3.570000000000000000e+02
5.254423499737428394e+00 -1.379444937941479710e+00 3.580000000000000000e+02
3.905194367927390608e+00 -9.556752482807731042e-01 3.580000000000000000e+02
2.555965236117352823e+00 -5.319055586200658325e-01 3.580000000000000000e+02
1.206736104307315038e+00 -1.081358689593591160e-01 3.580000000000000000e+02
-1.424930275027227466e-01 3.156338207013476560e-01 3.580000000000000000e+02
-1.491722159312760754e+00 7.394035103620544280e-01 3.580000000000000000e+02
-2.840951291122798317e+00 1.163173200022761034e+00 3.580000000000000000e+02
-4.190180422932836102e+00 1.586942889683467195e+00 3.580000000000000000e+02
-5.539409554742873887e+00 2.010712579344174245e+00 3.580000000000000000e+02
-6.888638686552911672e+00 2.434482269004881072e+00 3.580000000000000000e+02
5.717153220812093650e+00 -2.265944348676852460e+00 3.590000000000000000e+02
4.367924089002055865e+00 -1.842174659016145188e+00 3.590000000000000000e+02
3.018694957192018080e+00 -1.418404969355438583e+00 3.590000000000000000e+02
1.669465825381980517e+00 -9.946352796947313113e-01 3.590000000000000000e+02
3.202366935719428431e-01 -5.708655900340247058e-01 3.590000000000000000e+02
-1.028992438238095053e+00 -1.470959003733179338e-01 3.590000000000000000e+02
-2.378221570048133060e+00 2.766737892873888938e-01 3.590000000000000000e+02
-3.727450701858170845e+00 7.004434789480953327e-01 3.590000000000000000e+02
-5.076679833668208630e+00 1.124213168608801938e+00 3.590000000000000000e+02
-6.425908965478246415e+00 1.547982858269508766e+00 3.590000000000000000e+02
-7.775138097288284200e+00 1.971752547930216037e+00 3.590000000000000000e+02
5.717153220812093650e+00 -2.265944348676852460e+00 3.600000000000000000e+02
4.367924089002055865e+00 -1.842174659016145188e+00 3.600000000000000000e+02
3.018694957192018080e+00 -1.418404969355438583e+00 3.600000000000000000e+02
1.669465825381980517e+00 -9.946352796947313113e-01 3.600000000000000000e+02
3.202366935719428431e-01 -5.708655900340247058e-01 3.600000000000000000e+02
-1.028992438238095053e+00 -1.470959003733179338e-01 3.600000000000000000e+02
-2.378221570048133060e+00 2.766737892873888938e-01 3.600000000000000000e+02
-3.727450701858170845e+00 7.004434789480953327e-01 3.600000000000000000e+02
-5.076679833668208630e+00 1.124213168608801938e+00 3.600000000000000000e+02
-6.425908965478246415e+00 1.547982858269508766e+00 3.600000000000000000e+02
-7.775138097288284200e+00 1.971752547930216037e+00 3.600000000000000000e+02
5.717153220812093650e+00 -2.265944348676852460e+00 3.610000000000000000e+02
4.367924089002055865e+00 -1.842174659016145188e+00 3.610000000000000000e+02
3.018694957192018080e+00 -1.418404969355438583e+00 3.610000000000000000e+02
1.669465825381980517e+00 -9.946352796947313113e-01 3.610000000000000000e+02
3.202366935719428431e-01 -5.708655900340247058e-01 3.610000000000000000e+02
-1.028992438238095053e+00 -1.470959003733179338e-01 3.610000000000000000e+02
-2.378221570048133060e+00 2.766737892873888938e-01 3.610000000000000000e+02
-3.727450701858170845e+00 7.004434789480953327e-01 3.610000000000000000e+02
-5.076679833668208630e+00 1.124213168608801938e+00 3.610000000000000000e+02
-6.425908965478246415e+00 1.547982858269508766e+00 3.610000000000000000e+02
-7.775138097288284200e+00 1.971752547930216037e+00 3.610000000000000000e+02
5.717153220812093650e+00 -2.265944348676852460e+00 3.620000000000000000e+02
4.367924089002055865e+00 -1.842174659016145188e+00 3.620000000000000000e+02
3.018694957192018080e+00 -1.418404969355438583e+00 3.620000000000000000e+02
1.669465825381980517e+00 -9.946352796947313113e-01 3.620000000000000000e+02
3.202366935719428431e-01 -5.708655900340247058e-01 3.620000000000000000e+02
-1.028992438238095053e+00 -1.470959003733179338e-01 3.620000000000000000e+02
-2.378221570048133060e+00 2.766737892873888938e-01 3.620000000000000000e+02
-3.727450701858170845e+00 7.004434789480953327e-01 3.620000000000000000e+02
-5.076679833668208630e+00 1.124213168608801938e+00 3.620000000000000000e+02
-6.425908965478246415e+00 1.547982858269508766e+00 3.620000000000000000e+02
-7.775138097288284200e+00 1.971752547930216037e+00 3.620000000000000000e+02
5.717153220812093650e+00 -2.265944348676852460e+00 3.630000000000000000e+02
4.367924089002055865e+00 -1.842174659016145188e+00 3.630000000000000000e+02
3.018694957192018080e+00 -1.418404969355438583e+00 3.630000000000000000e+02
1.669465825381980517e+00 -9.946352796947313113e-01 3.630000000000000000e+02
3.202366935719428431e-01 -5.708655900340247058e-01 3.630000000000000000e+02
-1.028992438238095053e+00 -1.470959003733179338e-01 3.630000000000000000e+02
-2.378221570048133060e+00 2.766737892873888938e-01 3.630000000000000000e+02
-3.727450701858170845e+00 7.004434789480953327e-01 3.630000000000000000e+02
-5.076679833668208630e+00 1.124213168608801938e+00 3.630000000000000000e+02
-6.425908965478246415e+00 1.547982858269508766e+00 3.630000000000000000e+02
-7.775138097288284200e+00 1.971752547930216037e+00 3.630000000000000000e+02
5.717153220812093650e+00 -2.265944348676852460e+00 3.640000000000000000e+02
4.367924089002055865e+00 -1.842174659016145188e+00 3.640000000000000000e+02
3.018694957192018080e+00 -1.418404969355438583e+00 3.640000000000000000e+02
1.669465825381980517e+00 -9.946352796947313113e-01 3.640000000000000000e+02
3.202366935719428431e-01 -5.708655900340247058e-01 3.640000000000000000e+02
-1.028992438238095053e+00 -1.470959003733179338e-01 3.640000000000000000e+02
-2.378221570048133060e+00 2.766737892873888938e-01 3.640000000000000000e+02
-3.727450701858170845e+00 7.004434789480953327e-01 3.640000000000000000e+02
-5.076679833668208630e+00 1.124213168608801938e+00 3.640000000000000000e+02
-6.425908965478246415e+00 1.547982858269508766e+00 3.640000000000000000e+02
5.717153220812093650e+00 -2.265944348676852460e+00 3.650000000000000000e+02
4.367924089002055865e+00 -1.842174659016145188e+00 3.650000000000000000e+02
3.018694957192018080e+00 -1.418404969355438583e+00 3.650000000000000000e+02
1.669465825381980517e+00 -9.946352796947313113e-01 3.650000000000000000e+02
3.202366935719428431e-01 -5.708655900340247058e-01 3.650000000000000000e+02
-1.028992438238095053e+00 -1.470959003733179338e-01 3.650000000000000000e+02
-2.378221570048133060e+00 2.766737892873888938e-01 3.650000000000000000e+02
-3.727450701858170845e+00 7.004434789480953327e-01 3.650000000000000000e+02
-5.076679833668208630e+00 1.124213168608801938e+00 3.650000000000000000e+02
-6.425908965478246415e+00 1.547982858269508766e+00 3.650000000000000000e+02
5.254423499737428394e+00 -1.379444937941479710e+00 3.660000000000000000e+02
3.905194367927390608e+00 -9.556752482807731042e-01 3.660000000000000000e+02
2.555965236117352823e+00 -5.319055586200658325e-01 3.660000000000000000e+02
1.206736104307315038e+00 -1.081358689593591160e-01 3.660000000000000000e+02
-1.424930275027227466e-01 3.156338207013476560e-01 3.660000000000000000e+02
-1.491722159312760754e+00 7.394035103620544280e-01 3.660000000000000000e+02
-2.840951291122798317e+00 1.163173200022761034e+00 3.660000000000000000e+02
-4.190180422932836102e+00 1.586942889683467195e+00 3.660000000000000000e+02
-5.539409554742873887e+00 2.010712579344174245e+00 3.660000000000000000e+02
-6.888638686552911672e+00 2.434482269004881072e+00 3.660000000000000000e+02
5.254423499737428394e+00 -1.379444937941479710e+00 3.670000000000000000e+02
3.905194367927390608e+00 -9.556752482807731042e-01 3.670000000000000000e+02
2.555965236117352823e+00 -5.319055586200658325e-01 3.670000000000000000e+02
1.206736104307315038e+00 -1.081358689593591160e-01 3.670000000000000000e+02
-1.424930275027227466e-01 3.156338207013476560e-01 3.670000000000000000e+02
-1.491722159312760754e+00 7.394035103620544280e-01 3.670000000000000000e+02
-2.840951291122798317e+00 1.163173200022761034e+00 3.670000000000000000e+02
-4.190180422932836102e+00 1.586942889683467195e+00 3.670000000000000000e+02
-5.539409554742873887e+00 2.010712579344174245e+00 3.670000000000000000e+02
-6.888638686552911672e+00 2.434482269004881072e+00 3.670000000000000000e+02
5.717153220812093650e+00 -2.265944348676852460e+00 3.680000000000000000e+02
4.367924089002055865e+00 -1.842174659016145188e+00 3.680000000000000000e+02
3.018694957192018080e+00 -1.418404969355438583e+00 3.680000000000000000e+02
1.669465825381980517e+00 -9.946352796947313113e-01 3.680000000000000000e+02
3.202366935719428431e-01 -5.708655900340247058e-01 3.680000000000000000e+02
-1.028992438238095053e+00 -1.470959003733179338e-01 3.680000000000000000e+02
-2.378221570048133060e+00 2.766737892873888938e-01 3.680000000000000000e+02
-3.727450701858170845e+00 7.004434789480953327e-01 3.680000000000000000e+02
-5.076679833668208630e+00 1.124213168608801938e+00 3.680000000000000000e+02
-6.425908965478246415e+00 1.547982858269508766e+00 3.680000000000000000e+02
-7.775138097288284200e+00 1.971752547930216037e+00 3.680000000000000000e+02
5.717153220812093650e+00 -2.265944348676852460e+00 3.690000000000000000e+02
4.367924089002055865e+00 -1.842174659016145188e+00 3.690000000000000000e+02
3.018694957192018080e+00 -1.418404969355438583e+00 3.690000000000000000e+02
1.669465825381980517e+00 -9.946352796947313113e-01 3.690000000000000000e+02
3.202366935719428431e-01 -5.708655900340247058e-01 3.690000000000000000e+02
-1.028992438238095053e+00 -1.470959003733179338e-01 3.690000000000000000e+02
-2.378221570048133060e+00 2.766737892873888938e-01 3.690000000000000000e+02
-3.727450701858170845e+00 7.004434789480953327e-01 3.690000000000000000e+02
-5.076679833668208630e+00 1.124213168608801938e+00 3.690000000000000000e+02
-6.425908965478246415e+00 1.547982858269508766e+00 3.690000000000000000e+02
-7.775138097288284200e+00 1.971752547930216037e+00 3.690000000000000000e+02
5.717153220812093650e+00 -2.265944348676852460e+00 3.700000000000000000e+02
4.367924089002055865e+00 -1.842174659016145188e+00 3.700000000000000000e+02
3.018694957192018080e+00 -1.418404969355438583e+00 3.700000000000000000e+02
1.669465825381980517e+00 -9.946352796947313113e-01 3.700000000000000000e+02
3.202366935719428431e-01 -5.708655900340247058e-01 3.700000000000000000e+02
-1.028992438238095053e+00 -1.470959003733179338e-01 3.700000000000000000e+02
-2.378221570048133060e+00 2.766737892873888938e-01 3.700000000000000000e+02
-3.727450701858170845e+00 7.004434789480953327e-01 3.700000000000000000e+02
-5.076679833668208630e+00 1.124213168608801938e+00 3.700000000000000000e+02
-6.425908965478246415e+00 1.547982858269508766e+00 3.700000000000000000e+02
-7.775138097288284200e+00 1.971752547930216037e+00 3.700000000000000000e+02
5.717153220812093650e+00 -2.265944348676852460e+00 3.710000000000000000e+02
4.367924089002055865e+00 -1.842174659016145188e+00 3.710000000000000000e+02
3.018694957192018080e+00 -1.418404969355438583e+00 3.710000000000000000e+02
1.669465825381980517e+00 -9.946352796947313113e-01 3.710000000000000000e+02
3.202366935719428431e-01 -5.708655900340247058e-01 3.710000000000000000e+02
-1.028992438238095053e+00 -1.470959003733179338e-01 3.710000000000000000e+02
-2.378221570048133060e+00 2.766737892873888938e-01 3.710000000000000000e+02
-3.727450701858170845e+00 7.004434789480953327e-01 3.710000000000000000e+02
-5.076679833668208630e+00 1.124213168608801938e+00 3.710000000000000000e+02
-6.425908965478246415e+00 1.547982858269508766e+00 3.710000000000000000e+02
-7.775138097288284200e+00 1.971752547930216037e+00 3.710000000000000000e+02
5.717153220812093650e+00 -2.265944348676852460e+00 3.720000000000000000e+02
4.367924089002055865e+00 -1.842174659016145188e+00 3.720000000000000000e+02
3.018694957192018080e+00 -1.418404969355438583e+00 3.720000000000000000e+02
1.669465825381980517e+00 -9.946352796947313113e-01 3.720000000000000000e+02
3.202366935719428431e-01 -5.708655900340247058e-01 3.720000000000000000e+02
-1.028992438238095053e+00 -1.470959003733179338e-01 3.720000000000000000e+02
-2.378221570048133060e+00 2.766737892873888938e-01 3.720000000000000000e+02
-3.727450701858170845e+00 7.004434789480953327e-01 3.720000000000000000e+02
-5.076679833668208630e+00 1.124213168608801938e+00 3.720000000000000000e+02
-6.425908965478246415e+00 1.547982858269508766e+00 3.720000000000000000e+02
-7.775138097288284200e+00 1.971752547930216037e+00 3.720000000000000000e+02
5.717153220812093650e+00 -2.265944348676852460e+00 3.730000000000000000e+02
4.367924089002055865e+00 -1.842174659016145188e+00 3.730000000000000000e+02
3.018694957192018080e+00 -1.418404969355438583e+00 3.730000000000000000e+02
1.669465825381980517e+00 -9.946352796947313113e-01 3.730000000000000000e+02
3.202366935719428431e-01 -5.708655900340247058e-01 3.730000000000000000e+02
-1.028992438238095053e+00 -1.470959003733179338e-01 3.730000000000000000e+02
-2.378221570048133060e+00 2.766737892873888938e-01 3.730000000000000000e+02
-3.727450701858170845e+00 7.004434789480953327e-01 3.730000000000000000e+02
-5.076679833668208630e+00 1.124213168608801938e+00 3.730000000000000000e+02
-6.425908965478246415e+00 1.547982858269508766e+00 3.730000000000000000e+02
-7.775138097288284200e+00 1.971752547930216037e+00 3.730000000000000000e+02
5.717153220812093650e+00 -2.265944348676852460e+00 3.740000000000000000e+02
4.367924089002055865e+00 -1.842174659016145188e+00 3.740000000000000000e+02
3.018694957192018080e+00 -1.418404969355438583e+00 3.740000000000000000e+02
1.669465825381980517e+00 -9.946352796947313113e-01 3.740000000000000000e+02
3.202366935719428431e-01 -5.708655900340247058e-01 3.740000000000000000e+02
-1.028992438238095053e+00 -1.470959003733179338e-01 3.740000000000000000e+02
-2.378221570048133060e+00 2.766737892873888938e-01 3.740000000000000000e+02
-3.727450701858170845e+00 7.004434789480953327e-01 3.740000000000000000e+02
-5.076679833668208630e+00 1.124213168608801938e+00 3.740000000000000000e+02
-6.425908965478246415e+00 1.547982858269508766e+00 3.740000000000000000e+02
-7.775138097288284200e+00 1.971752547930216037e+00 3.740000000000000000e+02
5.717153220812093650e+00 -2.265944348676852460e+00 3.750000000000000000e+02
4.367924089002055865e+00 -1.842174659016145188e+00 3.750000000000000000e+02
3.018694957192018080e+00 -1.418404969355438583e+00 3.750000000000000000e+02
1.669465825381980517e+00 -9.946352796947313113e-01 3.750000000000000000e+02
3.202366935719428431e-01 -5.708655900340247058e-01 3.750000000000000000e+02
-1.028992438238095053e+00 -1.470959003733179338e-01 3.750000000000000000e+02
-2.378221570048133060e+00 2.766737892873888938e-01 3.750000000000000000e+02
-3.727450701858170845e+00 7.004434789480953327e-01 3.750000000000000000e+02
-5.076679833668208630e+00 1.124213168608801938e+00 3.750000000000000000e+02
-6.425908965478246415e+00 1.547982858269508766e+00 3.750000000000000000e+02
-7.775138097288284200e+00 1.971752547930216037e+00 3.750000000000000000e+02
5.254423499737428394e+00 -1.379444937941479710e+00 3.760000000000000000e+02
3.905194367927390608e+00 -9.556752482807731042e-01 3.760000000000000000e+02
2.555965236117352823e+00 -5.319055586200658325e-01 3.760000000000000000e+02
1.206736104307315038e+00 -1.081358689593591160e-01 3.760000000000000000e+02
-1.424930275027227466e-01 3.156338207013476560e-01 3.760000000000000000e+02
-1.491722159312760754e+00 7.394035103620544280e-01 3.760000000000000000e+02
-2.840951291122798317e+00 1.163173200022761034e+00 3.760000000000000000e+02
-4.190180422932836102e+00 1.586942889683467195e+00 3.760000000000000000e+02
-5.539409554742873887e+00 2.010712579344174245e+00 3.760000000000000000e+02
-6.888638686552911672e+00 2.434482269004881072e+00 3.760000000000000000e+02
5.254423499737428394e+00 -1.379444937941479710e+00 3.770000000000000000e+02
3.905194367927390608e+00 -9.556752482807731042e-01 3.770000000000000000e+02
2.555965236117352823e+00 -5.319055586200658325e-01 3.770000000000000000e+02
1.206736104307315038e+00 -1.081358689593591160e-01 3.770000000000000000e+02
-1.424930275027227466e-01 3.156338207013476560e-01 3.770000000000000000e+02
-1.491722159312760754e+00 7.394035103620544280e-01 3.770000000000000000e+02
-2.840951291122798317e+00 1.163173200022761034e+00 3.770000000000000000e+02
-4.190180422932836102e+00 1.586942889683467195e+00 3.770000000000000000e+02
-5.539409554742873887e+00 2.010712579344174245e+00 3.770000000000000000e+02
-6.888638686552911672e+00 2.434482269004881072e+00 3.770000000000000000e+02
5.254423499737428394e+00 -1.379444937941479710e+00 3.780000000000000000e+02
3.905194367927390608e+00 -9.556752482807731042e-01 3.780000000000000000e+02
2.555965236117352823e+00 -5.319055586200658325e-01 3.780000000000000000e+02
1.206736104307315038e+00 -1.081358689593591160e-01 3.780000000000000000e+02
-1.424930275027227466e-01 3.156338207013476560e-01 3.780000000000000000e+02
-1.491722159312760754e+00 7.394035103620544280e-01 3.780000000000000000e+02
-2.840951291122798317e+00 1.163173200022761034e+00 3.780000000000000000e+02
-4.190180422932836102e+00 1.586942889683467195e+00 3.780000000000000000e+02
-5.539409554742873887e+00 2.010712579344174245e+00 3.780000000000000000e+02
-6.888638686552911672e+00 2.434482269004881072e+00 3.780000000000000000e+02
5.254423499737428394e+00 -1.379444937941479710e+00 3.790000000000000000e+02
3.905194367927390608e+00 -9.556752482807731042e-01 3.790000000000000000e+02
2.555965236117352823e+00 -5.319055586200658325e-01 3.790000000000000000e+02
1.206736104307315038e+00 -1.081358689593591160e-01 3.790000000000000000e+02
-1.424930275027227466e-01 3.156338207013476560e-01 3.790000000000000000e+02
-1.491722159312760754e+00 7.394035103620544280e-01 3.790000000000000000e+02
-2.840951291122798317e+00 1.163173200022761034e+00 3.790000000000000000e+02
-4.190180422932836102e+00 1.586942889683467195e+00 3.790000000000000000e+02
-5.539409554742873887e+00 2.010712579344174245e+00 3.790000000000000000e+02
-6.888638686552911672e+00 2.434482269004881072e+00 3.790000000000000000e+02
5.254423499737428394e+00 -1.379444937941479710e+00 3.800000000000000000e+02
3.905194367927390608e+00 -9.556752482807731042e-01 3.800000000000000000e+02
2.555965236117352823e+00 -5.319055586200658325e-01 3.800000000000000000e+02
1.206736104307315038e+00 -1.081358689593591160e-01 3.800000000000000000e+02
-1.424930275027227466e-01 3.156338207013476560e-01 3.800000000000000000e+02
-1.491722159312760754e+00 7.394035103620544280e-01 3.800000000000000000e+02
-2.840951291122798317e+00 1.163173200022761034e+00 3.800000000000000000e+02
-4.190180422932836102e+00 1.586942889683467195e+00 3.800000000000000000e+02
-5.539409554742873887e+00 2.010712579344174245e+00 3.800000000000000000e+02
-6.888638686552911672e+00 2.434482269004881072e+00 3.800000000000000000e+02
5.254423499737428394e+00 -1.379444937941479710e+00 3.810000000000000000e+02
3.905194367927390608e+00 -9.556752482807731042e-01 3.810000000000000000e+02
2.555965236117352823e+00 -5.319055586200658325e-01 3.810000000000000000e+02
1.206736104307315038e+00 -1.081358689593591160e-01 3.810000000000000000e+02
-1.424930275027227466e-01 3.156338207013476560e-01 3.810000000000000000e+02
-1.491722159312760754e+00 7.394035103620544280e-01 3.810000000000000000e+02
-2.840951291122798317e+00 1.163173200022761034e+00 3.810000000000000000e+02
-4.190180422932836102e+00 1.586942889683467195e+00 3.810000000000000000e+02
-5.539409554742873887e+00 2.010712579344174245e+00 3.810000000000000000e+02
-6.888638686552911672e+00 2.434482269004881072e+00 3.810000000000000000e+02
5.254423499737428394e+00 -1.379444937941479710e+00 3.820000000000000000e+02
3.905194367927390608e+00 -9.556752482807731042e-01 3.820000000000000000e+02
2.555965236117352823e+00 -5.319055586200658325e-01 3.820000000000000000e+02
1.206736104307315038e+00 -1.081358689593591160e-01 3.820000000000000000e+02
-1.424930275027227466e-01 3.156338207013476560e-01 3.820000000000000000e+02
-1.491722159312760754e+00 7.394035103620544280e-01 3.820000000000000000e+02
-2.840951291122798317e+00 1.163173200022761034e+00 3.820000000000000000e+02
-4.190180422932836102e+00 1.586942889683467195e+00 3.820000000000000000e+02
-5.539409554742873887e+00 2.010712579344174245e+00 3.820000000000000000e+02
-6.888638686552911672e+00 2.434482269004881072e+00 3.820000000000000000e+02
5.717153220812093650e+00 -2.265944348676852460e+00 3.830000000000000000e+02
4.367924089002055865e+00 -1.842174659016145188e+00 3.830000000000000000e+02
3.018694957192018080e+00 -1.418404969355438583e+00 3.830000000000000000e+02
1.669465825381980517e+00 -9.946352796947313113e-01 3.830000000000000000e+02
3.202366935719428431e-01 -5.708655900340247058e-01 3.830000000000000000e+02
-1.028992438238095053e+00 -1.470959003733179338e-01 3.830000000000000000e+02
-2.378221570048133060e+00 2.766737892873888938e-01 3.830000000000000000e+02
-3.727450701858170845e+00 7.004434789480953327e-01 3.830000000000000000e+02
-5.076679833668208630e+00 1.124213168608801938e+00 3.830000000000000000e+02
-6.425908965478246415e+00 1.547982858269508766e+00 3.830000000000000000e+02
5.717153220812093650e+00 -2.265944348676852460e+00 3.840000000000000000e+02
4.367924089002055865e+00 -1.842174659016145188e+00 3.840000000000000000e+02
3.018694957192018080e+00 -1.418404969355438583e+00 3.840000000000000000e+02
1.669465825381980517e+00 -9.946352796947313113e-01 3.840000000000000000e+02
3.202366935719428431e-01 -5.708655900340247058e-01 3.840000000000000000e+02
-1.028992438238095053e+00 -1.470959003733179338e-01 3.840000000000000000e+02
-2.378221570048133060e+00 2.766737892873888938e-01 3.840000000000000000e+02
-3.727450701858170845e+00 7.004434789480953327e-01 3.840000000000000000e+02
-5.076679833668208630e+00 1.124213168608801938e+00 3.840000000000000000e+02
-6.425908965478246415e+00 1.547982858269508766e+00 3.840000000000000000e+02
5.254423499737428394e+00 -1.379444937941479710e+00 3.850000000000000000e+02
3.905194367927390608e+00 -9.556752482807731042e-01 3.850000000000000000e+02
2.555965236117352823e+00 -5.319055586200658325e-01 3.850000000000000000e+02
1.206736104307315038e+00 -1.081358689593591160e-01 3.850000000000000000e+02
-1.424930275027227466e-01 3.156338207013476560e-01 3.850000000000000000e+02
-1.491722159312760754e+00 7.394035103620544280e-01 3.850000000000000000e+02
-2.840951291122798317e+00 1.163173200022761034e+00 3.850000000000000000e+02
-4.190180422932836102e+00 1.586942889683467195e+00 3.850000000000000000e+02
-5.539409554742873887e+00 2.010712579344174245e+00 3.850000000000000000e+02
-6.888638686552911672e+00 2.434482269004881072e+00 3.850000000000000000e+02
5.254423499737428394e+00 -1.379444937941479710e+00 3.860000000000000000e+02
3.905194367927390608e+00 -9.556752482807731042e-01 3.860000000000000000e+02
2.555965236117352823e+00 -5.319055586200658325e-01 3.860000000000000000e+02
1.206736104307315038e+00 -1.081358689593591160e-01 3.860000000000000000e+02
-1.424930275027227466e-01 3.156338207013476560e-01 3.860000000000000000e+02
-1.491722159312760754e+00 7.394035103620544280e-01 3.860000000000000000e+02
-2.840951291122798317e+00 1.163173200022761034e+00 3.860000000000000000e+02
-4.190180422932836102e+00 1.586942889683467195e+00 3.860000000000000000e+02
-5.539409554742873887e+00 2.010712579344174245e+00 3.860000000000000000e+02
-6.888638686552911672e+00 2.434482269004881072e+00 3.860000000000000000e+02
5.254423499737428394e+00 -1.379444937941479710e+00 3.870000000000000000e+02
