4.270604830496127491e-01 5.236860394840152111e+01 2.260000000000000000e+02
1.572165190638816767e-01 5.375683456148439632e+01 2.260000000000000000e+02
-1.126274449218485074e-01 5.514506517456727863e+01 2.260000000000000000e+02
-3.824714089075778034e-01 5.653329578765016095e+01 2.260000000000000000e+02
-6.523153728933088757e-01 5.792152640073304326e+01 2.260000000000000000e+02
-9.221593368790381717e-01 5.930975701381591847e+01 2.260000000000000000e+02
-1.192003300864769244e+00 6.069798762689880078e+01 2.260000000000000000e+02
-1.461847264850498540e+00 6.208621823998167599e+01 2.260000000000000000e+02
-1.731691228836228724e+00 6.347444885306455831e+01 2.260000000000000000e+02
-2.001535192821958908e+00 6.486267946614744062e+01 2.260000000000000000e+02
-3.080911048764879645e+00 7.041560191847895567e+01 2.260000000000000000e+02
-3.350755012750609829e+00 7.180383253156183798e+01 2.260000000000000000e+02
-3.620598976736340013e+00 7.319206314464472030e+01 2.260000000000000000e+02
-3.890442940722068421e+00 7.458029375772758840e+01 2.260000000000000000e+02
-4.160286904707800382e+00 7.596852437081047071e+01 2.260000000000000000e+02
-4.430130868693530566e+00 7.735675498389335303e+01 2.260000000000000000e+02
6.969044470353429332e-01 5.098037333531864590e+01 2.270000000000000000e+02
4.270604830496127491e-01 5.236860394840152111e+01 2.270000000000000000e+02
1.572165190638816767e-01 5.375683456148439632e+01 2.270000000000000000e+02
-1.126274449218485074e-01 5.514506517456727863e+01 2.270000000000000000e+02
-3.824714089075778034e-01 5.653329578765016095e+01 2.270000000000000000e+02
-6.523153728933088757e-01 5.792152640073304326e+01 2.270000000000000000e+02
-9.221593368790381717e-01 5.930975701381591847e+01 2.270000000000000000e+02
-1.192003300864769244e+00 6.069798762689880078e+01 2.270000000000000000e+02
-1.461847264850498540e+00 6.208621823998167599e+01 2.270000000000000000e+02
-1.731691228836228724e+00 6.347444885306455831e+01 2.270000000000000000e+02
-2.001535192821958908e+00 6.486267946614744062e+01 2.270000000000000000e+02
-3.350755012750609829e+00 7.180383253156183798e+01 2.270000000000000000e+02
-3.620598976736340013e+00 7.319206314464472030e+01 2.270000000000000000e+02
-3.890442940722068421e+00 7.458029375772758840e+01 2.270000000000000000e+02
-4.160286904707800382e+00 7.596852437081047071e+01 2.270000000000000000e+02
6.969044470353429332e-01 5.098037333531864590e+01 2.280000000000000000e+02
4.270604830496127491e-01 5.236860394840152111e+01 2.280000000000000000e+02
1.572165190638816767e-01 5.375683456148439632e+01 2.280000000000000000e+02
-1.126274449218485074e-01 5.514506517456727863e+01 2.280000000000000000e+02
-3.824714089075778034e-01 5.653329578765016095e+01 2.280000000000000000e+02
-6.523153728933088757e-01 5.792152640073304326e+01 2.280000000000000000e+02
-9.221593368790381717e-01 5.930975701381591847e+01 2.280000000000000000e+02
-1.192003300864769244e+00 6.069798762689880078e+01 2.280000000000000000e+02
-1.461847264850498540e+00 6.208621823998167599e+01 2.280000000000000000e+02
-1.731691228836228724e+00 6.347444885306455831e+01 2.280000000000000000e+02
-2.001535192821958908e+00 6.486267946614744062e+01 2.280000000000000000e+02
6.969044470353429332e-01 5.098037333531864590e+01 2.290000000000000000e+02
4.270604830496127491e-01 5.236860394840152111e+01 2.290000000000000000e+02
1.572165190638816767e-01 5.375683456148439632e+01 2.290000000000000000e+02
-1.126274449218485074e-01 5.514506517456727863e+01 2.290000000000000000e+02
-3.824714089075778034e-01 5.653329578765016095e+01 2.290000000000000000e+02
-6.523153728933088757e-01 5.792152640073304326e+01 2.290000000000000000e+02
-9.221593368790381717e-01 5.930975701381591847e+01 2.290000000000000000e+02
-1.192003300864769244e+00 6.069798762689880078e+01 2.290000000000000000e+02
-1.461847264850498540e+00 6.208621823998167599e+01 2.290000000000000000e+02
-1.731691228836228724e+00 6.347444885306455831e+01 2.290000000000000000e+02
-2.001535192821958908e+00 6.486267946614744062e+01 2.290000000000000000e+02
6.969044470353429332e-01 5.098037333531864590e+01 2.300000000000000000e+02
4.270604830496127491e-01 5.236860394840152111e+01 2.300000000000000000e+02
1.572165190638816767e-01 5.375683456148439632e+01 2.300000000000000000e+02
-1.126274449218485074e-01 5.514506517456727863e+01 2.300000000000000000e+02
-3.824714089075778034e-01 5.653329578765016095e+01 2.300000000000000000e+02
-6.523153728933088757e-01 5.792152640073304326e+01 2.300000000000000000e+02
-9.221593368790381717e-01 5.930975701381591847e+01 2.300000000000000000e+02
-1.192003300864769244e+00 6.069798762689880078e+01 2.300000000000000000e+02
-1.461847264850498540e+00 6.208621823998167599e+01 2.300000000000000000e+02
-1.731691228836228724e+00 6.347444885306455831e+01 2.300000000000000000e+02
-2.001535192821958908e+00 6.486267946614744062e+01 2.300000000000000000e+02
1.256097771583918110e+00 5.180941062385294771e+01 2.310000000000000000e+02
9.862538075981861496e-01 5.319764123693582292e+01 2.310000000000000000e+02
7.164098436124568536e-01 5.458587185001870523e+01 2.310000000000000000e+02
4.465658796267266695e-01 5.597410246310158755e+01 2.310000000000000000e+02
1.767219156409964853e-01 5.736233307618446275e+01 2.310000000000000000e+02
-9.312204834473369885e-02 5.875056368926734507e+01 2.310000000000000000e+02
-3.629660123304638830e-01 6.013879430235022738e+01 2.310000000000000000e+02
-6.328099763161940672e-01 6.152702491543310259e+01 2.310000000000000000e+02
-9.026539403019242513e-01 6.291525552851598491e+01 2.310000000000000000e+02
-1.172497904287654436e+00 6.430348614159886722e+01 2.310000000000000000e+02
1.815291096132491511e+00 5.263844791238724952e+01 2.320000000000000000e+02
1.545447132146761327e+00 5.402667852547013183e+01 2.320000000000000000e+02
1.275603168161032031e+00 5.541490913855301415e+01 2.320000000000000000e+02
1.005759204175300958e+00 5.680313975163588935e+01 2.320000000000000000e+02
7.359152401895716622e-01 5.819137036471877167e+01 2.320000000000000000e+02
4.660712762038405899e-01 5.957960097780164688e+01 2.320000000000000000e+02
1.962273122181112939e-01 6.096783159088452919e+01 2.320000000000000000e+02
-7.361665176761977847e-02 6.235606220396741151e+01 2.320000000000000000e+02
-1.152992507710540515e+00 6.790898465629892655e+01 2.320000000000000000e+02
-1.422836471696270699e+00 6.929721526938180887e+01 2.320000000000000000e+02
-1.692680435681999995e+00 7.068544588246469118e+01 2.320000000000000000e+02
-1.962524399667729291e+00 7.207367649554755928e+01 2.320000000000000000e+02
-2.232368363653459475e+00 7.346190710863044160e+01 2.320000000000000000e+02
-2.502212327639191436e+00 7.485013772171332391e+01 2.320000000000000000e+02
1.815291096132491511e+00 5.263844791238724952e+01 2.330000000000000000e+02
1.545447132146761327e+00 5.402667852547013183e+01 2.330000000000000000e+02
1.275603168161032031e+00 5.541490913855301415e+01 2.330000000000000000e+02
1.005759204175300958e+00 5.680313975163588935e+01 2.330000000000000000e+02
7.359152401895716622e-01 5.819137036471877167e+01 2.330000000000000000e+02
4.660712762038405899e-01 5.957960097780164688e+01 2.330000000000000000e+02
-8.831485437248103310e-01 6.652075404321604424e+01 2.330000000000000000e+02
-1.152992507710540515e+00 6.790898465629892655e+01 2.330000000000000000e+02
-1.422836471696270699e+00 6.929721526938180887e+01 2.330000000000000000e+02
-1.692680435681999995e+00 7.068544588246469118e+01 2.330000000000000000e+02
-1.962524399667729291e+00 7.207367649554755928e+01 2.330000000000000000e+02
-2.232368363653459475e+00 7.346190710863044160e+01 2.330000000000000000e+02
-2.502212327639191436e+00 7.485013772171332391e+01 2.330000000000000000e+02
-2.772056291624919844e+00 7.623836833479620623e+01 2.330000000000000000e+02
7.407224341618238839e+00 6.092882079773030313e+01 2.340000000000000000e+02
7.137380377632508655e+00 6.231705141081317834e+01 2.340000000000000000e+02
6.867536413646778470e+00 6.370528202389606065e+01 2.340000000000000000e+02
6.597692449661048286e+00 6.509351263697894296e+01 2.340000000000000000e+02
6.327848485675318102e+00 6.648174325006182528e+01 2.340000000000000000e+02
6.058004521689587918e+00 6.786997386314469338e+01 2.340000000000000000e+02
5.788160557703857734e+00 6.925820447622757570e+01 2.340000000000000000e+02
5.518316593718127550e+00 7.064643508931045801e+01 2.340000000000000000e+02
7.407224341618238839e+00 6.092882079773030313e+01 2.350000000000000000e+02
7.137380377632508655e+00 6.231705141081317834e+01 2.350000000000000000e+02
6.867536413646778470e+00 6.370528202389606065e+01 2.350000000000000000e+02
6.597692449661048286e+00 6.509351263697894296e+01 2.350000000000000000e+02
6.327848485675318102e+00 6.648174325006182528e+01 2.350000000000000000e+02
6.058004521689587918e+00 6.786997386314469338e+01 2.350000000000000000e+02
5.788160557703857734e+00 6.925820447622757570e+01 2.350000000000000000e+02
5.518316593718127550e+00 7.064643508931045801e+01 2.350000000000000000e+02
5.248472629732397365e+00 7.203466570239334033e+01 2.350000000000000000e+02
7.407224341618238839e+00 6.092882079773030313e+01 2.360000000000000000e+02
7.137380377632508655e+00 6.231705141081317834e+01 2.360000000000000000e+02
6.867536413646778470e+00 6.370528202389606065e+01 2.360000000000000000e+02
6.597692449661048286e+00 6.509351263697894296e+01 2.360000000000000000e+02
6.327848485675318102e+00 6.648174325006182528e+01 2.360000000000000000e+02
6.058004521689587918e+00 6.786997386314469338e+01 2.360000000000000000e+02
5.788160557703857734e+00 6.925820447622757570e+01 2.360000000000000000e+02
5.518316593718127550e+00 7.064643508931045801e+01 2.360000000000000000e+02
5.248472629732397365e+00 7.203466570239334033e+01 2.360000000000000000e+02
4.978628665746667181e+00 7.342289631547622264e+01 2.360000000000000000e+02
7.966417666166814016e+00 6.175785808626460494e+01 2.370000000000000000e+02
7.696573702181083831e+00 6.314608869934748725e+01 2.370000000000000000e+02
7.426729738195353647e+00 6.453431931243036956e+01 2.370000000000000000e+02
7.156885774209623463e+00 6.592254992551323767e+01 2.370000000000000000e+02
6.887041810223893279e+00 6.731078053859611998e+01 2.370000000000000000e+02
6.617197846238163095e+00 6.869901115167900230e+01 2.370000000000000000e+02
6.347353882252432911e+00 7.008724176476188461e+01 2.370000000000000000e+02
6.077509918266702726e+00 7.147547237784476692e+01 2.370000000000000000e+02
5.807665954280972542e+00 7.286370299092763503e+01 2.370000000000000000e+02
5.537821990295242358e+00 7.425193360401051734e+01 2.370000000000000000e+02
7.966417666166814016e+00 6.175785808626460494e+01 2.380000000000000000e+02
7.696573702181083831e+00 6.314608869934748725e+01 2.380000000000000000e+02
7.426729738195353647e+00 6.453431931243036956e+01 2.380000000000000000e+02
7.156885774209623463e+00 6.592254992551323767e+01 2.380000000000000000e+02
6.887041810223893279e+00 6.731078053859611998e+01 2.380000000000000000e+02
6.617197846238163095e+00 6.869901115167900230e+01 2.380000000000000000e+02
6.347353882252432911e+00 7.008724176476188461e+01 2.380000000000000000e+02
6.077509918266702726e+00 7.147547237784476692e+01 2.380000000000000000e+02
5.807665954280972542e+00 7.286370299092763503e+01 2.380000000000000000e+02
7.966417666166814016e+00 6.175785808626460494e+01 2.390000000000000000e+02
7.696573702181083831e+00 6.314608869934748725e+01 2.390000000000000000e+02
7.426729738195353647e+00 6.453431931243036956e+01 2.390000000000000000e+02
7.156885774209623463e+00 6.592254992551323767e+01 2.390000000000000000e+02
6.887041810223893279e+00 6.731078053859611998e+01 2.390000000000000000e+02
6.617197846238163095e+00 6.869901115167900230e+01 2.390000000000000000e+02
6.347353882252432911e+00 7.008724176476188461e+01 2.390000000000000000e+02
6.077509918266702726e+00 7.147547237784476692e+01 2.390000000000000000e+02
5.807665954280972542e+00 7.286370299092763503e+01 2.390000000000000000e+02
7.966417666166814016e+00 6.175785808626460494e+01 2.400000000000000000e+02
7.696573702181083831e+00 6.314608869934748725e+01 2.400000000000000000e+02
7.426729738195353647e+00 6.453431931243036956e+01 2.400000000000000000e+02
7.156885774209623463e+00 6.592254992551323767e+01 2.400000000000000000e+02
6.887041810223893279e+00 6.731078053859611998e+01 2.400000000000000000e+02
6.617197846238163095e+00 6.869901115167900230e+01 2.400000000000000000e+02
6.347353882252432911e+00 7.008724176476188461e+01 2.400000000000000000e+02
6.077509918266702726e+00 7.147547237784476692e+01 2.400000000000000000e+02
5.807665954280972542e+00 7.286370299092763503e+01 2.400000000000000000e+02
5.537821990295242358e+00 7.425193360401051734e+01 2.400000000000000000e+02
7.966417666166814016e+00 6.175785808626460494e+01 2.410000000000000000e+02
7.696573702181083831e+00 6.314608869934748725e+01 2.410000000000000000e+02
7.426729738195353647e+00 6.453431931243036956e+01 2.410000000000000000e+02
7.156885774209623463e+00 6.592254992551323767e+01 2.410000000000000000e+02
6.887041810223893279e+00 6.731078053859611998e+01 2.410000000000000000e+02
6.617197846238163095e+00 6.869901115167900230e+01 2.410000000000000000e+02
6.347353882252432911e+00 7.008724176476188461e+01 2.410000000000000000e+02
6.077509918266702726e+00 7.147547237784476692e+01 2.410000000000000000e+02
5.807665954280972542e+00 7.286370299092763503e+01 2.410000000000000000e+02
5.537821990295242358e+00 7.425193360401051734e+01 2.410000000000000000e+02
7.966417666166814016e+00 6.175785808626460494e+01 2.420000000000000000e+02
7.696573702181083831e+00 6.314608869934748725e+01 2.420000000000000000e+02
7.426729738195353647e+00 6.453431931243036956e+01 2.420000000000000000e+02
7.156885774209623463e+00 6.592254992551323767e+01 2.420000000000000000e+02
6.887041810223893279e+00 6.731078053859611998e+01 2.420000000000000000e+02
6.617197846238163095e+00 6.869901115167900230e+01 2.420000000000000000e+02
6.347353882252432911e+00 7.008724176476188461e+01 2.420000000000000000e+02
6.077509918266702726e+00 7.147547237784476692e+01 2.420000000000000000e+02
5.807665954280972542e+00 7.286370299092763503e+01 2.420000000000000000e+02
5.537821990295242358e+00 7.425193360401051734e+01 2.420000000000000000e+02
7.966417666166814016e+00 6.175785808626460494e+01 2.430000000000000000e+02
7.696573702181083831e+00 6.314608869934748725e+01 2.430000000000000000e+02
7.426729738195353647e+00 6.453431931243036956e+01 2.430000000000000000e+02
7.156885774209623463e+00 6.592254992551323767e+01 2.430000000000000000e+02
6.887041810223893279e+00 6.731078053859611998e+01 2.430000000000000000e+02
6.617197846238163095e+00 6.869901115167900230e+01 2.430000000000000000e+02
6.347353882252432911e+00 7.008724176476188461e+01 2.430000000000000000e+02
6.077509918266702726e+00 7.147547237784476692e+01 2.430000000000000000e+02
5.807665954280972542e+00 7.286370299092763503e+01 2.430000000000000000e+02
5.537821990295242358e+00 7.425193360401051734e+01 2.430000000000000000e+02
7.966417666166814016e+00 6.175785808626460494e+01 2.440000000000000000e+02
7.696573702181083831e+00 6.314608869934748725e+01 2.440000000000000000e+02
7.426729738195353647e+00 6.453431931243036956e+01 2.440000000000000000e+02
7.156885774209623463e+00 6.592254992551323767e+01 2.440000000000000000e+02
6.887041810223893279e+00 6.731078053859611998e+01 2.440000000000000000e+02
6.617197846238163095e+00 6.869901115167900230e+01 2.440000000000000000e+02
6.347353882252432911e+00 7.008724176476188461e+01 2.440000000000000000e+02
6.077509918266702726e+00 7.147547237784476692e+01 2.440000000000000000e+02
5.807665954280972542e+00 7.286370299092763503e+01 2.440000000000000000e+02
5.537821990295242358e+00 7.425193360401051734e+01 2.440000000000000000e+02
7.966417666166814016e+00 6.175785808626460494e+01 2.450000000000000000e+02
7.696573702181083831e+00 6.314608869934748725e+01 2.450000000000000000e+02
7.426729738195353647e+00 6.453431931243036956e+01 2.450000000000000000e+02
7.156885774209623463e+00 6.592254992551323767e+01 2.450000000000000000e+02
6.887041810223893279e+00 6.731078053859611998e+01 2.450000000000000000e+02
6.617197846238163095e+00 6.869901115167900230e+01 2.450000000000000000e+02
6.347353882252432911e+00 7.008724176476188461e+01 2.450000000000000000e+02
6.077509918266702726e+00 7.147547237784476692e+01 2.450000000000000000e+02
5.807665954280972542e+00 7.286370299092763503e+01 2.450000000000000000e+02
5.537821990295242358e+00 7.425193360401051734e+01 2.450000000000000000e+02
7.966417666166814016e+00 6.175785808626460494e+01 2.460000000000000000e+02
7.696573702181083831e+00 6.314608869934748725e+01 2.460000000000000000e+02
7.426729738195353647e+00 6.453431931243036956e+01 2.460000000000000000e+02
7.156885774209623463e+00 6.592254992551323767e+01 2.460000000000000000e+02
6.887041810223893279e+00 6.731078053859611998e+01 2.460000000000000000e+02
6.617197846238163095e+00 6.869901115167900230e+01 2.460000000000000000e+02
6.347353882252432911e+00 7.008724176476188461e+01 2.460000000000000000e+02
6.077509918266702726e+00 7.147547237784476692e+01 2.460000000000000000e+02
5.807665954280972542e+00 7.286370299092763503e+01 2.460000000000000000e+02
5.537821990295242358e+00 7.425193360401051734e+01 2.460000000000000000e+02
7.966417666166814016e+00 6.175785808626460494e+01 2.470000000000000000e+02
7.696573702181083831e+00 6.314608869934748725e+01 2.470000000000000000e+02
7.426729738195353647e+00 6.453431931243036956e+01 2.470000000000000000e+02
7.156885774209623463e+00 6.592254992551323767e+01 2.470000000000000000e+02
6.887041810223893279e+00 6.731078053859611998e+01 2.470000000000000000e+02
6.617197846238163095e+00 6.869901115167900230e+01 2.470000000000000000e+02
6.347353882252432911e+00 7.008724176476188461e+01 2.470000000000000000e+02
6.077509918266702726e+00 7.147547237784476692e+01 2.470000000000000000e+02
5.807665954280972542e+00 7.286370299092763503e+01 2.470000000000000000e+02
5.537821990295242358e+00 7.425193360401051734e+01 2.470000000000000000e+02
7.966417666166814016e+00 6.175785808626460494e+01 2.480000000000000000e+02
7.696573702181083831e+00 6.314608869934748725e+01 2.480000000000000000e+02
7.426729738195353647e+00 6.453431931243036956e+01 2.480000000000000000e+02
7.156885774209623463e+00 6.592254992551323767e+01 2.480000000000000000e+02
6.887041810223893279e+00 6.731078053859611998e+01 2.480000000000000000e+02
6.617197846238163095e+00 6.869901115167900230e+01 2.480000000000000000e+02
6.347353882252432911e+00 7.008724176476188461e+01 2.480000000000000000e+02
6.077509918266702726e+00 7.147547237784476692e+01 2.480000000000000000e+02
5.807665954280972542e+00 7.286370299092763503e+01 2.480000000000000000e+02
5.537821990295242358e+00 7.425193360401051734e+01 2.480000000000000000e+02
7.966417666166814016e+00 6.175785808626460494e+01 2.490000000000000000e+02
7.696573702181083831e+00 6.314608869934748725e+01 2.490000000000000000e+02
7.426729738195353647e+00 6.453431931243036956e+01 2.490000000000000000e+02
7.156885774209623463e+00 6.592254992551323767e+01 2.490000000000000000e+02
6.887041810223893279e+00 6.731078053859611998e+01 2.490000000000000000e+02
6.617197846238163095e+00 6.869901115167900230e+01 2.490000000000000000e+02
6.347353882252432911e+00 7.008724176476188461e+01 2.490000000000000000e+02
6.077509918266702726e+00 7.147547237784476692e+01 2.490000000000000000e+02
5.807665954280972542e+00 7.286370299092763503e+01 2.490000000000000000e+02
5.537821990295242358e+00 7.425193360401051734e+01 2.490000000000000000e+02
7.966417666166814016e+00 6.175785808626460494e+01 2.500000000000000000e+02
7.696573702181083831e+00 6.314608869934748725e+01 2.500000000000000000e+02
7.426729738195353647e+00 6.453431931243036956e+01 2.500000000000000000e+02
7.156885774209623463e+00 6.592254992551323767e+01 2.500000000000000000e+02
6.887041810223893279e+00 6.731078053859611998e+01 2.500000000000000000e+02
6.617197846238163095e+00 6.869901115167900230e+01 2.500000000000000000e+02
6.347353882252432911e+00 7.008724176476188461e+01 2.500000000000000000e+02
6.077509918266702726e+00 7.147547237784476692e+01 2.500000000000000000e+02
5.807665954280972542e+00 7.286370299092763503e+01 2.500000000000000000e+02
5.537821990295242358e+00 7.425193360401051734e+01 2.500000000000000000e+02
7.966417666166814016e+00 6.175785808626460494e+01 2.510000000000000000e+02
7.696573702181083831e+00 6.314608869934748725e+01 2.510000000000000000e+02
7.426729738195353647e+00 6.453431931243036956e+01 2.510000000000000000e+02
7.156885774209623463e+00 6.592254992551323767e+01 2.510000000000000000e+02
6.887041810223893279e+00 6.731078053859611998e+01 2.510000000000000000e+02
6.617197846238163095e+00 6.869901115167900230e+01 2.510000000000000000e+02
6.347353882252432911e+00 7.008724176476188461e+01 2.510000000000000000e+02
6.077509918266702726e+00 7.147547237784476692e+01 2.510000000000000000e+02
5.807665954280972542e+00 7.286370299092763503e+01 2.510000000000000000e+02
5.537821990295242358e+00 7.425193360401051734e+01 2.510000000000000000e+02
7.966417666166814016e+00 6.175785808626460494e+01 2.520000000000000000e+02
7.696573702181083831e+00 6.314608869934748725e+01 2.520000000000000000e+02
7.426729738195353647e+00 6.453431931243036956e+01 2.520000000000000000e+02
7.156885774209623463e+00 6.592254992551323767e+01 2.520000000000000000e+02
6.887041810223893279e+00 6.731078053859611998e+01 2.520000000000000000e+02
6.617197846238163095e+00 6.869901115167900230e+01 2.520000000000000000e+02
6.347353882252432911e+00 7.008724176476188461e+01 2.520000000000000000e+02
6.077509918266702726e+00 7.147547237784476692e+01 2.520000000000000000e+02
5.807665954280972542e+00 7.286370299092763503e+01 2.520000000000000000e+02
5.537821990295242358e+00 7.425193360401051734e+01 2.520000000000000000e+02
7.966417666166814016e+00 6.175785808626460494e+01 2.530000000000000000e+02
7.696573702181083831e+00 6.314608869934748725e+01 2.530000000000000000e+02
7.426729738195353647e+00 6.453431931243036956e+01 2.530000000000000000e+02
7.156885774209623463e+00 6.592254992551323767e+01 2.530000000000000000e+02
6.887041810223893279e+00 6.731078053859611998e+01 2.530000000000000000e+02
6.617197846238163095e+00 6.869901115167900230e+01 2.530000000000000000e+02
6.347353882252432911e+00 7.008724176476188461e+01 2.530000000000000000e+02
6.077509918266702726e+00 7.147547237784476692e+01 2.530000000000000000e+02
5.807665954280972542e+00 7.286370299092763503e+01 2.530000000000000000e+02
5.537821990295242358e+00 7.425193360401051734e+01 2.530000000000000000e+02
7.966417666166814016e+00 6.175785808626460494e+01 2.540000000000000000e+02
7.696573702181083831e+00 6.314608869934748725e+01 2.540000000000000000e+02
7.426729738195353647e+00 6.453431931243036956e+01 2.540000000000000000e+02
7.156885774209623463e+00 6.592254992551323767e+01 2.540000000000000000e+02
6.887041810223893279e+00 6.731078053859611998e+01 2.540000000000000000e+02
6.617197846238163095e+00 6.869901115167900230e+01 2.540000000000000000e+02
6.347353882252432911e+00 7.008724176476188461e+01 2.540000000000000000e+02
6.077509918266702726e+00 7.147547237784476692e+01 2.540000000000000000e+02
5.807665954280972542e+00 7.286370299092763503e+01 2.540000000000000000e+02
5.537821990295242358e+00 7.425193360401051734e+01 2.540000000000000000e+02
7.966417666166814016e+00 6.175785808626460494e+01 2.550000000000000000e+02
7.696573702181083831e+00 6.314608869934748725e+01 2.550000000000000000e+02
7.426729738195353647e+00 6.453431931243036956e+01 2.550000000000000000e+02
7.156885774209623463e+00 6.592254992551323767e+01 2.550000000000000000e+02
6.887041810223893279e+00 6.731078053859611998e+01 2.550000000000000000e+02
6.617197846238163095e+00 6.869901115167900230e+01 2.550000000000000000e+02
6.347353882252432911e+00 7.008724176476188461e+01 2.550000000000000000e+02
6.077509918266702726e+00 7.147547237784476692e+01 2.550000000000000000e+02
5.807665954280972542e+00 7.286370299092763503e+01 2.550000000000000000e+02
5.537821990295242358e+00 7.425193360401051734e+01 2.550000000000000000e+02
7.966417666166814016e+00 6.175785808626460494e+01 2.560000000000000000e+02
7.696573702181083831e+00 6.314608869934748725e+01 2.560000000000000000e+02
7.426729738195353647e+00 6.453431931243036956e+01 2.560000000000000000e+02
7.156885774209623463e+00 6.592254992551323767e+01 2.560000000000000000e+02
6.887041810223893279e+00 6.731078053859611998e+01 2.560000000000000000e+02
6.617197846238163095e+00 6.869901115167900230e+01 2.560000000000000000e+02
6.347353882252432911e+00 7.008724176476188461e+01 2.560000000000000000e+02
6.077509918266702726e+00 7.147547237784476692e+01 2.560000000000000000e+02
5.807665954280972542e+00 7.286370299092763503e+01 2.560000000000000000e+02
5.537821990295242358e+00 7.425193360401051734e+01 2.560000000000000000e+02
7.966417666166814016e+00 6.175785808626460494e+01 2.570000000000000000e+02
7.696573702181083831e+00 6.314608869934748725e+01 2.570000000000000000e+02
7.426729738195353647e+00 6.453431931243036956e+01 2.570000000000000000e+02
7.156885774209623463e+00 6.592254992551323767e+01 2.570000000000000000e+02
6.887041810223893279e+00 6.731078053859611998e+01 2.570000000000000000e+02
6.617197846238163095e+00 6.869901115167900230e+01 2.570000000000000000e+02
6.347353882252432911e+00 7.008724176476188461e+01 2.570000000000000000e+02
6.077509918266702726e+00 7.147547237784476692e+01 2.570000000000000000e+02
5.807665954280972542e+00 7.286370299092763503e+01 2.570000000000000000e+02
5.537821990295242358e+00 7.425193360401051734e+01 2.570000000000000000e+02
7.966417666166814016e+00 6.175785808626460494e+01 2.580000000000000000e+02
7.696573702181083831e+00 6.314608869934748725e+01 2.580000000000000000e+02
7.426729738195353647e+00 6.453431931243036956e+01 2.580000000000000000e+02
7.156885774209623463e+00 6.592254992551323767e+01 2.580000000000000000e+02
6.887041810223893279e+00 6.731078053859611998e+01 2.580000000000000000e+02
6.617197846238163095e+00 6.869901115167900230e+01 2.580000000000000000e+02
6.347353882252432911e+00 7.008724176476188461e+01 2.580000000000000000e+02
6.077509918266702726e+00 7.147547237784476692e+01 2.580000000000000000e+02
5.807665954280972542e+00 7.286370299092763503e+01 2.580000000000000000e+02
5.537821990295242358e+00 7.425193360401051734e+01 2.580000000000000000e+02
7.966417666166814016e+00 6.175785808626460494e+01 2.590000000000000000e+02
7.696573702181083831e+00 6.314608869934748725e+01 2.590000000000000000e+02
7.426729738195353647e+00 6.453431931243036956e+01 2.590000000000000000e+02
7.156885774209623463e+00 6.592254992551323767e+01 2.590000000000000000e+02
6.887041810223893279e+00 6.731078053859611998e+01 2.590000000000000000e+02
6.617197846238163095e+00 6.869901115167900230e+01 2.590000000000000000e+02
6.347353882252432911e+00 7.008724176476188461e+01 2.590000000000000000e+02
6.077509918266702726e+00 7.147547237784476692e+01 2.590000000000000000e+02
5.807665954280972542e+00 7.286370299092763503e+01 2.590000000000000000e+02
5.537821990295242358e+00 7.425193360401051734e+01 2.590000000000000000e+02
7.966417666166814016e+00 6.175785808626460494e+01 2.600000000000000000e+02
7.696573702181083831e+00 6.314608869934748725e+01 2.600000000000000000e+02
7.426729738195353647e+00 6.453431931243036956e+01 2.600000000000000000e+02
7.156885774209623463e+00 6.592254992551323767e+01 2.600000000000000000e+02
6.887041810223893279e+00 6.731078053859611998e+01 2.600000000000000000e+02
6.617197846238163095e+00 6.869901115167900230e+01 2.600000000000000000e+02
6.347353882252432911e+00 7.008724176476188461e+01 2.600000000000000000e+02
6.077509918266702726e+00 7.147547237784476692e+01 2.600000000000000000e+02
5.807665954280972542e+00 7.286370299092763503e+01 2.600000000000000000e+02
5.537821990295242358e+00 7.425193360401051734e+01 2.600000000000000000e+02
7.966417666166814016e+00 6.175785808626460494e+01 2.610000000000000000e+02
7.696573702181083831e+00 6.314608869934748725e+01 2.610000000000000000e+02
7.426729738195353647e+00 6.453431931243036956e+01 2.610000000000000000e+02
7.156885774209623463e+00 6.592254992551323767e+01 2.610000000000000000e+02
6.887041810223893279e+00 6.731078053859611998e+01 2.610000000000000000e+02
6.617197846238163095e+00 6.869901115167900230e+01 2.610000000000000000e+02
6.347353882252432911e+00 7.008724176476188461e+01 2.610000000000000000e+02
6.077509918266702726e+00 7.147547237784476692e+01 2.610000000000000000e+02
5.807665954280972542e+00 7.286370299092763503e+01 2.610000000000000000e+02
5.537821990295242358e+00 7.425193360401051734e+01 2.610000000000000000e+02
7.966417666166814016e+00 6.175785808626460494e+01 2.620000000000000000e+02
7.696573702181083831e+00 6.314608869934748725e+01 2.620000000000000000e+02
7.426729738195353647e+00 6.453431931243036956e+01 2.620000000000000000e+02
7.156885774209623463e+00 6.592254992551323767e+01 2.620000000000000000e+02
6.887041810223893279e+00 6.731078053859611998e+01 2.620000000000000000e+02
6.617197846238163095e+00 6.869901115167900230e+01 2.620000000000000000e+02
6.347353882252432911e+00 7.008724176476188461e+01 2.620000000000000000e+02
6.077509918266702726e+00 7.147547237784476692e+01 2.620000000000000000e+02
5.807665954280972542e+00 7.286370299092763503e+01 2.620000000000000000e+02
5.537821990295242358e+00 7.425193360401051734e+01 2.620000000000000000e+02
7.407224341618238839e+00 6.092882079773030313e+01 2.630000000000000000e+02
7.137380377632508655e+00 6.231705141081317834e+01 2.630000000000000000e+02
6.867536413646778470e+00 6.370528202389606065e+01 2.630000000000000000e+02
6.597692449661048286e+00 6.509351263697894296e+01 2.630000000000000000e+02
6.327848485675318102e+00 6.648174325006182528e+01 2.630000000000000000e+02
6.058004521689587918e+00 6.786997386314469338e+01 2.630000000000000000e+02
5.788160557703857734e+00 6.925820447622757570e+01 2.630000000000000000e+02
5.518316593718127550e+00 7.064643508931045801e+01 2.630000000000000000e+02
5.248472629732397365e+00 7.203466570239334033e+01 2.630000000000000000e+02
4.978628665746667181e+00 7.342289631547622264e+01 2.630000000000000000e+02
4.708784701760936997e+00 7.481112692855909074e+01 2.630000000000000000e+02
7.966417666166814016e+00 6.175785808626460494e+01 2.640000000000000000e+02
7.696573702181083831e+00 6.314608869934748725e+01 2.640000000000000000e+02
7.426729738195353647e+00 6.453431931243036956e+01 2.640000000000000000e+02
7.156885774209623463e+00 6.592254992551323767e+01 2.640000000000000000e+02
6.887041810223893279e+00 6.731078053859611998e+01 2.640000000000000000e+02
6.617197846238163095e+00 6.869901115167900230e+01 2.640000000000000000e+02
6.347353882252432911e+00 7.008724176476188461e+01 2.640000000000000000e+02
6.077509918266702726e+00 7.147547237784476692e+01 2.640000000000000000e+02
5.807665954280972542e+00 7.286370299092763503e+01 2.640000000000000000e+02
5.537821990295242358e+00 7.425193360401051734e+01 2.640000000000000000e+02
7.966417666166814016e+00 6.175785808626460494e+01 2.650000000000000000e+02
7.696573702181083831e+00 6.314608869934748725e+01 2.650000000000000000e+02
7.426729738195353647e+00 6.453431931243036956e+01 2.650000000000000000e+02
7.156885774209623463e+00 6.592254992551323767e+01 2.650000000000000000e+02
6.887041810223893279e+00 6.731078053859611998e+01 2.650000000000000000e+02
6.617197846238163095e+00 6.869901115167900230e+01 2.650000000000000000e+02
6.347353882252432911e+00 7.008724176476188461e+01 2.650000000000000000e+02
6.077509918266702726e+00 7.147547237784476692e+01 2.650000000000000000e+02
5.807665954280972542e+00 7.286370299092763503e+01 2.650000000000000000e+02
5.537821990295242358e+00 7.425193360401051734e+01 2.650000000000000000e+02
8.525610990715389192e+00 6.258689537479891385e+01 2.660000000000000000e+02
8.255767026729659008e+00 6.397512598788178906e+01 2.660000000000000000e+02
7.985923062743928824e+00 6.536335660096466427e+01 2.660000000000000000e+02
7.716079098758197752e+00 6.675158721404754658e+01 2.660000000000000000e+02
7.446235134772468456e+00 6.813981782713042890e+01 2.660000000000000000e+02
7.176391170786737383e+00 6.952804844021331121e+01 2.660000000000000000e+02
6.906547206801008087e+00 7.091627905329619352e+01 2.660000000000000000e+02
6.636703242815277015e+00 7.230450966637906163e+01 2.660000000000000000e+02
6.366859278829547719e+00 7.369274027946194394e+01 2.660000000000000000e+02
8.525610990715389192e+00 6.258689537479891385e+01 2.670000000000000000e+02
8.255767026729659008e+00 6.397512598788178906e+01 2.670000000000000000e+02
7.985923062743928824e+00 6.536335660096466427e+01 2.670000000000000000e+02
7.716079098758197752e+00 6.675158721404754658e+01 2.670000000000000000e+02
7.446235134772468456e+00 6.813981782713042890e+01 2.670000000000000000e+02
7.176391170786737383e+00 6.952804844021331121e+01 2.670000000000000000e+02
6.906547206801008087e+00 7.091627905329619352e+01 2.670000000000000000e+02
6.636703242815277015e+00 7.230450966637906163e+01 2.670000000000000000e+02
6.366859278829547719e+00 7.369274027946194394e+01 2.670000000000000000e+02
6.097015314843817535e+00 7.508097089254482626e+01 2.670000000000000000e+02
7.966417666166814016e+00 6.175785808626460494e+01 2.680000000000000000e+02
7.696573702181083831e+00 6.314608869934748725e+01 2.680000000000000000e+02
7.426729738195353647e+00 6.453431931243036956e+01 2.680000000000000000e+02
7.156885774209623463e+00 6.592254992551323767e+01 2.680000000000000000e+02
6.887041810223893279e+00 6.731078053859611998e+01 2.680000000000000000e+02
6.617197846238163095e+00 6.869901115167900230e+01 2.680000000000000000e+02
6.347353882252432911e+00 7.008724176476188461e+01 2.680000000000000000e+02
6.077509918266702726e+00 7.147547237784476692e+01 2.680000000000000000e+02
5.807665954280972542e+00 7.286370299092763503e+01 2.680000000000000000e+02
5.537821990295242358e+00 7.425193360401051734e+01 2.680000000000000000e+02
5.267978026309512174e+00 7.564016421709339966e+01 2.680000000000000000e+02
7.966417666166814016e+00 6.175785808626460494e+01 2.690000000000000000e+02
7.696573702181083831e+00 6.314608869934748725e+01 2.690000000000000000e+02
7.426729738195353647e+00 6.453431931243036956e+01 2.690000000000000000e+02
7.156885774209623463e+00 6.592254992551323767e+01 2.690000000000000000e+02
6.887041810223893279e+00 6.731078053859611998e+01 2.690000000000000000e+02
6.617197846238163095e+00 6.869901115167900230e+01 2.690000000000000000e+02
6.347353882252432911e+00 7.008724176476188461e+01 2.690000000000000000e+02
6.077509918266702726e+00 7.147547237784476692e+01 2.690000000000000000e+02
5.807665954280972542e+00 7.286370299092763503e+01 2.690000000000000000e+02
5.537821990295242358e+00 7.425193360401051734e+01 2.690000000000000000e+02
8.525610990715389192e+00 6.258689537479891385e+01 2.700000000000000000e+02
8.255767026729659008e+00 6.397512598788178906e+01 2.700000000000000000e+02
7.985923062743928824e+00 6.536335660096466427e+01 2.700000000000000000e+02
7.716079098758197752e+00 6.675158721404754658e+01 2.700000000000000000e+02
7.446235134772468456e+00 6.813981782713042890e+01 2.700000000000000000e+02
7.176391170786737383e+00 6.952804844021331121e+01 2.700000000000000000e+02
6.906547206801008087e+00 7.091627905329619352e+01 2.700000000000000000e+02
6.636703242815277015e+00 7.230450966637906163e+01 2.700000000000000000e+02
6.366859278829547719e+00 7.369274027946194394e+01 2.700000000000000000e+02
7.966417666166814016e+00 6.175785808626460494e+01 2.710000000000000000e+02
7.696573702181083831e+00 6.314608869934748725e+01 2.710000000000000000e+02
7.426729738195353647e+00 6.453431931243036956e+01 2.710000000000000000e+02
7.156885774209623463e+00 6.592254992551323767e+01 2.710000000000000000e+02
6.887041810223893279e+00 6.731078053859611998e+01 2.710000000000000000e+02
6.617197846238163095e+00 6.869901115167900230e+01 2.710000000000000000e+02
6.347353882252432911e+00 7.008724176476188461e+01 2.710000000000000000e+02
6.077509918266702726e+00 7.147547237784476692e+01 2.710000000000000000e+02
5.807665954280972542e+00 7.286370299092763503e+01 2.710000000000000000e+02
5.537821990295242358e+00 7.425193360401051734e+01 2.710000000000000000e+02
7.966417666166814016e+00 6.175785808626460494e+01 2.720000000000000000e+02
7.696573702181083831e+00 6.314608869934748725e+01 2.720000000000000000e+02
7.426729738195353647e+00 6.453431931243036956e+01 2.720000000000000000e+02
7.156885774209623463e+00 6.592254992551323767e+01 2.720000000000000000e+02
6.887041810223893279e+00 6.731078053859611998e+01 2.720000000000000000e+02
6.617197846238163095e+00 6.869901115167900230e+01 2.720000000000000000e+02
6.347353882252432911e+00 7.008724176476188461e+01 2.720000000000000000e+02
6.077509918266702726e+00 7.147547237784476692e+01 2.720000000000000000e+02
5.807665954280972542e+00 7.286370299092763503e+01 2.720000000000000000e+02
5.537821990295242358e+00 7.425193360401051734e+01 2.720000000000000000e+02
7.966417666166814016e+00 6.175785808626460494e+01 2.730000000000000000e+02
7.696573702181083831e+00 6.314608869934748725e+01 2.730000000000000000e+02
7.426729738195353647e+00 6.453431931243036956e+01 2.730000000000000000e+02
7.156885774209623463e+00 6.592254992551323767e+01 2.730000000000000000e+02
6.887041810223893279e+00 6.731078053859611998e+01 2.730000000000000000e+02
6.617197846238163095e+00 6.869901115167900230e+01 2.730000000000000000e+02
6.347353882252432911e+00 7.008724176476188461e+01 2.730000000000000000e+02
6.077509918266702726e+00 7.147547237784476692e+01 2.730000000000000000e+02
5.807665954280972542e+00 7.286370299092763503e+01 2.730000000000000000e+02
5.537821990295242358e+00 7.425193360401051734e+01 2.730000000000000000e+02
7.966417666166814016e+00 6.175785808626460494e+01 2.740000000000000000e+02
7.696573702181083831e+00 6.314608869934748725e+01 2.740000000000000000e+02
7.426729738195353647e+00 6.453431931243036956e+01 2.740000000000000000e+02
7.156885774209623463e+00 6.592254992551323767e+01 2.740000000000000000e+02
6.887041810223893279e+00 6.731078053859611998e+01 2.740000000000000000e+02
6.617197846238163095e+00 6.869901115167900230e+01 2.740000000000000000e+02
6.347353882252432911e+00 7.008724176476188461e+01 2.740000000000000000e+02
6.077509918266702726e+00 7.147547237784476692e+01 2.740000000000000000e+02
5.807665954280972542e+00 7.286370299092763503e+01 2.740000000000000000e+02
5.537821990295242358e+00 7.425193360401051734e+01 2.740000000000000000e+02
7.966417666166814016e+00 6.175785808626460494e+01 2.750000000000000000e+02
7.696573702181083831e+00 6.314608869934748725e+01 2.750000000000000000e+02
7.426729738195353647e+00 6.453431931243036956e+01 2.750000000000000000e+02
7.156885774209623463e+00 6.592254992551323767e+01 2.750000000000000000e+02
6.887041810223893279e+00 6.731078053859611998e+01 2.750000000000000000e+02
6.617197846238163095e+00 6.869901115167900230e+01 2.750000000000000000e+02
6.347353882252432911e+00 7.008724176476188461e+01 2.750000000000000000e+02
6.077509918266702726e+00 7.147547237784476692e+01 2.750000000000000000e+02
5.807665954280972542e+00 7.286370299092763503e+01 2.750000000000000000e+02
5.537821990295242358e+00 7.425193360401051734e+01 2.750000000000000000e+02
7.966417666166814016e+00 6.175785808626460494e+01 2.760000000000000000e+02
7.696573702181083831e+00 6.314608869934748725e+01 2.760000000000000000e+02
7.426729738195353647e+00 6.453431931243036956e+01 2.760000000000000000e+02
7.156885774209623463e+00 6.592254992551323767e+01 2.760000000000000000e+02
6.887041810223893279e+00 6.731078053859611998e+01 2.760000000000000000e+02
6.617197846238163095e+00 6.869901115167900230e+01 2.760000000000000000e+02
6.347353882252432911e+00 7.008724176476188461e+01 2.760000000000000000e+02
6.077509918266702726e+00 7.147547237784476692e+01 2.760000000000000000e+02
5.807665954280972542e+00 7.286370299092763503e+01 2.760000000000000000e+02
5.537821990295242358e+00 7.425193360401051734e+01 2.760000000000000000e+02
7.966417666166814016e+00 6.175785808626460494e+01 2.770000000000000000e+02
7.696573702181083831e+00 6.314608869934748725e+01 2.770000000000000000e+02
7.426729738195353647e+00 6.453431931243036956e+01 2.770000000000000000e+02
7.156885774209623463e+00 6.592254992551323767e+01 2.770000000000000000e+02
6.887041810223893279e+00 6.731078053859611998e+01 2.770000000000000000e+02
6.617197846238163095e+00 6.869901115167900230e+01 2.770000000000000000e+02
6.347353882252432911e+00 7.008724176476188461e+01 2.770000000000000000e+02
6.077509918266702726e+00 7.147547237784476692e+01 2.770000000000000000e+02
5.807665954280972542e+00 7.286370299092763503e+01 2.770000000000000000e+02
5.537821990295242358e+00 7.425193360401051734e+01 2.770000000000000000e+02
7.966417666166814016e+00 6.175785808626460494e+01 2.780000000000000000e+02
7.696573702181083831e+00 6.314608869934748725e+01 2.780000000000000000e+02
7.426729738195353647e+00 6.453431931243036956e+01 2.780000000000000000e+02
7.156885774209623463e+00 6.592254992551323767e+01 2.780000000000000000e+02
6.887041810223893279e+00 6.731078053859611998e+01 2.780000000000000000e+02
6.617197846238163095e+00 6.869901115167900230e+01 2.780000000000000000e+02
6.347353882252432911e+00 7.008724176476188461e+01 2.780000000000000000e+02
6.077509918266702726e+00 7.147547237784476692e+01 2.780000000000000000e+02
5.807665954280972542e+00 7.286370299092763503e+01 2.780000000000000000e+02
5.537821990295242358e+00 7.425193360401051734e+01 2.780000000000000000e+02
7.407224341618238839e+00 6.092882079773030313e+01 2.790000000000000000e+02
7.137380377632508655e+00 6.231705141081317834e+01 2.790000000000000000e+02
6.867536413646778470e+00 6.370528202389606065e+01 2.790000000000000000e+02
6.597692449661048286e+00 6.509351263697894296e+01 2.790000000000000000e+02
6.327848485675318102e+00 6.648174325006182528e+01 2.790000000000000000e+02
6.058004521689587918e+00 6.786997386314469338e+01 2.790000000000000000e+02
5.788160557703857734e+00 6.925820447622757570e+01 2.790000000000000000e+02
5.518316593718127550e+00 7.064643508931045801e+01 2.790000000000000000e+02
5.248472629732397365e+00 7.203466570239334033e+01 2.790000000000000000e+02
4.978628665746667181e+00 7.342289631547622264e+01 2.790000000000000000e+02
4.708784701760936997e+00 7.481112692855909074e+01 2.790000000000000000e+02
7.407224341618238839e+00 6.092882079773030313e+01 2.800000000000000000e+02
7.137380377632508655e+00 6.231705141081317834e+01 2.800000000000000000e+02
6.867536413646778470e+00 6.370528202389606065e+01 2.800000000000000000e+02
6.597692449661048286e+00 6.509351263697894296e+01 2.800000000000000000e+02
6.327848485675318102e+00 6.648174325006182528e+01 2.800000000000000000e+02
6.058004521689587918e+00 6.786997386314469338e+01 2.800000000000000000e+02
5.788160557703857734e+00 6.925820447622757570e+01 2.800000000000000000e+02
5.518316593718127550e+00 7.064643508931045801e+01 2.800000000000000000e+02
5.248472629732397365e+00 7.203466570239334033e+01 2.800000000000000000e+02
4.978628665746667181e+00 7.342289631547622264e+01 2.800000000000000000e+02
4.708784701760936997e+00 7.481112692855909074e+01 2.800000000000000000e+02
7.966417666166814016e+00 6.175785808626460494e+01 2.810000000000000000e+02
7.696573702181083831e+00 6.314608869934748725e+01 2.810000000000000000e+02
7.426729738195353647e+00 6.453431931243036956e+01 2.810000000000000000e+02
7.156885774209623463e+00 6.592254992551323767e+01 2.810000000000000000e+02
6.887041810223893279e+00 6.731078053859611998e+01 2.810000000000000000e+02
6.617197846238163095e+00 6.869901115167900230e+01 2.810000000000000000e+02
6.347353882252432911e+00 7.008724176476188461e+01 2.810000000000000000e+02
6.077509918266702726e+00 7.147547237784476692e+01 2.810000000000000000e+02
5.807665954280972542e+00 7.286370299092763503e+01 2.810000000000000000e+02
5.537821990295242358e+00 7.425193360401051734e+01 2.810000000000000000e+02
5.267978026309512174e+00 7.564016421709339966e+01 2.810000000000000000e+02
7.966417666166814016e+00 6.175785808626460494e+01 2.820000000000000000e+02
7.696573702181083831e+00 6.314608869934748725e+01 2.820000000000000000e+02
7.426729738195353647e+00 6.453431931243036956e+01 2.820000000000000000e+02
7.156885774209623463e+00 6.592254992551323767e+01 2.820000000000000000e+02
6.887041810223893279e+00 6.731078053859611998e+01 2.820000000000000000e+02
6.617197846238163095e+00 6.869901115167900230e+01 2.820000000000000000e+02
6.347353882252432911e+00 7.008724176476188461e+01 2.820000000000000000e+02
6.077509918266702726e+00 7.147547237784476692e+01 2.820000000000000000e+02
5.807665954280972542e+00 7.286370299092763503e+01 2.820000000000000000e+02
5.537821990295242358e+00 7.425193360401051734e+01 2.820000000000000000e+02
5.267978026309512174e+00 7.564016421709339966e+01 2.820000000000000000e+02
7.966417666166814016e+00 6.175785808626460494e+01 2.830000000000000000e+02
7.696573702181083831e+00 6.314608869934748725e+01 2.830000000000000000e+02
7.426729738195353647e+00 6.453431931243036956e+01 2.830000000000000000e+02
7.156885774209623463e+00 6.592254992551323767e+01 2.830000000000000000e+02
6.887041810223893279e+00 6.731078053859611998e+01 2.830000000000000000e+02
6.617197846238163095e+00 6.869901115167900230e+01 2.830000000000000000e+02
6.347353882252432911e+00 7.008724176476188461e+01 2.830000000000000000e+02
6.077509918266702726e+00 7.147547237784476692e+01 2.830000000000000000e+02
5.807665954280972542e+00 7.286370299092763503e+01 2.830000000000000000e+02
5.537821990295242358e+00 7.425193360401051734e+01 2.830000000000000000e+02
5.267978026309512174e+00 7.564016421709339966e+01 2.830000000000000000e+02
7.966417666166814016e+00 6.175785808626460494e+01 2.840000000000000000e+02
7.696573702181083831e+00 6.314608869934748725e+01 2.840000000000000000e+02
7.426729738195353647e+00 6.453431931243036956e+01 2.840000000000000000e+02
7.156885774209623463e+00 6.592254992551323767e+01 2.840000000000000000e+02
6.887041810223893279e+00 6.731078053859611998e+01 2.840000000000000000e+02
6.617197846238163095e+00 6.869901115167900230e+01 2.840000000000000000e+02
6.347353882252432911e+00 7.008724176476188461e+01 2.840000000000000000e+02
6.077509918266702726e+00 7.147547237784476692e+01 2.840000000000000000e+02
5.807665954280972542e+00 7.286370299092763503e+01 2.840000000000000000e+02
5.537821990295242358e+00 7.425193360401051734e+01 2.840000000000000000e+02
7.966417666166814016e+00 6.175785808626460494e+01 2.850000000000000000e+02
7.696573702181083831e+00 6.314608869934748725e+01 2.850000000000000000e+02
7.426729738195353647e+00 6.453431931243036956e+01 2.850000000000000000e+02
7.156885774209623463e+00 6.592254992551323767e+01 2.850000000000000000e+02
6.887041810223893279e+00 6.731078053859611998e+01 2.850000000000000000e+02
6.617197846238163095e+00 6.869901115167900230e+01 2.850000000000000000e+02
6.347353882252432911e+00 7.008724176476188461e+01 2.850000000000000000e+02
6.077509918266702726e+00 7.147547237784476692e+01 2.850000000000000000e+02
5.807665954280972542e+00 7.286370299092763503e+01 2.850000000000000000e+02
5.537821990295242358e+00 7.425193360401051734e+01 2.850000000000000000e+02
7.966417666166814016e+00 6.175785808626460494e+01 2.860000000000000000e+02
7.696573702181083831e+00 6.314608869934748725e+01 2.860000000000000000e+02
7.426729738195353647e+00 6.453431931243036956e+01 2.860000000000000000e+02
7.156885774209623463e+00 6.592254992551323767e+01 2.860000000000000000e+02
6.887041810223893279e+00 6.731078053859611998e+01 2.860000000000000000e+02
6.617197846238163095e+00 6.869901115167900230e+01 2.860000000000000000e+02
6.347353882252432911e+00 7.008724176476188461e+01 2.860000000000000000e+02
6.077509918266702726e+00 7.147547237784476692e+01 2.860000000000000000e+02
5.807665954280972542e+00 7.286370299092763503e+01 2.860000000000000000e+02
5.537821990295242358e+00 7.425193360401051734e+01 2.860000000000000000e+02
7.966417666166814016e+00 6.175785808626460494e+01 2.870000000000000000e+02
7.696573702181083831e+00 6.314608869934748725e+01 2.870000000000000000e+02
7.426729738195353647e+00 6.453431931243036956e+01 2.870000000000000000e+02
7.156885774209623463e+00 6.592254992551323767e+01 2.870000000000000000e+02
6.887041810223893279e+00 6.731078053859611998e+01 2.870000000000000000e+02
6.617197846238163095e+00 6.869901115167900230e+01 2.870000000000000000e+02
6.347353882252432911e+00 7.008724176476188461e+01 2.870000000000000000e+02
