-2.037878407917028234e+00 -4.392642779596114266e+00 3.410000000000000000e+02
6.394719525700082174e-01 5.137928821687827607e+00 3.420000000000000000e+02
2.569933296432890257e-01 3.776418592932978768e+00 3.420000000000000000e+02
-1.254852932834306101e-01 2.414908364178129929e+00 3.420000000000000000e+02
-5.079639162101502459e-01 1.053398135423281312e+00 3.420000000000000000e+02
-8.904425391368697706e-01 -3.081120933315674160e-01 3.420000000000000000e+02
-1.272921162063589184e+00 -1.669622322086416588e+00 3.420000000000000000e+02
-1.655399784990308820e+00 -3.031132550841264539e+00 3.420000000000000000e+02
-2.037878407917028234e+00 -4.392642779596114266e+00 3.420000000000000000e+02
6.394719525700082174e-01 5.137928821687827607e+00 3.430000000000000000e+02
2.569933296432890257e-01 3.776418592932978768e+00 3.430000000000000000e+02
-1.254852932834306101e-01 2.414908364178129929e+00 3.430000000000000000e+02
-5.079639162101502459e-01 1.053398135423281312e+00 3.430000000000000000e+02
-8.904425391368697706e-01 -3.081120933315674160e-01 3.430000000000000000e+02
-1.272921162063589184e+00 -1.669622322086416588e+00 3.430000000000000000e+02
-1.655399784990308820e+00 -3.031132550841264539e+00 3.430000000000000000e+02
-2.037878407917028234e+00 -4.392642779596114266e+00 3.430000000000000000e+02
6.394719525700082174e-01 5.137928821687827607e+00 3.440000000000000000e+02
2.569933296432890257e-01 3.776418592932978768e+00 3.440000000000000000e+02
-1.254852932834306101e-01 2.414908364178129929e+00 3.440000000000000000e+02
-5.079639162101502459e-01 1.053398135423281312e+00 3.440000000000000000e+02
-8.904425391368697706e-01 -3.081120933315674160e-01 3.440000000000000000e+02
-1.272921162063589184e+00 -1.669622322086416588e+00 3.440000000000000000e+02
-1.655399784990308820e+00 -3.031132550841264539e+00 3.440000000000000000e+02
-2.037878407917028234e+00 -4.392642779596114266e+00 3.440000000000000000e+02
6.394719525700082174e-01 5.137928821687827607e+00 3.450000000000000000e+02
2.569933296432890257e-01 3.776418592932978768e+00 3.450000000000000000e+02
-1.254852932834306101e-01 2.414908364178129929e+00 3.450000000000000000e+02
-5.079639162101502459e-01 1.053398135423281312e+00 3.450000000000000000e+02
-8.904425391368697706e-01 -3.081120933315674160e-01 3.450000000000000000e+02
-1.272921162063589184e+00 -1.669622322086416588e+00 3.450000000000000000e+02
-1.655399784990308820e+00 -3.031132550841264539e+00 3.450000000000000000e+02
-2.037878407917028234e+00 -4.392642779596114266e+00 3.450000000000000000e+02
6.394719525700082174e-01 5.137928821687827607e+00 3.460000000000000000e+02
2.569933296432890257e-01 3.776418592932978768e+00 3.460000000000000000e+02
-1.254852932834306101e-01 2.414908364178129929e+00 3.460000000000000000e+02
-5.079639162101502459e-01 1.053398135423281312e+00 3.460000000000000000e+02
-8.904425391368697706e-01 -3.081120933315674160e-01 3.460000000000000000e+02
-1.272921162063589184e+00 -1.669622322086416588e+00 3.460000000000000000e+02
-1.655399784990308820e+00 -3.031132550841264539e+00 3.460000000000000000e+02
-2.037878407917028234e+00 -4.392642779596114266e+00 3.460000000000000000e+02
6.394719525700082174e-01 5.137928821687827607e+00 3.470000000000000000e+02
2.569933296432890257e-01 3.776418592932978768e+00 3.470000000000000000e+02
-1.254852932834306101e-01 2.414908364178129929e+00 3.470000000000000000e+02
-5.079639162101502459e-01 1.053398135423281312e+00 3.470000000000000000e+02
-8.904425391368697706e-01 -3.081120933315674160e-01 3.470000000000000000e+02
-1.272921162063589184e+00 -1.669622322086416588e+00 3.470000000000000000e+02
-1.655399784990308820e+00 -3.031132550841264539e+00 3.470000000000000000e+02
-2.037878407917028234e+00 -4.392642779596114266e+00 3.470000000000000000e+02
6.394719525700082174e-01 5.137928821687827607e+00 3.480000000000000000e+02
2.569933296432890257e-01 3.776418592932978768e+00 3.480000000000000000e+02
-1.254852932834306101e-01 2.414908364178129929e+00 3.480000000000000000e+02
-5.079639162101502459e-01 1.053398135423281312e+00 3.480000000000000000e+02
-8.904425391368697706e-01 -3.081120933315674160e-01 3.480000000000000000e+02
-1.272921162063589184e+00 -1.669622322086416588e+00 3.480000000000000000e+02
-1.655399784990308820e+00 -3.031132550841264539e+00 3.480000000000000000e+02
-2.037878407917028234e+00 -4.392642779596114266e+00 3.480000000000000000e+02
6.394719525700082174e-01 5.137928821687827607e+00 3.490000000000000000e+02
2.569933296432890257e-01 3.776418592932978768e+00 3.490000000000000000e+02
-1.254852932834306101e-01 2.414908364178129929e+00 3.490000000000000000e+02
-5.079639162101502459e-01 1.053398135423281312e+00 3.490000000000000000e+02
-8.904425391368697706e-01 -3.081120933315674160e-01 3.490000000000000000e+02
-1.272921162063589184e+00 -1.669622322086416588e+00 3.490000000000000000e+02
-1.655399784990308820e+00 -3.031132550841264539e+00 3.490000000000000000e+02
-2.037878407917028234e+00 -4.392642779596114266e+00 3.490000000000000000e+02
6.394719525700082174e-01 5.137928821687827607e+00 3.500000000000000000e+02
2.569933296432890257e-01 3.776418592932978768e+00 3.500000000000000000e+02
-1.254852932834306101e-01 2.414908364178129929e+00 3.500000000000000000e+02
-5.079639162101502459e-01 1.053398135423281312e+00 3.500000000000000000e+02
-8.904425391368697706e-01 -3.081120933315674160e-01 3.500000000000000000e+02
-1.272921162063589184e+00 -1.669622322086416588e+00 3.500000000000000000e+02
-1.655399784990308820e+00 -3.031132550841264539e+00 3.500000000000000000e+02
-2.037878407917028234e+00 -4.392642779596114266e+00 3.500000000000000000e+02
6.394719525700082174e-01 5.137928821687827607e+00 3.510000000000000000e+02
2.569933296432890257e-01 3.776418592932978768e+00 3.510000000000000000e+02
-1.254852932834306101e-01 2.414908364178129929e+00 3.510000000000000000e+02
-5.079639162101502459e-01 1.053398135423281312e+00 3.510000000000000000e+02
-8.904425391368697706e-01 -3.081120933315674160e-01 3.510000000000000000e+02
-1.272921162063589184e+00 -1.669622322086416588e+00 3.510000000000000000e+02
-1.655399784990308820e+00 -3.031132550841264539e+00 3.510000000000000000e+02
-2.037878407917028234e+00 -4.392642779596114266e+00 3.510000000000000000e+02
6.394719525700082174e-01 5.137928821687827607e+00 3.520000000000000000e+02
2.569933296432890257e-01 3.776418592932978768e+00 3.520000000000000000e+02
-1.254852932834306101e-01 2.414908364178129929e+00 3.520000000000000000e+02
-5.079639162101502459e-01 1.053398135423281312e+00 3.520000000000000000e+02
-8.904425391368697706e-01 -3.081120933315674160e-01 3.520000000000000000e+02
-1.272921162063589184e+00 -1.669622322086416588e+00 3.520000000000000000e+02
-1.655399784990308820e+00 -3.031132550841264539e+00 3.520000000000000000e+02
-2.037878407917028234e+00 -4.392642779596114266e+00 3.520000000000000000e+02
6.394719525700082174e-01 5.137928821687827607e+00 3.530000000000000000e+02
2.569933296432890257e-01 3.776418592932978768e+00 3.530000000000000000e+02
-1.254852932834306101e-01 2.414908364178129929e+00 3.530000000000000000e+02
-5.079639162101502459e-01 1.053398135423281312e+00 3.530000000000000000e+02
-8.904425391368697706e-01 -3.081120933315674160e-01 3.530000000000000000e+02
-1.272921162063589184e+00 -1.669622322086416588e+00 3.530000000000000000e+02
-1.655399784990308820e+00 -3.031132550841264539e+00 3.530000000000000000e+02
-2.037878407917028234e+00 -4.392642779596114266e+00 3.530000000000000000e+02
6.394719525700082174e-01 5.137928821687827607e+00 3.540000000000000000e+02
2.569933296432890257e-01 3.776418592932978768e+00 3.540000000000000000e+02
-1.254852932834306101e-01 2.414908364178129929e+00 3.540000000000000000e+02
-5.079639162101502459e-01 1.053398135423281312e+00 3.540000000000000000e+02
-8.904425391368697706e-01 -3.081120933315674160e-01 3.540000000000000000e+02
-1.272921162063589184e+00 -1.669622322086416588e+00 3.540000000000000000e+02
-1.655399784990308820e+00 -3.031132550841264539e+00 3.540000000000000000e+02
-2.037878407917028234e+00 -4.392642779596114266e+00 3.540000000000000000e+02
6.394719525700082174e-01 5.137928821687827607e+00 3.550000000000000000e+02
2.569933296432890257e-01 3.776418592932978768e+00 3.550000000000000000e+02
-1.254852932834306101e-01 2.414908364178129929e+00 3.550000000000000000e+02
-5.079639162101502459e-01 1.053398135423281312e+00 3.550000000000000000e+02
-8.904425391368697706e-01 -3.081120933315674160e-01 3.550000000000000000e+02
-1.272921162063589184e+00 -1.669622322086416588e+00 3.550000000000000000e+02
-1.655399784990308820e+00 -3.031132550841264539e+00 3.550000000000000000e+02
-2.037878407917028234e+00 -4.392642779596114266e+00 3.550000000000000000e+02
6.394719525700082174e-01 5.137928821687827607e+00 3.560000000000000000e+02
2.569933296432890257e-01 3.776418592932978768e+00 3.560000000000000000e+02
-1.254852932834306101e-01 2.414908364178129929e+00 3.560000000000000000e+02
-5.079639162101502459e-01 1.053398135423281312e+00 3.560000000000000000e+02
-8.904425391368697706e-01 -3.081120933315674160e-01 3.560000000000000000e+02
-1.272921162063589184e+00 -1.669622322086416588e+00 3.560000000000000000e+02
-1.655399784990308820e+00 -3.031132550841264539e+00 3.560000000000000000e+02
-2.037878407917028234e+00 -4.392642779596114266e+00 3.560000000000000000e+02
6.394719525700082174e-01 5.137928821687827607e+00 3.570000000000000000e+02
2.569933296432890257e-01 3.776418592932978768e+00 3.570000000000000000e+02
-1.254852932834306101e-01 2.414908364178129929e+00 3.570000000000000000e+02
-5.079639162101502459e-01 1.053398135423281312e+00 3.570000000000000000e+02
-8.904425391368697706e-01 -3.081120933315674160e-01 3.570000000000000000e+02
-1.272921162063589184e+00 -1.669622322086416588e+00 3.570000000000000000e+02
-1.655399784990308820e+00 -3.031132550841264539e+00 3.570000000000000000e+02
-2.037878407917028234e+00 -4.392642779596114266e+00 3.570000000000000000e+02
6.394719525700082174e-01 5.137928821687827607e+00 3.580000000000000000e+02
2.569933296432890257e-01 3.776418592932978768e+00 3.580000000000000000e+02
-1.254852932834306101e-01 2.414908364178129929e+00 3.580000000000000000e+02
-5.079639162101502459e-01 1.053398135423281312e+00 3.580000000000000000e+02
-8.904425391368697706e-01 -3.081120933315674160e-01 3.580000000000000000e+02
-1.272921162063589184e+00 -1.669622322086416588e+00 3.580000000000000000e+02
-1.655399784990308820e+00 -3.031132550841264539e+00 3.580000000000000000e+02
-2.037878407917028234e+00 -4.392642779596114266e+00 3.580000000000000000e+02
6.394719525700082174e-01 5.137928821687827607e+00 3.590000000000000000e+02
2.569933296432890257e-01 3.776418592932978768e+00 3.590000000000000000e+02
-1.254852932834306101e-01 2.414908364178129929e+00 3.590000000000000000e+02
-5.079639162101502459e-01 1.053398135423281312e+00 3.590000000000000000e+02
-8.904425391368697706e-01 -3.081120933315674160e-01 3.590000000000000000e+02
-1.272921162063589184e+00 -1.669622322086416588e+00 3.590000000000000000e+02
-1.655399784990308820e+00 -3.031132550841264539e+00 3.590000000000000000e+02
-2.037878407917028234e+00 -4.392642779596114266e+00 3.590000000000000000e+02
6.394719525700082174e-01 5.137928821687827607e+00 3.600000000000000000e+02
2.569933296432890257e-01 3.776418592932978768e+00 3.600000000000000000e+02
-1.254852932834306101e-01 2.414908364178129929e+00 3.600000000000000000e+02
-5.079639162101502459e-01 1.053398135423281312e+00 3.600000000000000000e+02
-8.904425391368697706e-01 -3.081120933315674160e-01 3.600000000000000000e+02
-1.272921162063589184e+00 -1.669622322086416588e+00 3.600000000000000000e+02
-1.655399784990308820e+00 -3.031132550841264539e+00 3.600000000000000000e+02
-2.037878407917028234e+00 -4.392642779596114266e+00 3.600000000000000000e+02
6.394719525700082174e-01 5.137928821687827607e+00 3.610000000000000000e+02
2.569933296432890257e-01 3.776418592932978768e+00 3.610000000000000000e+02
-1.254852932834306101e-01 2.414908364178129929e+00 3.610000000000000000e+02
-5.079639162101502459e-01 1.053398135423281312e+00 3.610000000000000000e+02
-8.904425391368697706e-01 -3.081120933315674160e-01 3.610000000000000000e+02
-1.272921162063589184e+00 -1.669622322086416588e+00 3.610000000000000000e+02
-1.655399784990308820e+00 -3.031132550841264539e+00 3.610000000000000000e+02
-2.037878407917028234e+00 -4.392642779596114266e+00 3.610000000000000000e+02
6.394719525700082174e-01 5.137928821687827607e+00 3.620000000000000000e+02
2.569933296432890257e-01 3.776418592932978768e+00 3.620000000000000000e+02
-1.254852932834306101e-01 2.414908364178129929e+00 3.620000000000000000e+02
-5.079639162101502459e-01 1.053398135423281312e+00 3.620000000000000000e+02
-8.904425391368697706e-01 -3.081120933315674160e-01 3.620000000000000000e+02
-1.272921162063589184e+00 -1.669622322086416588e+00 3.620000000000000000e+02
-1.655399784990308820e+00 -3.031132550841264539e+00 3.620000000000000000e+02
-2.037878407917028234e+00 -4.392642779596114266e+00 3.620000000000000000e+02
6.394719525700082174e-01 5.137928821687827607e+00 3.630000000000000000e+02
2.569933296432890257e-01 3.776418592932978768e+00 3.630000000000000000e+02
-1.254852932834306101e-01 2.414908364178129929e+00 3.630000000000000000e+02
-5.079639162101502459e-01 1.053398135423281312e+00 3.630000000000000000e+02
-8.904425391368697706e-01 -3.081120933315674160e-01 3.630000000000000000e+02
-1.272921162063589184e+00 -1.669622322086416588e+00 3.630000000000000000e+02
-1.655399784990308820e+00 -3.031132550841264539e+00 3.630000000000000000e+02
-2.037878407917028234e+00 -4.392642779596114266e+00 3.630000000000000000e+02
6.394719525700082174e-01 5.137928821687827607e+00 3.640000000000000000e+02
2.569933296432890257e-01 3.776418592932978768e+00 3.640000000000000000e+02
-1.254852932834306101e-01 2.414908364178129929e+00 3.640000000000000000e+02
-5.079639162101502459e-01 1.053398135423281312e+00 3.640000000000000000e+02
-8.904425391368697706e-01 -3.081120933315674160e-01 3.640000000000000000e+02
-1.272921162063589184e+00 -1.669622322086416588e+00 3.640000000000000000e+02
-1.655399784990308820e+00 -3.031132550841264539e+00 3.640000000000000000e+02
-2.037878407917028234e+00 -4.392642779596114266e+00 3.640000000000000000e+02
-2.325224732707756869e-01 4.648413018773762673e+00 3.650000000000000000e+02
-6.150010961974951007e-01 3.286902790018913834e+00 3.650000000000000000e+02
-9.974797191242148475e-01 1.925392561264065217e+00 3.650000000000000000e+02
-1.379958342050934483e+00 5.638823325092167105e-01 3.650000000000000000e+02
-1.762436964977653897e+00 -7.976278962456320176e-01 3.650000000000000000e+02
-2.144915587904373755e+00 -2.159138125000480635e+00 3.650000000000000000e+02
-2.527394210831092725e+00 -3.520648353755329474e+00 3.650000000000000000e+02
-2.325224732707756869e-01 4.648413018773762673e+00 3.660000000000000000e+02
-6.150010961974951007e-01 3.286902790018913834e+00 3.660000000000000000e+02
-9.974797191242148475e-01 1.925392561264065217e+00 3.660000000000000000e+02
-1.379958342050934483e+00 5.638823325092167105e-01 3.660000000000000000e+02
-1.762436964977653897e+00 -7.976278962456320176e-01 3.660000000000000000e+02
-2.144915587904373755e+00 -2.159138125000480635e+00 3.660000000000000000e+02
-2.527394210831092725e+00 -3.520648353755329474e+00 3.660000000000000000e+02
6.394719525700082174e-01 5.137928821687827607e+00 3.670000000000000000e+02
2.569933296432890257e-01 3.776418592932978768e+00 3.670000000000000000e+02
-1.254852932834306101e-01 2.414908364178129929e+00 3.670000000000000000e+02
-5.079639162101502459e-01 1.053398135423281312e+00 3.670000000000000000e+02
-8.904425391368697706e-01 -3.081120933315674160e-01 3.670000000000000000e+02
-1.272921162063589184e+00 -1.669622322086416588e+00 3.670000000000000000e+02
-1.655399784990308820e+00 -3.031132550841264539e+00 3.670000000000000000e+02
-2.037878407917028234e+00 -4.392642779596114266e+00 3.670000000000000000e+02
6.394719525700082174e-01 5.137928821687827607e+00 3.680000000000000000e+02
2.569933296432890257e-01 3.776418592932978768e+00 3.680000000000000000e+02
-1.254852932834306101e-01 2.414908364178129929e+00 3.680000000000000000e+02
-5.079639162101502459e-01 1.053398135423281312e+00 3.680000000000000000e+02
-8.904425391368697706e-01 -3.081120933315674160e-01 3.680000000000000000e+02
-1.272921162063589184e+00 -1.669622322086416588e+00 3.680000000000000000e+02
-1.655399784990308820e+00 -3.031132550841264539e+00 3.680000000000000000e+02
-2.037878407917028234e+00 -4.392642779596114266e+00 3.680000000000000000e+02
6.394719525700082174e-01 5.137928821687827607e+00 3.690000000000000000e+02
2.569933296432890257e-01 3.776418592932978768e+00 3.690000000000000000e+02
-1.254852932834306101e-01 2.414908364178129929e+00 3.690000000000000000e+02
-5.079639162101502459e-01 1.053398135423281312e+00 3.690000000000000000e+02
-8.904425391368697706e-01 -3.081120933315674160e-01 3.690000000000000000e+02
-1.272921162063589184e+00 -1.669622322086416588e+00 3.690000000000000000e+02
-1.655399784990308820e+00 -3.031132550841264539e+00 3.690000000000000000e+02
-2.037878407917028234e+00 -4.392642779596114266e+00 3.690000000000000000e+02
6.394719525700082174e-01 5.137928821687827607e+00 3.700000000000000000e+02
2.569933296432890257e-01 3.776418592932978768e+00 3.700000000000000000e+02
-1.254852932834306101e-01 2.414908364178129929e+00 3.700000000000000000e+02
-5.079639162101502459e-01 1.053398135423281312e+00 3.700000000000000000e+02
-8.904425391368697706e-01 -3.081120933315674160e-01 3.700000000000000000e+02
-1.272921162063589184e+00 -1.669622322086416588e+00 3.700000000000000000e+02
-1.655399784990308820e+00 -3.031132550841264539e+00 3.700000000000000000e+02
-2.037878407917028234e+00 -4.392642779596114266e+00 3.700000000000000000e+02
6.394719525700082174e-01 5.137928821687827607e+00 3.710000000000000000e+02
2.569933296432890257e-01 3.776418592932978768e+00 3.710000000000000000e+02
-1.254852932834306101e-01 2.414908364178129929e+00 3.710000000000000000e+02
-5.079639162101502459e-01 1.053398135423281312e+00 3.710000000000000000e+02
-8.904425391368697706e-01 -3.081120933315674160e-01 3.710000000000000000e+02
-1.272921162063589184e+00 -1.669622322086416588e+00 3.710000000000000000e+02
-1.655399784990308820e+00 -3.031132550841264539e+00 3.710000000000000000e+02
-2.037878407917028234e+00 -4.392642779596114266e+00 3.710000000000000000e+02
6.394719525700082174e-01 5.137928821687827607e+00 3.720000000000000000e+02
2.569933296432890257e-01 3.776418592932978768e+00 3.720000000000000000e+02
-1.254852932834306101e-01 2.414908364178129929e+00 3.720000000000000000e+02
-5.079639162101502459e-01 1.053398135423281312e+00 3.720000000000000000e+02
-8.904425391368697706e-01 -3.081120933315674160e-01 3.720000000000000000e+02
-1.272921162063589184e+00 -1.669622322086416588e+00 3.720000000000000000e+02
-1.655399784990308820e+00 -3.031132550841264539e+00 3.720000000000000000e+02
-2.037878407917028234e+00 -4.392642779596114266e+00 3.720000000000000000e+02
6.394719525700082174e-01 5.137928821687827607e+00 3.730000000000000000e+02
2.569933296432890257e-01 3.776418592932978768e+00 3.730000000000000000e+02
-1.254852932834306101e-01 2.414908364178129929e+00 3.730000000000000000e+02
-5.079639162101502459e-01 1.053398135423281312e+00 3.730000000000000000e+02
-8.904425391368697706e-01 -3.081120933315674160e-01 3.730000000000000000e+02
-1.272921162063589184e+00 -1.669622322086416588e+00 3.730000000000000000e+02
-1.655399784990308820e+00 -3.031132550841264539e+00 3.730000000000000000e+02
-2.037878407917028234e+00 -4.392642779596114266e+00 3.730000000000000000e+02
6.394719525700082174e-01 5.137928821687827607e+00 3.740000000000000000e+02
2.569933296432890257e-01 3.776418592932978768e+00 3.740000000000000000e+02
-1.254852932834306101e-01 2.414908364178129929e+00 3.740000000000000000e+02
-5.079639162101502459e-01 1.053398135423281312e+00 3.740000000000000000e+02
-8.904425391368697706e-01 -3.081120933315674160e-01 3.740000000000000000e+02
-1.272921162063589184e+00 -1.669622322086416588e+00 3.740000000000000000e+02
-1.655399784990308820e+00 -3.031132550841264539e+00 3.740000000000000000e+02
-2.037878407917028234e+00 -4.392642779596114266e+00 3.740000000000000000e+02
6.394719525700082174e-01 5.137928821687827607e+00 3.750000000000000000e+02
2.569933296432890257e-01 3.776418592932978768e+00 3.750000000000000000e+02
-1.254852932834306101e-01 2.414908364178129929e+00 3.750000000000000000e+02
-5.079639162101502459e-01 1.053398135423281312e+00 3.750000000000000000e+02
-8.904425391368697706e-01 -3.081120933315674160e-01 3.750000000000000000e+02
-1.272921162063589184e+00 -1.669622322086416588e+00 3.750000000000000000e+02
-1.655399784990308820e+00 -3.031132550841264539e+00 3.750000000000000000e+02
-2.037878407917028234e+00 -4.392642779596114266e+00 3.750000000000000000e+02
-2.325224732707756869e-01 4.648413018773762673e+00 3.760000000000000000e+02
-6.150010961974951007e-01 3.286902790018913834e+00 3.760000000000000000e+02
-9.974797191242148475e-01 1.925392561264065217e+00 3.760000000000000000e+02
-1.379958342050934483e+00 5.638823325092167105e-01 3.760000000000000000e+02
-1.762436964977653897e+00 -7.976278962456320176e-01 3.760000000000000000e+02
-2.144915587904373755e+00 -2.159138125000480635e+00 3.760000000000000000e+02
-2.527394210831092725e+00 -3.520648353755329474e+00 3.760000000000000000e+02
-2.325224732707756869e-01 4.648413018773762673e+00 3.770000000000000000e+02
-6.150010961974951007e-01 3.286902790018913834e+00 3.770000000000000000e+02
-9.974797191242148475e-01 1.925392561264065217e+00 3.770000000000000000e+02
-1.379958342050934483e+00 5.638823325092167105e-01 3.770000000000000000e+02
-1.762436964977653897e+00 -7.976278962456320176e-01 3.770000000000000000e+02
-2.144915587904373755e+00 -2.159138125000480635e+00 3.770000000000000000e+02
-2.527394210831092725e+00 -3.520648353755329474e+00 3.770000000000000000e+02
-2.325224732707756869e-01 4.648413018773762673e+00 3.780000000000000000e+02
-6.150010961974951007e-01 3.286902790018913834e+00 3.780000000000000000e+02
-9.974797191242148475e-01 1.925392561264065217e+00 3.780000000000000000e+02
-1.379958342050934483e+00 5.638823325092167105e-01 3.780000000000000000e+02
-1.762436964977653897e+00 -7.976278962456320176e-01 3.780000000000000000e+02
-2.144915587904373755e+00 -2.159138125000480635e+00 3.780000000000000000e+02
-2.527394210831092725e+00 -3.520648353755329474e+00 3.780000000000000000e+02
6.394719525700082174e-01 5.137928821687827607e+00 3.790000000000000000e+02
2.569933296432890257e-01 3.776418592932978768e+00 3.790000000000000000e+02
-1.254852932834306101e-01 2.414908364178129929e+00 3.790000000000000000e+02
-5.079639162101502459e-01 1.053398135423281312e+00 3.790000000000000000e+02
-8.904425391368697706e-01 -3.081120933315674160e-01 3.790000000000000000e+02
-1.272921162063589184e+00 -1.669622322086416588e+00 3.790000000000000000e+02
-1.655399784990308820e+00 -3.031132550841264539e+00 3.790000000000000000e+02
-2.037878407917028234e+00 -4.392642779596114266e+00 3.790000000000000000e+02
6.394719525700082174e-01 5.137928821687827607e+00 3.800000000000000000e+02
2.569933296432890257e-01 3.776418592932978768e+00 3.800000000000000000e+02
-1.254852932834306101e-01 2.414908364178129929e+00 3.800000000000000000e+02
-5.079639162101502459e-01 1.053398135423281312e+00 3.800000000000000000e+02
-8.904425391368697706e-01 -3.081120933315674160e-01 3.800000000000000000e+02
-1.272921162063589184e+00 -1.669622322086416588e+00 3.800000000000000000e+02
-1.655399784990308820e+00 -3.031132550841264539e+00 3.800000000000000000e+02
-2.037878407917028234e+00 -4.392642779596114266e+00 3.800000000000000000e+02
-2.325224732707756869e-01 4.648413018773762673e+00 3.810000000000000000e+02
-6.150010961974951007e-01 3.286902790018913834e+00 3.810000000000000000e+02
-9.974797191242148475e-01 1.925392561264065217e+00 3.810000000000000000e+02
-1.379958342050934483e+00 5.638823325092167105e-01 3.810000000000000000e+02
-1.762436964977653897e+00 -7.976278962456320176e-01 3.810000000000000000e+02
-2.144915587904373755e+00 -2.159138125000480635e+00 3.810000000000000000e+02
-2.527394210831092725e+00 -3.520648353755329474e+00 3.810000000000000000e+02
-2.325224732707756869e-01 4.648413018773762673e+00 3.820000000000000000e+02
-6.150010961974951007e-01 3.286902790018913834e+00 3.820000000000000000e+02
-9.974797191242148475e-01 1.925392561264065217e+00 3.820000000000000000e+02
-1.379958342050934483e+00 5.638823325092167105e-01 3.820000000000000000e+02
-1.762436964977653897e+00 -7.976278962456320176e-01 3.820000000000000000e+02
-2.144915587904373755e+00 -2.159138125000480635e+00 3.820000000000000000e+02
-2.527394210831092725e+00 -3.520648353755329474e+00 3.820000000000000000e+02
-2.325224732707756869e-01 4.648413018773762673e+00 3.830000000000000000e+02
-6.150010961974951007e-01 3.286902790018913834e+00 3.830000000000000000e+02
-9.974797191242148475e-01 1.925392561264065217e+00 3.830000000000000000e+02
-1.379958342050934483e+00 5.638823325092167105e-01 3.830000000000000000e+02
-1.762436964977653897e+00 -7.976278962456320176e-01 3.830000000000000000e+02
-2.144915587904373755e+00 -2.159138125000480635e+00 3.830000000000000000e+02
-2.527394210831092725e+00 -3.520648353755329474e+00 3.830000000000000000e+02
-2.325224732707756869e-01 4.648413018773762673e+00 3.840000000000000000e+02
-6.150010961974951007e-01 3.286902790018913834e+00 3.840000000000000000e+02
-9.974797191242148475e-01 1.925392561264065217e+00 3.840000000000000000e+02
-1.379958342050934483e+00 5.638823325092167105e-01 3.840000000000000000e+02
-1.762436964977653897e+00 -7.976278962456320176e-01 3.840000000000000000e+02
-2.144915587904373755e+00 -2.159138125000480635e+00 3.840000000000000000e+02
-2.527394210831092725e+00 -3.520648353755329474e+00 3.840000000000000000e+02
-2.325224732707756869e-01 4.648413018773762673e+00 3.850000000000000000e+02
-6.150010961974951007e-01 3.286902790018913834e+00 3.850000000000000000e+02
-9.974797191242148475e-01 1.925392561264065217e+00 3.850000000000000000e+02
-1.379958342050934483e+00 5.638823325092167105e-01 3.850000000000000000e+02
-1.762436964977653897e+00 -7.976278962456320176e-01 3.850000000000000000e+02
-2.144915587904373755e+00 -2.159138125000480635e+00 3.850000000000000000e+02
-2.527394210831092725e+00 -3.520648353755329474e+00 3.850000000000000000e+02
-2.325224732707756869e-01 4.648413018773762673e+00 3.860000000000000000e+02
-6.150010961974951007e-01 3.286902790018913834e+00 3.860000000000000000e+02
-9.974797191242148475e-01 1.925392561264065217e+00 3.860000000000000000e+02
-1.379958342050934483e+00 5.638823325092167105e-01 3.860000000000000000e+02
-1.762436964977653897e+00 -7.976278962456320176e-01 3.860000000000000000e+02
-2.144915587904373755e+00 -2.159138125000480635e+00 3.860000000000000000e+02
-2.527394210831092725e+00 -3.520648353755329474e+00 3.860000000000000000e+02
6.394719525700082174e-01 5.137928821687827607e+00 3.870000000000000000e+02
2.569933296432890257e-01 3.776418592932978768e+00 3.870000000000000000e+02
-1.254852932834306101e-01 2.414908364178129929e+00 3.870000000000000000e+02
-5.079639162101502459e-01 1.053398135423281312e+00 3.870000000000000000e+02
-8.904425391368697706e-01 -3.081120933315674160e-01 3.870000000000000000e+02
-1.272921162063589184e+00 -1.669622322086416588e+00 3.870000000000000000e+02
-1.655399784990308820e+00 -3.031132550841264539e+00 3.870000000000000000e+02
-2.037878407917028234e+00 -4.392642779596114266e+00 3.870000000000000000e+02
6.394719525700082174e-01 5.137928821687827607e+00 3.880000000000000000e+02
2.569933296432890257e-01 3.776418592932978768e+00 3.880000000000000000e+02
-1.254852932834306101e-01 2.414908364178129929e+00 3.880000000000000000e+02
-5.079639162101502459e-01 1.053398135423281312e+00 3.880000000000000000e+02
-8.904425391368697706e-01 -3.081120933315674160e-01 3.880000000000000000e+02
-1.272921162063589184e+00 -1.669622322086416588e+00 3.880000000000000000e+02
-1.655399784990308820e+00 -3.031132550841264539e+00 3.880000000000000000e+02
-2.037878407917028234e+00 -4.392642779596114266e+00 3.880000000000000000e+02
6.394719525700082174e-01 5.137928821687827607e+00 3.890000000000000000e+02
2.569933296432890257e-01 3.776418592932978768e+00 3.890000000000000000e+02
-1.254852932834306101e-01 2.414908364178129929e+00 3.890000000000000000e+02
-5.079639162101502459e-01 1.053398135423281312e+00 3.890000000000000000e+02
-8.904425391368697706e-01 -3.081120933315674160e-01 3.890000000000000000e+02
-1.272921162063589184e+00 -1.669622322086416588e+00 3.890000000000000000e+02
-1.655399784990308820e+00 -3.031132550841264539e+00 3.890000000000000000e+02
-2.037878407917028234e+00 -4.392642779596114266e+00 3.890000000000000000e+02
6.394719525700082174e-01 5.137928821687827607e+00 3.900000000000000000e+02
2.569933296432890257e-01 3.776418592932978768e+00 3.900000000000000000e+02
-1.254852932834306101e-01 2.414908364178129929e+00 3.900000000000000000e+02
-5.079639162101502459e-01 1.053398135423281312e+00 3.900000000000000000e+02
-8.904425391368697706e-01 -3.081120933315674160e-01 3.900000000000000000e+02
-1.272921162063589184e+00 -1.669622322086416588e+00 3.900000000000000000e+02
-1.655399784990308820e+00 -3.031132550841264539e+00 3.900000000000000000e+02
-2.037878407917028234e+00 -4.392642779596114266e+00 3.900000000000000000e+02
6.394719525700082174e-01 5.137928821687827607e+00 3.910000000000000000e+02
2.569933296432890257e-01 3.776418592932978768e+00 3.910000000000000000e+02
-1.254852932834306101e-01 2.414908364178129929e+00 3.910000000000000000e+02
-5.079639162101502459e-01 1.053398135423281312e+00 3.910000000000000000e+02
-8.904425391368697706e-01 -3.081120933315674160e-01 3.910000000000000000e+02
-1.272921162063589184e+00 -1.669622322086416588e+00 3.910000000000000000e+02
-1.655399784990308820e+00 -3.031132550841264539e+00 3.910000000000000000e+02
-2.037878407917028234e+00 -4.392642779596114266e+00 3.910000000000000000e+02
-2.325224732707756869e-01 4.648413018773762673e+00 3.920000000000000000e+02
-6.150010961974951007e-01 3.286902790018913834e+00 3.920000000000000000e+02
-9.974797191242148475e-01 1.925392561264065217e+00 3.920000000000000000e+02
-1.379958342050934483e+00 5.638823325092167105e-01 3.920000000000000000e+02
-1.762436964977653897e+00 -7.976278962456320176e-01 3.920000000000000000e+02
-2.144915587904373755e+00 -2.159138125000480635e+00 3.920000000000000000e+02
-2.527394210831092725e+00 -3.520648353755329474e+00 3.920000000000000000e+02
-2.325224732707756869e-01 4.648413018773762673e+00 3.930000000000000000e+02
-6.150010961974951007e-01 3.286902790018913834e+00 3.930000000000000000e+02
-9.974797191242148475e-01 1.925392561264065217e+00 3.930000000000000000e+02
-1.379958342050934483e+00 5.638823325092167105e-01 3.930000000000000000e+02
-1.762436964977653897e+00 -7.976278962456320176e-01 3.930000000000000000e+02
-2.144915587904373755e+00 -2.159138125000480635e+00 3.930000000000000000e+02
-2.527394210831092725e+00 -3.520648353755329474e+00 3.930000000000000000e+02
-2.325224732707756869e-01 4.648413018773762673e+00 3.940000000000000000e+02
-6.150010961974951007e-01 3.286902790018913834e+00 3.940000000000000000e+02
-9.974797191242148475e-01 1.925392561264065217e+00 3.940000000000000000e+02
-1.379958342050934483e+00 5.638823325092167105e-01 3.940000000000000000e+02
-1.762436964977653897e+00 -7.976278962456320176e-01 3.940000000000000000e+02
-2.144915587904373755e+00 -2.159138125000480635e+00 3.940000000000000000e+02
-2.527394210831092725e+00 -3.520648353755329474e+00 3.940000000000000000e+02
6.394719525700082174e-01 5.137928821687827607e+00 3.950000000000000000e+02
2.569933296432890257e-01 3.776418592932978768e+00 3.950000000000000000e+02
-1.254852932834306101e-01 2.414908364178129929e+00 3.950000000000000000e+02
-5.079639162101502459e-01 1.053398135423281312e+00 3.950000000000000000e+02
-8.904425391368697706e-01 -3.081120933315674160e-01 3.950000000000000000e+02
-1.272921162063589184e+00 -1.669622322086416588e+00 3.950000000000000000e+02
-1.655399784990308820e+00 -3.031132550841264539e+00 3.950000000000000000e+02
-2.037878407917028234e+00 -4.392642779596114266e+00 3.950000000000000000e+02
6.394719525700082174e-01 5.137928821687827607e+00 3.960000000000000000e+02
2.569933296432890257e-01 3.776418592932978768e+00 3.960000000000000000e+02
-1.254852932834306101e-01 2.414908364178129929e+00 3.960000000000000000e+02
-5.079639162101502459e-01 1.053398135423281312e+00 3.960000000000000000e+02
-8.904425391368697706e-01 -3.081120933315674160e-01 3.960000000000000000e+02
-1.272921162063589184e+00 -1.669622322086416588e+00 3.960000000000000000e+02
-1.655399784990308820e+00 -3.031132550841264539e+00 3.960000000000000000e+02
-2.325224732707756869e-01 4.648413018773762673e+00 3.970000000000000000e+02
-6.150010961974951007e-01 3.286902790018913834e+00 3.970000000000000000e+02
-9.974797191242148475e-01 1.925392561264065217e+00 3.970000000000000000e+02
-1.379958342050934483e+00 5.638823325092167105e-01 3.970000000000000000e+02
-1.762436964977653897e+00 -7.976278962456320176e-01 3.970000000000000000e+02
-2.144915587904373755e+00 -2.159138125000480635e+00 3.970000000000000000e+02
-2.527394210831092725e+00 -3.520648353755329474e+00 3.970000000000000000e+02
-2.325224732707756869e-01 4.648413018773762673e+00 3.980000000000000000e+02
-6.150010961974951007e-01 3.286902790018913834e+00 3.980000000000000000e+02
-9.974797191242148475e-01 1.925392561264065217e+00 3.980000000000000000e+02
-1.379958342050934483e+00 5.638823325092167105e-01 3.980000000000000000e+02
-1.762436964977653897e+00 -7.976278962456320176e-01 3.980000000000000000e+02
-2.144915587904373755e+00 -2.159138125000480635e+00 3.980000000000000000e+02
-2.527394210831092725e+00 -3.520648353755329474e+00 3.980000000000000000e+02
-2.325224732707756869e-01 4.648413018773762673e+00 3.990000000000000000e+02
-6.150010961974951007e-01 3.286902790018913834e+00 3.990000000000000000e+02
-9.974797191242148475e-01 1.925392561264065217e+00 3.990000000000000000e+02
-1.379958342050934483e+00 5.638823325092167105e-01 3.990000000000000000e+02
-1.762436964977653897e+00 -7.976278962456320176e-01 3.990000000000000000e+02
-2.144915587904373755e+00 -2.159138125000480635e+00 3.990000000000000000e+02
-2.527394210831092725e+00 -3.520648353755329474e+00 3.990000000000000000e+02
-2.325224732707756869e-01 4.648413018773762673e+00 4.000000000000000000e+02
-6.150010961974951007e-01 3.286902790018913834e+00 4.000000000000000000e+02
-9.974797191242148475e-01 1.925392561264065217e+00 4.000000000000000000e+02
-1.379958342050934483e+00 5.638823325092167105e-01 4.000000000000000000e+02
-1.762436964977653897e+00 -7.976278962456320176e-01 4.000000000000000000e+02
-2.144915587904373755e+00 -2.159138125000480635e+00 4.000000000000000000e+02
-2.527394210831092725e+00 -3.520648353755329474e+00 4.000000000000000000e+02
-2.325224732707756869e-01 4.648413018773762673e+00 4.010000000000000000e+02
-6.150010961974951007e-01 3.286902790018913834e+00 4.010000000000000000e+02
-9.974797191242148475e-01 1.925392561264065217e+00 4.010000000000000000e+02
-1.379958342050934483e+00 5.638823325092167105e-01 4.010000000000000000e+02
-1.762436964977653897e+00 -7.976278962456320176e-01 4.010000000000000000e+02
-2.144915587904373755e+00 -2.159138125000480635e+00 4.010000000000000000e+02
-2.527394210831092725e+00 -3.520648353755329474e+00 4.010000000000000000e+02
-2.325224732707756869e-01 4.648413018773762673e+00 4.020000000000000000e+02
-6.150010961974951007e-01 3.286902790018913834e+00 4.020000000000000000e+02
-9.974797191242148475e-01 1.925392561264065217e+00 4.020000000000000000e+02
-1.379958342050934483e+00 5.638823325092167105e-01 4.020000000000000000e+02
-1.762436964977653897e+00 -7.976278962456320176e-01 4.020000000000000000e+02
-2.144915587904373755e+00 -2.159138125000480635e+00 4.020000000000000000e+02
-2.527394210831092725e+00 -3.520648353755329474e+00 4.020000000000000000e+02
6.394719525700082174e-01 5.137928821687827607e+00 4.030000000000000000e+02
2.569933296432890257e-01 3.776418592932978768e+00 4.030000000000000000e+02
-1.254852932834306101e-01 2.414908364178129929e+00 4.030000000000000000e+02
-5.079639162101502459e-01 1.053398135423281312e+00 4.030000000000000000e+02
-8.904425391368697706e-01 -3.081120933315674160e-01 4.030000000000000000e+02
-1.272921162063589184e+00 -1.669622322086416588e+00 4.030000000000000000e+02
-1.655399784990308820e+00 -3.031132550841264539e+00 4.030000000000000000e+02
-2.037878407917028234e+00 -4.392642779596114266e+00 4.030000000000000000e+02
6.394719525700082174e-01 5.137928821687827607e+00 4.040000000000000000e+02
2.569933296432890257e-01 3.776418592932978768e+00 4.040000000000000000e+02
-1.254852932834306101e-01 2.414908364178129929e+00 4.040000000000000000e+02
-5.079639162101502459e-01 1.053398135423281312e+00 4.040000000000000000e+02
-8.904425391368697706e-01 -3.081120933315674160e-01 4.040000000000000000e+02
-1.272921162063589184e+00 -1.669622322086416588e+00 4.040000000000000000e+02
-1.655399784990308820e+00 -3.031132550841264539e+00 4.040000000000000000e+02
-2.037878407917028234e+00 -4.392642779596114266e+00 4.040000000000000000e+02
6.394719525700082174e-01 5.137928821687827607e+00 4.050000000000000000e+02
2.569933296432890257e-01 3.776418592932978768e+00 4.050000000000000000e+02
-1.254852932834306101e-01 2.414908364178129929e+00 4.050000000000000000e+02
-5.079639162101502459e-01 1.053398135423281312e+00 4.050000000000000000e+02
-8.904425391368697706e-01 -3.081120933315674160e-01 4.050000000000000000e+02
-1.272921162063589184e+00 -1.669622322086416588e+00 4.050000000000000000e+02
-1.655399784990308820e+00 -3.031132550841264539e+00 4.050000000000000000e+02
-2.037878407917028234e+00 -4.392642779596114266e+00 4.050000000000000000e+02
6.394719525700082174e-01 5.137928821687827607e+00 4.060000000000000000e+02
2.569933296432890257e-01 3.776418592932978768e+00 4.060000000000000000e+02
-1.254852932834306101e-01 2.414908364178129929e+00 4.060000000000000000e+02
-5.079639162101502459e-01 1.053398135423281312e+00 4.060000000000000000e+02
-8.904425391368697706e-01 -3.081120933315674160e-01 4.060000000000000000e+02
-1.272921162063589184e+00 -1.669622322086416588e+00 4.060000000000000000e+02
-1.655399784990308820e+00 -3.031132550841264539e+00 4.060000000000000000e+02
-2.037878407917028234e+00 -4.392642779596114266e+00 4.060000000000000000e+02
6.394719525700082174e-01 5.137928821687827607e+00 4.070000000000000000e+02
2.569933296432890257e-01 3.776418592932978768e+00 4.070000000000000000e+02
-1.254852932834306101e-01 2.414908364178129929e+00 4.070000000000000000e+02
-5.079639162101502459e-01 1.053398135423281312e+00 4.070000000000000000e+02
-8.904425391368697706e-01 -3.081120933315674160e-01 4.070000000000000000e+02
-1.272921162063589184e+00 -1.669622322086416588e+00 4.070000000000000000e+02
-1.655399784990308820e+00 -3.031132550841264539e+00 4.070000000000000000e+02
-2.037878407917028234e+00 -4.392642779596114266e+00 4.070000000000000000e+02
6.394719525700082174e-01 5.137928821687827607e+00 4.080000000000000000e+02
2.569933296432890257e-01 3.776418592932978768e+00 4.080000000000000000e+02
-1.254852932834306101e-01 2.414908364178129929e+00 4.080000000000000000e+02
-5.079639162101502459e-01 1.053398135423281312e+00 4.080000000000000000e+02
-8.904425391368697706e-01 -3.081120933315674160e-01 4.080000000000000000e+02
-1.272921162063589184e+00 -1.669622322086416588e+00 4.080000000000000000e+02
-1.655399784990308820e+00 -3.031132550841264539e+00 4.080000000000000000e+02
-2.037878407917028234e+00 -4.392642779596114266e+00 4.080000000000000000e+02
6.394719525700082174e-01 5.137928821687827607e+00 4.090000000000000000e+02
2.569933296432890257e-01 3.776418592932978768e+00 4.090000000000000000e+02
-1.254852932834306101e-01 2.414908364178129929e+00 4.090000000000000000e+02
-5.079639162101502459e-01 1.053398135423281312e+00 4.090000000000000000e+02
-8.904425391368697706e-01 -3.081120933315674160e-01 4.090000000000000000e+02
-1.272921162063589184e+00 -1.669622322086416588e+00 4.090000000000000000e+02
-1.655399784990308820e+00 -3.031132550841264539e+00 4.090000000000000000e+02
-2.037878407917028234e+00 -4.392642779596114266e+00 4.090000000000000000e+02
6.394719525700082174e-01 5.137928821687827607e+00 4.100000000000000000e+02
2.569933296432890257e-01 3.776418592932978768e+00 4.100000000000000000e+02
-1.254852932834306101e-01 2.414908364178129929e+00 4.100000000000000000e+02
-5.079639162101502459e-01 1.053398135423281312e+00 4.100000000000000000e+02
-8.904425391368697706e-01 -3.081120933315674160e-01 4.100000000000000000e+02
-1.272921162063589184e+00 -1.669622322086416588e+00 4.100000000000000000e+02
-1.655399784990308820e+00 -3.031132550841264539e+00 4.100000000000000000e+02
-2.037878407917028234e+00 -4.392642779596114266e+00 4.100000000000000000e+02
6.394719525700082174e-01 5.137928821687827607e+00 4.110000000000000000e+02
2.569933296432890257e-01 3.776418592932978768e+00 4.110000000000000000e+02
-1.254852932834306101e-01 2.414908364178129929e+00 4.110000000000000000e+02
-5.079639162101502459e-01 1.053398135423281312e+00 4.110000000000000000e+02
-8.904425391368697706e-01 -3.081120933315674160e-01 4.110000000000000000e+02
-1.272921162063589184e+00 -1.669622322086416588e+00 4.110000000000000000e+02
-1.655399784990308820e+00 -3.031132550841264539e+00 4.110000000000000000e+02
-2.037878407917028234e+00 -4.392642779596114266e+00 4.110000000000000000e+02
6.394719525700082174e-01 5.137928821687827607e+00 4.120000000000000000e+02
2.569933296432890257e-01 3.776418592932978768e+00 4.120000000000000000e+02
-1.254852932834306101e-01 2.414908364178129929e+00 4.120000000000000000e+02
-5.079639162101502459e-01 1.053398135423281312e+00 4.120000000000000000e+02
-8.904425391368697706e-01 -3.081120933315674160e-01 4.120000000000000000e+02
-1.272921162063589184e+00 -1.669622322086416588e+00 4.120000000000000000e+02
-1.655399784990308820e+00 -3.031132550841264539e+00 4.120000000000000000e+02
-2.037878407917028234e+00 -4.392642779596114266e+00 4.120000000000000000e+02
6.394719525700082174e-01 5.137928821687827607e+00 4.130000000000000000e+02
2.569933296432890257e-01 3.776418592932978768e+00 4.130000000000000000e+02
-1.254852932834306101e-01 2.414908364178129929e+00 4.130000000000000000e+02
-5.079639162101502459e-01 1.053398135423281312e+00 4.130000000000000000e+02
-8.904425391368697706e-01 -3.081120933315674160e-01 4.130000000000000000e+02
-1.272921162063589184e+00 -1.669622322086416588e+00 4.130000000000000000e+02
-1.655399784990308820e+00 -3.031132550841264539e+00 4.130000000000000000e+02
6.394719525700082174e-01 5.137928821687827607e+00 4.140000000000000000e+02
2.569933296432890257e-01 3.776418592932978768e+00 4.140000000000000000e+02
-1.254852932834306101e-01 2.414908364178129929e+00 4.140000000000000000e+02
-5.079639162101502459e-01 1.053398135423281312e+00 4.140000000000000000e+02
-8.904425391368697706e-01 -3.081120933315674160e-01 4.140000000000000000e+02
-1.272921162063589184e+00 -1.669622322086416588e+00 4.140000000000000000e+02
-1.655399784990308820e+00 -3.031132550841264539e+00 4.140000000000000000e+02
6.394719525700082174e-01 5.137928821687827607e+00 4.150000000000000000e+02
2.569933296432890257e-01 3.776418592932978768e+00 4.150000000000000000e+02
-1.254852932834306101e-01 2.414908364178129929e+00 4.150000000000000000e+02
-5.079639162101502459e-01 1.053398135423281312e+00 4.150000000000000000e+02
-8.904425391368697706e-01 -3.081120933315674160e-01 4.150000000000000000e+02
-1.272921162063589184e+00 -1.669622322086416588e+00 4.150000000000000000e+02
-1.655399784990308820e+00 -3.031132550841264539e+00 4.150000000000000000e+02
6.394719525700082174e-01 5.137928821687827607e+00 4.160000000000000000e+02
2.569933296432890257e-01 3.776418592932978768e+00 4.160000000000000000e+02
-1.254852932834306101e-01 2.414908364178129929e+00 4.160000000000000000e+02
-5.079639162101502459e-01 1.053398135423281312e+00 4.160000000000000000e+02
-8.904425391368697706e-01 -3.081120933315674160e-01 4.160000000000000000e+02
-1.272921162063589184e+00 -1.669622322086416588e+00 4.160000000000000000e+02
-1.655399784990308820e+00 -3.031132550841264539e+00 4.160000000000000000e+02
-2.037878407917028234e+00 -4.392642779596114266e+00 4.160000000000000000e+02
6.394719525700082174e-01 5.137928821687827607e+00 4.170000000000000000e+02
2.569933296432890257e-01 3.776418592932978768e+00 4.170000000000000000e+02
-1.254852932834306101e-01 2.414908364178129929e+00 4.170000000000000000e+02
-5.079639162101502459e-01 1.053398135423281312e+00 4.170000000000000000e+02
-8.904425391368697706e-01 -3.081120933315674160e-01 4.170000000000000000e+02
-1.272921162063589184e+00 -1.669622322086416588e+00 4.170000000000000000e+02
-1.655399784990308820e+00 -3.031132550841264539e+00 4.170000000000000000e+02
-2.037878407917028234e+00 -4.392642779596114266e+00 4.170000000000000000e+02
6.394719525700082174e-01 5.137928821687827607e+00 4.180000000000000000e+02
2.569933296432890257e-01 3.776418592932978768e+00 4.180000000000000000e+02
-1.254852932834306101e-01 2.414908364178129929e+00 4.180000000000000000e+02
-5.079639162101502459e-01 1.053398135423281312e+00 4.180000000000000000e+02
-8.904425391368697706e-01 -3.081120933315674160e-01 4.180000000000000000e+02
-1.272921162063589184e+00 -1.669622322086416588e+00 4.180000000000000000e+02
-1.655399784990308820e+00 -3.031132550841264539e+00 4.180000000000000000e+02
-2.037878407917028234e+00 -4.392642779596114266e+00 4.180000000000000000e+02
6.394719525700082174e-01 5.137928821687827607e+00 4.190000000000000000e+02
2.569933296432890257e-01 3.776418592932978768e+00 4.190000000000000000e+02
-1.254852932834306101e-01 2.414908364178129929e+00 4.190000000000000000e+02
-5.079639162101502459e-01 1.053398135423281312e+00 4.190000000000000000e+02
-8.904425391368697706e-01 -3.081120933315674160e-01 4.190000000000000000e+02
-1.272921162063589184e+00 -1.669622322086416588e+00 4.190000000000000000e+02
-1.655399784990308820e+00 -3.031132550841264539e+00 4.190000000000000000e+02
-2.037878407917028234e+00 -4.392642779596114266e+00 4.190000000000000000e+02
6.394719525700082174e-01 5.137928821687827607e+00 4.200000000000000000e+02
2.569933296432890257e-01 3.776418592932978768e+00 4.200000000000000000e+02
-1.254852932834306101e-01 2.414908364178129929e+00 4.200000000000000000e+02
-5.079639162101502459e-01 1.053398135423281312e+00 4.200000000000000000e+02
-8.904425391368697706e-01 -3.081120933315674160e-01 4.200000000000000000e+02
-1.272921162063589184e+00 -1.669622322086416588e+00 4.200000000000000000e+02
-1.655399784990308820e+00 -3.031132550841264539e+00 4.200000000000000000e+02
-2.037878407917028234e+00 -4.392642779596114266e+00 4.200000000000000000e+02
-2.420357030843747648e+00 -5.754153008350963105e+00 4.200000000000000000e+02
6.394719525700082174e-01 5.137928821687827607e+00 4.210000000000000000e+02
2.569933296432890257e-01 3.776418592932978768e+00 4.210000000000000000e+02
-1.254852932834306101e-01 2.414908364178129929e+00 4.210000000000000000e+02
-5.079639162101502459e-01 1.053398135423281312e+00 4.210000000000000000e+02
-8.904425391368697706e-01 -3.081120933315674160e-01 4.210000000000000000e+02
-1.272921162063589184e+00 -1.669622322086416588e+00 4.210000000000000000e+02
-1.655399784990308820e+00 -3.031132550841264539e+00 4.210000000000000000e+02
-2.037878407917028234e+00 -4.392642779596114266e+00 4.210000000000000000e+02
6.394719525700082174e-01 5.137928821687827607e+00 4.220000000000000000e+02
2.569933296432890257e-01 3.776418592932978768e+00 4.220000000000000000e+02
-1.254852932834306101e-01 2.414908364178129929e+00 4.220000000000000000e+02
-5.079639162101502459e-01 1.053398135423281312e+00 4.220000000000000000e+02
-8.904425391368697706e-01 -3.081120933315674160e-01 4.220000000000000000e+02
-1.272921162063589184e+00 -1.669622322086416588e+00 4.220000000000000000e+02
-1.655399784990308820e+00 -3.031132550841264539e+00 4.220000000000000000e+02
-2.037878407917028234e+00 -4.392642779596114266e+00 4.220000000000000000e+02
6.394719525700082174e-01 5.137928821687827607e+00 4.230000000000000000e+02
2.569933296432890257e-01 3.776418592932978768e+00 4.230000000000000000e+02
-1.254852932834306101e-01 2.414908364178129929e+00 4.230000000000000000e+02
