4.375173991251368300e+00 5.109648529630358205e+00 3.140000000000000000e+02
3.385502223751359452e+00 4.099425884559772193e+00 3.140000000000000000e+02
2.395830456251351936e+00 3.089203239489187069e+00 3.140000000000000000e+02
1.406158688751343755e+00 2.078980594418601058e+00 3.140000000000000000e+02
4.164869212513359620e-01 1.068757949348015490e+00 3.140000000000000000e+02
-5.731848462486720530e-01 5.853530427742992259e-02 3.140000000000000000e+02
-1.562856613748680124e+00 -9.516873407931557560e-01 3.140000000000000000e+02
-2.552528381248688305e+00 -1.961909985863741213e+00 3.140000000000000000e+02
-3.542200148748696265e+00 -2.972132630934326336e+00 3.140000000000000000e+02
-4.531871916248703336e+00 -3.982355276004911904e+00 3.140000000000000000e+02
4.375173991251368300e+00 5.109648529630358205e+00 3.150000000000000000e+02
3.385502223751359452e+00 4.099425884559772193e+00 3.150000000000000000e+02
2.395830456251351936e+00 3.089203239489187069e+00 3.150000000000000000e+02
1.406158688751343755e+00 2.078980594418601058e+00 3.150000000000000000e+02
4.164869212513359620e-01 1.068757949348015490e+00 3.150000000000000000e+02
-5.731848462486720530e-01 5.853530427742992259e-02 3.150000000000000000e+02
-1.562856613748680124e+00 -9.516873407931557560e-01 3.150000000000000000e+02
-2.552528381248688305e+00 -1.961909985863741213e+00 3.150000000000000000e+02
-3.542200148748696265e+00 -2.972132630934326336e+00 3.150000000000000000e+02
-4.531871916248703336e+00 -3.982355276004911904e+00 3.150000000000000000e+02
4.375173991251368300e+00 5.109648529630358205e+00 3.160000000000000000e+02
3.385502223751359452e+00 4.099425884559772193e+00 3.160000000000000000e+02
2.395830456251351936e+00 3.089203239489187069e+00 3.160000000000000000e+02
1.406158688751343755e+00 2.078980594418601058e+00 3.160000000000000000e+02
4.164869212513359620e-01 1.068757949348015490e+00 3.160000000000000000e+02
-5.731848462486720530e-01 5.853530427742992259e-02 3.160000000000000000e+02
-1.562856613748680124e+00 -9.516873407931557560e-01 3.160000000000000000e+02
-2.552528381248688305e+00 -1.961909985863741213e+00 3.160000000000000000e+02
-3.542200148748696265e+00 -2.972132630934326336e+00 3.160000000000000000e+02
-4.531871916248703336e+00 -3.982355276004911904e+00 3.160000000000000000e+02
5.375121197536665285e+00 5.119923968415646343e+00 3.170000000000000000e+02
4.385449430036657326e+00 4.109701323345060331e+00 3.170000000000000000e+02
3.395777662536648478e+00 3.099478678274475651e+00 3.170000000000000000e+02
2.406105895036640518e+00 2.089256033203889640e+00 3.170000000000000000e+02
1.416434127536632559e+00 1.079033388133304072e+00 3.170000000000000000e+02
4.267623600366247660e-01 6.881074306271872665e-02 3.170000000000000000e+02
-5.629094074633832490e-01 -9.414119020078669520e-01 3.170000000000000000e+02
-1.552581174963391319e+00 -1.951634547078452186e+00 3.170000000000000000e+02
-2.542252942463399723e+00 -2.961857192149037754e+00 3.170000000000000000e+02
-3.531924709963407238e+00 -3.972079837219622878e+00 3.170000000000000000e+02
5.375121197536665285e+00 5.119923968415646343e+00 3.180000000000000000e+02
4.385449430036657326e+00 4.109701323345060331e+00 3.180000000000000000e+02
3.395777662536648478e+00 3.099478678274475651e+00 3.180000000000000000e+02
2.406105895036640518e+00 2.089256033203889640e+00 3.180000000000000000e+02
1.416434127536632559e+00 1.079033388133304072e+00 3.180000000000000000e+02
4.267623600366247660e-01 6.881074306271872665e-02 3.180000000000000000e+02
-5.629094074633832490e-01 -9.414119020078669520e-01 3.180000000000000000e+02
-1.552581174963391319e+00 -1.951634547078452186e+00 3.180000000000000000e+02
-2.542252942463399723e+00 -2.961857192149037754e+00 3.180000000000000000e+02
-3.531924709963407238e+00 -3.972079837219622878e+00 3.180000000000000000e+02
5.375121197536665285e+00 5.119923968415646343e+00 3.190000000000000000e+02
4.385449430036657326e+00 4.109701323345060331e+00 3.190000000000000000e+02
3.395777662536648478e+00 3.099478678274475651e+00 3.190000000000000000e+02
2.406105895036640518e+00 2.089256033203889640e+00 3.190000000000000000e+02
1.416434127536632559e+00 1.079033388133304072e+00 3.190000000000000000e+02
4.267623600366247660e-01 6.881074306271872665e-02 3.190000000000000000e+02
-5.629094074633832490e-01 -9.414119020078669520e-01 3.190000000000000000e+02
-1.552581174963391319e+00 -1.951634547078452186e+00 3.190000000000000000e+02
-2.542252942463399723e+00 -2.961857192149037754e+00 3.190000000000000000e+02
-3.531924709963407238e+00 -3.972079837219622878e+00 3.190000000000000000e+02
5.375121197536665285e+00 5.119923968415646343e+00 3.200000000000000000e+02
4.385449430036657326e+00 4.109701323345060331e+00 3.200000000000000000e+02
3.395777662536648478e+00 3.099478678274475651e+00 3.200000000000000000e+02
2.406105895036640518e+00 2.089256033203889640e+00 3.200000000000000000e+02
1.416434127536632559e+00 1.079033388133304072e+00 3.200000000000000000e+02
4.267623600366247660e-01 6.881074306271872665e-02 3.200000000000000000e+02
-5.629094074633832490e-01 -9.414119020078669520e-01 3.200000000000000000e+02
-1.552581174963391319e+00 -1.951634547078452186e+00 3.200000000000000000e+02
-2.542252942463399723e+00 -2.961857192149037754e+00 3.200000000000000000e+02
-3.531924709963407238e+00 -3.972079837219622878e+00 3.200000000000000000e+02
-4.521596477463414310e+00 -4.982302482290209333e+00 3.200000000000000000e+02
5.375121197536665285e+00 5.119923968415646343e+00 3.210000000000000000e+02
4.385449430036657326e+00 4.109701323345060331e+00 3.210000000000000000e+02
3.395777662536648478e+00 3.099478678274475651e+00 3.210000000000000000e+02
2.406105895036640518e+00 2.089256033203889640e+00 3.210000000000000000e+02
1.416434127536632559e+00 1.079033388133304072e+00 3.210000000000000000e+02
4.267623600366247660e-01 6.881074306271872665e-02 3.210000000000000000e+02
-5.629094074633832490e-01 -9.414119020078669520e-01 3.210000000000000000e+02
-1.552581174963391319e+00 -1.951634547078452186e+00 3.210000000000000000e+02
-2.542252942463399723e+00 -2.961857192149037754e+00 3.210000000000000000e+02
-3.531924709963407238e+00 -3.972079837219622878e+00 3.210000000000000000e+02
-4.521596477463414310e+00 -4.982302482290209333e+00 3.210000000000000000e+02
5.375121197536665285e+00 5.119923968415646343e+00 3.220000000000000000e+02
4.385449430036657326e+00 4.109701323345060331e+00 3.220000000000000000e+02
3.395777662536648478e+00 3.099478678274475651e+00 3.220000000000000000e+02
2.406105895036640518e+00 2.089256033203889640e+00 3.220000000000000000e+02
1.416434127536632559e+00 1.079033388133304072e+00 3.220000000000000000e+02
4.267623600366247660e-01 6.881074306271872665e-02 3.220000000000000000e+02
-5.629094074633832490e-01 -9.414119020078669520e-01 3.220000000000000000e+02
-1.552581174963391319e+00 -1.951634547078452186e+00 3.220000000000000000e+02
-2.542252942463399723e+00 -2.961857192149037754e+00 3.220000000000000000e+02
-3.531924709963407238e+00 -3.972079837219622878e+00 3.220000000000000000e+02
-4.521596477463414310e+00 -4.982302482290209333e+00 3.220000000000000000e+02
5.375121197536665285e+00 5.119923968415646343e+00 3.230000000000000000e+02
4.385449430036657326e+00 4.109701323345060331e+00 3.230000000000000000e+02
3.395777662536648478e+00 3.099478678274475651e+00 3.230000000000000000e+02
2.406105895036640518e+00 2.089256033203889640e+00 3.230000000000000000e+02
1.416434127536632559e+00 1.079033388133304072e+00 3.230000000000000000e+02
4.267623600366247660e-01 6.881074306271872665e-02 3.230000000000000000e+02
-5.629094074633832490e-01 -9.414119020078669520e-01 3.230000000000000000e+02
-1.552581174963391319e+00 -1.951634547078452186e+00 3.230000000000000000e+02
-2.542252942463399723e+00 -2.961857192149037754e+00 3.230000000000000000e+02
-3.531924709963407238e+00 -3.972079837219622878e+00 3.230000000000000000e+02
-4.521596477463414310e+00 -4.982302482290209333e+00 3.230000000000000000e+02
5.375121197536665285e+00 5.119923968415646343e+00 3.240000000000000000e+02
4.385449430036657326e+00 4.109701323345060331e+00 3.240000000000000000e+02
3.395777662536648478e+00 3.099478678274475651e+00 3.240000000000000000e+02
2.406105895036640518e+00 2.089256033203889640e+00 3.240000000000000000e+02
1.416434127536632559e+00 1.079033388133304072e+00 3.240000000000000000e+02
4.267623600366247660e-01 6.881074306271872665e-02 3.240000000000000000e+02
-5.629094074633832490e-01 -9.414119020078669520e-01 3.240000000000000000e+02
-1.552581174963391319e+00 -1.951634547078452186e+00 3.240000000000000000e+02
-2.542252942463399723e+00 -2.961857192149037754e+00 3.240000000000000000e+02
-3.531924709963407238e+00 -3.972079837219622878e+00 3.240000000000000000e+02
-4.521596477463414310e+00 -4.982302482290209333e+00 3.240000000000000000e+02
5.375121197536665285e+00 5.119923968415646343e+00 3.250000000000000000e+02
4.385449430036657326e+00 4.109701323345060331e+00 3.250000000000000000e+02
3.395777662536648478e+00 3.099478678274475651e+00 3.250000000000000000e+02
2.406105895036640518e+00 2.089256033203889640e+00 3.250000000000000000e+02
1.416434127536632559e+00 1.079033388133304072e+00 3.250000000000000000e+02
4.267623600366247660e-01 6.881074306271872665e-02 3.250000000000000000e+02
-5.629094074633832490e-01 -9.414119020078669520e-01 3.250000000000000000e+02
-1.552581174963391319e+00 -1.951634547078452186e+00 3.250000000000000000e+02
-2.542252942463399723e+00 -2.961857192149037754e+00 3.250000000000000000e+02
-3.531924709963407238e+00 -3.972079837219622878e+00 3.250000000000000000e+02
6.375068403821961383e+00 5.130199407200935369e+00 3.260000000000000000e+02
5.385396636321954311e+00 4.119976762130349357e+00 3.260000000000000000e+02
4.395724868821946352e+00 3.109754117059764233e+00 3.260000000000000000e+02
3.406053101321937060e+00 2.099531471989178666e+00 3.260000000000000000e+02
2.416381333821929545e+00 1.089308826918593098e+00 3.260000000000000000e+02
1.426709566321921363e+00 7.908618184800750295e-02 3.260000000000000000e+02
4.370377988219135701e-01 -9.311364632225781479e-01 3.260000000000000000e+02
-5.526339686780945559e-01 -1.941359108293163604e+00 3.260000000000000000e+02
-1.542305736178102515e+00 -2.951581753363748728e+00 3.260000000000000000e+02
-2.531977503678110697e+00 -3.961804398434333851e+00 3.260000000000000000e+02
-3.521649271178118656e+00 -4.972027043504920307e+00 3.260000000000000000e+02
6.375068403821961383e+00 5.130199407200935369e+00 3.270000000000000000e+02
5.385396636321954311e+00 4.119976762130349357e+00 3.270000000000000000e+02
4.395724868821946352e+00 3.109754117059764233e+00 3.270000000000000000e+02
3.406053101321937060e+00 2.099531471989178666e+00 3.270000000000000000e+02
2.416381333821929545e+00 1.089308826918593098e+00 3.270000000000000000e+02
1.426709566321921363e+00 7.908618184800750295e-02 3.270000000000000000e+02
4.370377988219135701e-01 -9.311364632225781479e-01 3.270000000000000000e+02
-5.526339686780945559e-01 -1.941359108293163604e+00 3.270000000000000000e+02
-1.542305736178102515e+00 -2.951581753363748728e+00 3.270000000000000000e+02
-2.531977503678110697e+00 -3.961804398434333851e+00 3.270000000000000000e+02
-3.521649271178118656e+00 -4.972027043504920307e+00 3.270000000000000000e+02
-4.511321038678126172e+00 -5.982249688575505431e+00 3.270000000000000000e+02
6.375068403821961383e+00 5.130199407200935369e+00 3.280000000000000000e+02
5.385396636321954311e+00 4.119976762130349357e+00 3.280000000000000000e+02
4.395724868821946352e+00 3.109754117059764233e+00 3.280000000000000000e+02
3.406053101321937060e+00 2.099531471989178666e+00 3.280000000000000000e+02
2.416381333821929545e+00 1.089308826918593098e+00 3.280000000000000000e+02
1.426709566321921363e+00 7.908618184800750295e-02 3.280000000000000000e+02
4.370377988219135701e-01 -9.311364632225781479e-01 3.280000000000000000e+02
-5.526339686780945559e-01 -1.941359108293163604e+00 3.280000000000000000e+02
-1.542305736178102515e+00 -2.951581753363748728e+00 3.280000000000000000e+02
-2.531977503678110697e+00 -3.961804398434333851e+00 3.280000000000000000e+02
-3.521649271178118656e+00 -4.972027043504920307e+00 3.280000000000000000e+02
-4.511321038678126172e+00 -5.982249688575505431e+00 3.280000000000000000e+02
6.375068403821961383e+00 5.130199407200935369e+00 3.290000000000000000e+02
5.385396636321954311e+00 4.119976762130349357e+00 3.290000000000000000e+02
4.395724868821946352e+00 3.109754117059764233e+00 3.290000000000000000e+02
3.406053101321937060e+00 2.099531471989178666e+00 3.290000000000000000e+02
2.416381333821929545e+00 1.089308826918593098e+00 3.290000000000000000e+02
1.426709566321921363e+00 7.908618184800750295e-02 3.290000000000000000e+02
4.370377988219135701e-01 -9.311364632225781479e-01 3.290000000000000000e+02
-5.526339686780945559e-01 -1.941359108293163604e+00 3.290000000000000000e+02
-1.542305736178102515e+00 -2.951581753363748728e+00 3.290000000000000000e+02
-2.531977503678110697e+00 -3.961804398434333851e+00 3.290000000000000000e+02
-3.521649271178118656e+00 -4.972027043504920307e+00 3.290000000000000000e+02
-4.511321038678126172e+00 -5.982249688575505431e+00 3.290000000000000000e+02
6.375068403821961383e+00 5.130199407200935369e+00 3.300000000000000000e+02
5.385396636321954311e+00 4.119976762130349357e+00 3.300000000000000000e+02
4.395724868821946352e+00 3.109754117059764233e+00 3.300000000000000000e+02
3.406053101321937060e+00 2.099531471989178666e+00 3.300000000000000000e+02
2.416381333821929545e+00 1.089308826918593098e+00 3.300000000000000000e+02
1.426709566321921363e+00 7.908618184800750295e-02 3.300000000000000000e+02
4.370377988219135701e-01 -9.311364632225781479e-01 3.300000000000000000e+02
-5.526339686780945559e-01 -1.941359108293163604e+00 3.300000000000000000e+02
-1.542305736178102515e+00 -2.951581753363748728e+00 3.300000000000000000e+02
-2.531977503678110697e+00 -3.961804398434333851e+00 3.300000000000000000e+02
-3.521649271178118656e+00 -4.972027043504920307e+00 3.300000000000000000e+02
-4.511321038678126172e+00 -5.982249688575505431e+00 3.300000000000000000e+02
5.375121197536665285e+00 5.119923968415646343e+00 3.310000000000000000e+02
4.385449430036657326e+00 4.109701323345060331e+00 3.310000000000000000e+02
3.395777662536648478e+00 3.099478678274475651e+00 3.310000000000000000e+02
2.406105895036640518e+00 2.089256033203889640e+00 3.310000000000000000e+02
1.416434127536632559e+00 1.079033388133304072e+00 3.310000000000000000e+02
4.267623600366247660e-01 6.881074306271872665e-02 3.310000000000000000e+02
-5.629094074633832490e-01 -9.414119020078669520e-01 3.310000000000000000e+02
-1.552581174963391319e+00 -1.951634547078452186e+00 3.310000000000000000e+02
-2.542252942463399723e+00 -2.961857192149037754e+00 3.310000000000000000e+02
-3.531924709963407238e+00 -3.972079837219622878e+00 3.310000000000000000e+02
-4.521596477463414310e+00 -4.982302482290209333e+00 3.310000000000000000e+02
5.375121197536665285e+00 5.119923968415646343e+00 3.320000000000000000e+02
4.385449430036657326e+00 4.109701323345060331e+00 3.320000000000000000e+02
3.395777662536648478e+00 3.099478678274475651e+00 3.320000000000000000e+02
2.406105895036640518e+00 2.089256033203889640e+00 3.320000000000000000e+02
1.416434127536632559e+00 1.079033388133304072e+00 3.320000000000000000e+02
4.267623600366247660e-01 6.881074306271872665e-02 3.320000000000000000e+02
-5.629094074633832490e-01 -9.414119020078669520e-01 3.320000000000000000e+02
-1.552581174963391319e+00 -1.951634547078452186e+00 3.320000000000000000e+02
-2.542252942463399723e+00 -2.961857192149037754e+00 3.320000000000000000e+02
-3.531924709963407238e+00 -3.972079837219622878e+00 3.320000000000000000e+02
-4.521596477463414310e+00 -4.982302482290209333e+00 3.320000000000000000e+02
5.375121197536665285e+00 5.119923968415646343e+00 3.330000000000000000e+02
4.385449430036657326e+00 4.109701323345060331e+00 3.330000000000000000e+02
3.395777662536648478e+00 3.099478678274475651e+00 3.330000000000000000e+02
2.406105895036640518e+00 2.089256033203889640e+00 3.330000000000000000e+02
1.416434127536632559e+00 1.079033388133304072e+00 3.330000000000000000e+02
4.267623600366247660e-01 6.881074306271872665e-02 3.330000000000000000e+02
-5.629094074633832490e-01 -9.414119020078669520e-01 3.330000000000000000e+02
-1.552581174963391319e+00 -1.951634547078452186e+00 3.330000000000000000e+02
-2.542252942463399723e+00 -2.961857192149037754e+00 3.330000000000000000e+02
-3.531924709963407238e+00 -3.972079837219622878e+00 3.330000000000000000e+02
-4.521596477463414310e+00 -4.982302482290209333e+00 3.330000000000000000e+02
5.375121197536665285e+00 5.119923968415646343e+00 3.340000000000000000e+02
4.385449430036657326e+00 4.109701323345060331e+00 3.340000000000000000e+02
3.395777662536648478e+00 3.099478678274475651e+00 3.340000000000000000e+02
2.406105895036640518e+00 2.089256033203889640e+00 3.340000000000000000e+02
1.416434127536632559e+00 1.079033388133304072e+00 3.340000000000000000e+02
4.267623600366247660e-01 6.881074306271872665e-02 3.340000000000000000e+02
-5.629094074633832490e-01 -9.414119020078669520e-01 3.340000000000000000e+02
-1.552581174963391319e+00 -1.951634547078452186e+00 3.340000000000000000e+02
-2.542252942463399723e+00 -2.961857192149037754e+00 3.340000000000000000e+02
-3.531924709963407238e+00 -3.972079837219622878e+00 3.340000000000000000e+02
-4.521596477463414310e+00 -4.982302482290209333e+00 3.340000000000000000e+02
5.375121197536665285e+00 5.119923968415646343e+00 3.350000000000000000e+02
4.385449430036657326e+00 4.109701323345060331e+00 3.350000000000000000e+02
3.395777662536648478e+00 3.099478678274475651e+00 3.350000000000000000e+02
2.406105895036640518e+00 2.089256033203889640e+00 3.350000000000000000e+02
1.416434127536632559e+00 1.079033388133304072e+00 3.350000000000000000e+02
4.267623600366247660e-01 6.881074306271872665e-02 3.350000000000000000e+02
-5.629094074633832490e-01 -9.414119020078669520e-01 3.350000000000000000e+02
-1.552581174963391319e+00 -1.951634547078452186e+00 3.350000000000000000e+02
-2.542252942463399723e+00 -2.961857192149037754e+00 3.350000000000000000e+02
-3.531924709963407238e+00 -3.972079837219622878e+00 3.350000000000000000e+02
5.375121197536665285e+00 5.119923968415646343e+00 3.360000000000000000e+02
4.385449430036657326e+00 4.109701323345060331e+00 3.360000000000000000e+02
3.395777662536648478e+00 3.099478678274475651e+00 3.360000000000000000e+02
2.406105895036640518e+00 2.089256033203889640e+00 3.360000000000000000e+02
1.416434127536632559e+00 1.079033388133304072e+00 3.360000000000000000e+02
4.267623600366247660e-01 6.881074306271872665e-02 3.360000000000000000e+02
-5.629094074633832490e-01 -9.414119020078669520e-01 3.360000000000000000e+02
-1.552581174963391319e+00 -1.951634547078452186e+00 3.360000000000000000e+02
-2.542252942463399723e+00 -2.961857192149037754e+00 3.360000000000000000e+02
-3.531924709963407238e+00 -3.972079837219622878e+00 3.360000000000000000e+02
-4.521596477463414310e+00 -4.982302482290209333e+00 3.360000000000000000e+02
5.375121197536665285e+00 5.119923968415646343e+00 3.370000000000000000e+02
4.385449430036657326e+00 4.109701323345060331e+00 3.370000000000000000e+02
3.395777662536648478e+00 3.099478678274475651e+00 3.370000000000000000e+02
2.406105895036640518e+00 2.089256033203889640e+00 3.370000000000000000e+02
1.416434127536632559e+00 1.079033388133304072e+00 3.370000000000000000e+02
4.267623600366247660e-01 6.881074306271872665e-02 3.370000000000000000e+02
-5.629094074633832490e-01 -9.414119020078669520e-01 3.370000000000000000e+02
-1.552581174963391319e+00 -1.951634547078452186e+00 3.370000000000000000e+02
-2.542252942463399723e+00 -2.961857192149037754e+00 3.370000000000000000e+02
-3.531924709963407238e+00 -3.972079837219622878e+00 3.370000000000000000e+02
-4.521596477463414310e+00 -4.982302482290209333e+00 3.370000000000000000e+02
5.375121197536665285e+00 5.119923968415646343e+00 3.380000000000000000e+02
4.385449430036657326e+00 4.109701323345060331e+00 3.380000000000000000e+02
3.395777662536648478e+00 3.099478678274475651e+00 3.380000000000000000e+02
2.406105895036640518e+00 2.089256033203889640e+00 3.380000000000000000e+02
1.416434127536632559e+00 1.079033388133304072e+00 3.380000000000000000e+02
4.267623600366247660e-01 6.881074306271872665e-02 3.380000000000000000e+02
-5.629094074633832490e-01 -9.414119020078669520e-01 3.380000000000000000e+02
-1.552581174963391319e+00 -1.951634547078452186e+00 3.380000000000000000e+02
-2.542252942463399723e+00 -2.961857192149037754e+00 3.380000000000000000e+02
-3.531924709963407238e+00 -3.972079837219622878e+00 3.380000000000000000e+02
-4.521596477463414310e+00 -4.982302482290209333e+00 3.380000000000000000e+02
5.375121197536665285e+00 5.119923968415646343e+00 3.390000000000000000e+02
4.385449430036657326e+00 4.109701323345060331e+00 3.390000000000000000e+02
3.395777662536648478e+00 3.099478678274475651e+00 3.390000000000000000e+02
2.406105895036640518e+00 2.089256033203889640e+00 3.390000000000000000e+02
1.416434127536632559e+00 1.079033388133304072e+00 3.390000000000000000e+02
4.267623600366247660e-01 6.881074306271872665e-02 3.390000000000000000e+02
-5.629094074633832490e-01 -9.414119020078669520e-01 3.390000000000000000e+02
-1.552581174963391319e+00 -1.951634547078452186e+00 3.390000000000000000e+02
-2.542252942463399723e+00 -2.961857192149037754e+00 3.390000000000000000e+02
-3.531924709963407238e+00 -3.972079837219622878e+00 3.390000000000000000e+02
-4.521596477463414310e+00 -4.982302482290209333e+00 3.390000000000000000e+02
5.375121197536665285e+00 5.119923968415646343e+00 3.400000000000000000e+02
4.385449430036657326e+00 4.109701323345060331e+00 3.400000000000000000e+02
3.395777662536648478e+00 3.099478678274475651e+00 3.400000000000000000e+02
2.406105895036640518e+00 2.089256033203889640e+00 3.400000000000000000e+02
1.416434127536632559e+00 1.079033388133304072e+00 3.400000000000000000e+02
4.267623600366247660e-01 6.881074306271872665e-02 3.400000000000000000e+02
-5.629094074633832490e-01 -9.414119020078669520e-01 3.400000000000000000e+02
-1.552581174963391319e+00 -1.951634547078452186e+00 3.400000000000000000e+02
-2.542252942463399723e+00 -2.961857192149037754e+00 3.400000000000000000e+02
-3.531924709963407238e+00 -3.972079837219622878e+00 3.400000000000000000e+02
-4.521596477463414310e+00 -4.982302482290209333e+00 3.400000000000000000e+02
5.375121197536665285e+00 5.119923968415646343e+00 3.410000000000000000e+02
4.385449430036657326e+00 4.109701323345060331e+00 3.410000000000000000e+02
3.395777662536648478e+00 3.099478678274475651e+00 3.410000000000000000e+02
2.406105895036640518e+00 2.089256033203889640e+00 3.410000000000000000e+02
1.416434127536632559e+00 1.079033388133304072e+00 3.410000000000000000e+02
4.267623600366247660e-01 6.881074306271872665e-02 3.410000000000000000e+02
-5.629094074633832490e-01 -9.414119020078669520e-01 3.410000000000000000e+02
-1.552581174963391319e+00 -1.951634547078452186e+00 3.410000000000000000e+02
-2.542252942463399723e+00 -2.961857192149037754e+00 3.410000000000000000e+02
-3.531924709963407238e+00 -3.972079837219622878e+00 3.410000000000000000e+02
-4.521596477463414310e+00 -4.982302482290209333e+00 3.410000000000000000e+02
5.375121197536665285e+00 5.119923968415646343e+00 3.420000000000000000e+02
4.385449430036657326e+00 4.109701323345060331e+00 3.420000000000000000e+02
3.395777662536648478e+00 3.099478678274475651e+00 3.420000000000000000e+02
2.406105895036640518e+00 2.089256033203889640e+00 3.420000000000000000e+02
1.416434127536632559e+00 1.079033388133304072e+00 3.420000000000000000e+02
4.267623600366247660e-01 6.881074306271872665e-02 3.420000000000000000e+02
-5.629094074633832490e-01 -9.414119020078669520e-01 3.420000000000000000e+02
-1.552581174963391319e+00 -1.951634547078452186e+00 3.420000000000000000e+02
-2.542252942463399723e+00 -2.961857192149037754e+00 3.420000000000000000e+02
-3.531924709963407238e+00 -3.972079837219622878e+00 3.420000000000000000e+02
-4.521596477463414310e+00 -4.982302482290209333e+00 3.420000000000000000e+02
4.375173991251368300e+00 5.109648529630358205e+00 3.430000000000000000e+02
3.385502223751359452e+00 4.099425884559772193e+00 3.430000000000000000e+02
2.395830456251351936e+00 3.089203239489187069e+00 3.430000000000000000e+02
1.406158688751343755e+00 2.078980594418601058e+00 3.430000000000000000e+02
4.164869212513359620e-01 1.068757949348015490e+00 3.430000000000000000e+02
-5.731848462486720530e-01 5.853530427742992259e-02 3.430000000000000000e+02
-1.562856613748680124e+00 -9.516873407931557560e-01 3.430000000000000000e+02
-2.552528381248688305e+00 -1.961909985863741213e+00 3.430000000000000000e+02
-3.542200148748696265e+00 -2.972132630934326336e+00 3.430000000000000000e+02
-4.531871916248703336e+00 -3.982355276004911904e+00 3.430000000000000000e+02
4.375173991251368300e+00 5.109648529630358205e+00 3.440000000000000000e+02
3.385502223751359452e+00 4.099425884559772193e+00 3.440000000000000000e+02
2.395830456251351936e+00 3.089203239489187069e+00 3.440000000000000000e+02
1.406158688751343755e+00 2.078980594418601058e+00 3.440000000000000000e+02
4.164869212513359620e-01 1.068757949348015490e+00 3.440000000000000000e+02
-5.731848462486720530e-01 5.853530427742992259e-02 3.440000000000000000e+02
-1.562856613748680124e+00 -9.516873407931557560e-01 3.440000000000000000e+02
-2.552528381248688305e+00 -1.961909985863741213e+00 3.440000000000000000e+02
-3.542200148748696265e+00 -2.972132630934326336e+00 3.440000000000000000e+02
-4.531871916248703336e+00 -3.982355276004911904e+00 3.440000000000000000e+02
5.375121197536665285e+00 5.119923968415646343e+00 3.450000000000000000e+02
4.385449430036657326e+00 4.109701323345060331e+00 3.450000000000000000e+02
3.395777662536648478e+00 3.099478678274475651e+00 3.450000000000000000e+02
2.406105895036640518e+00 2.089256033203889640e+00 3.450000000000000000e+02
1.416434127536632559e+00 1.079033388133304072e+00 3.450000000000000000e+02
4.267623600366247660e-01 6.881074306271872665e-02 3.450000000000000000e+02
-5.629094074633832490e-01 -9.414119020078669520e-01 3.450000000000000000e+02
-1.552581174963391319e+00 -1.951634547078452186e+00 3.450000000000000000e+02
-2.542252942463399723e+00 -2.961857192149037754e+00 3.450000000000000000e+02
-3.531924709963407238e+00 -3.972079837219622878e+00 3.450000000000000000e+02
-4.521596477463414310e+00 -4.982302482290209333e+00 3.450000000000000000e+02
5.375121197536665285e+00 5.119923968415646343e+00 3.460000000000000000e+02
4.385449430036657326e+00 4.109701323345060331e+00 3.460000000000000000e+02
3.395777662536648478e+00 3.099478678274475651e+00 3.460000000000000000e+02
2.406105895036640518e+00 2.089256033203889640e+00 3.460000000000000000e+02
1.416434127536632559e+00 1.079033388133304072e+00 3.460000000000000000e+02
4.267623600366247660e-01 6.881074306271872665e-02 3.460000000000000000e+02
-5.629094074633832490e-01 -9.414119020078669520e-01 3.460000000000000000e+02
-1.552581174963391319e+00 -1.951634547078452186e+00 3.460000000000000000e+02
-2.542252942463399723e+00 -2.961857192149037754e+00 3.460000000000000000e+02
-3.531924709963407238e+00 -3.972079837219622878e+00 3.460000000000000000e+02
-4.521596477463414310e+00 -4.982302482290209333e+00 3.460000000000000000e+02
5.375121197536665285e+00 5.119923968415646343e+00 3.470000000000000000e+02
4.385449430036657326e+00 4.109701323345060331e+00 3.470000000000000000e+02
3.395777662536648478e+00 3.099478678274475651e+00 3.470000000000000000e+02
2.406105895036640518e+00 2.089256033203889640e+00 3.470000000000000000e+02
1.416434127536632559e+00 1.079033388133304072e+00 3.470000000000000000e+02
4.267623600366247660e-01 6.881074306271872665e-02 3.470000000000000000e+02
-5.629094074633832490e-01 -9.414119020078669520e-01 3.470000000000000000e+02
-1.552581174963391319e+00 -1.951634547078452186e+00 3.470000000000000000e+02
-2.542252942463399723e+00 -2.961857192149037754e+00 3.470000000000000000e+02
-3.531924709963407238e+00 -3.972079837219622878e+00 3.470000000000000000e+02
-4.521596477463414310e+00 -4.982302482290209333e+00 3.470000000000000000e+02
5.375121197536665285e+00 5.119923968415646343e+00 3.480000000000000000e+02
4.385449430036657326e+00 4.109701323345060331e+00 3.480000000000000000e+02
3.395777662536648478e+00 3.099478678274475651e+00 3.480000000000000000e+02
2.406105895036640518e+00 2.089256033203889640e+00 3.480000000000000000e+02
1.416434127536632559e+00 1.079033388133304072e+00 3.480000000000000000e+02
4.267623600366247660e-01 6.881074306271872665e-02 3.480000000000000000e+02
-5.629094074633832490e-01 -9.414119020078669520e-01 3.480000000000000000e+02
-1.552581174963391319e+00 -1.951634547078452186e+00 3.480000000000000000e+02
-2.542252942463399723e+00 -2.961857192149037754e+00 3.480000000000000000e+02
-3.531924709963407238e+00 -3.972079837219622878e+00 3.480000000000000000e+02
5.375121197536665285e+00 5.119923968415646343e+00 3.490000000000000000e+02
4.385449430036657326e+00 4.109701323345060331e+00 3.490000000000000000e+02
3.395777662536648478e+00 3.099478678274475651e+00 3.490000000000000000e+02
2.406105895036640518e+00 2.089256033203889640e+00 3.490000000000000000e+02
1.416434127536632559e+00 1.079033388133304072e+00 3.490000000000000000e+02
4.267623600366247660e-01 6.881074306271872665e-02 3.490000000000000000e+02
-5.629094074633832490e-01 -9.414119020078669520e-01 3.490000000000000000e+02
-1.552581174963391319e+00 -1.951634547078452186e+00 3.490000000000000000e+02
-2.542252942463399723e+00 -2.961857192149037754e+00 3.490000000000000000e+02
-3.531924709963407238e+00 -3.972079837219622878e+00 3.490000000000000000e+02
5.375121197536665285e+00 5.119923968415646343e+00 3.500000000000000000e+02
4.385449430036657326e+00 4.109701323345060331e+00 3.500000000000000000e+02
3.395777662536648478e+00 3.099478678274475651e+00 3.500000000000000000e+02
2.406105895036640518e+00 2.089256033203889640e+00 3.500000000000000000e+02
1.416434127536632559e+00 1.079033388133304072e+00 3.500000000000000000e+02
4.267623600366247660e-01 6.881074306271872665e-02 3.500000000000000000e+02
-5.629094074633832490e-01 -9.414119020078669520e-01 3.500000000000000000e+02
-1.552581174963391319e+00 -1.951634547078452186e+00 3.500000000000000000e+02
-2.542252942463399723e+00 -2.961857192149037754e+00 3.500000000000000000e+02
-3.531924709963407238e+00 -3.972079837219622878e+00 3.500000000000000000e+02
-4.521596477463414310e+00 -4.982302482290209333e+00 3.500000000000000000e+02
5.375121197536665285e+00 5.119923968415646343e+00 3.510000000000000000e+02
4.385449430036657326e+00 4.109701323345060331e+00 3.510000000000000000e+02
3.395777662536648478e+00 3.099478678274475651e+00 3.510000000000000000e+02
2.406105895036640518e+00 2.089256033203889640e+00 3.510000000000000000e+02
1.416434127536632559e+00 1.079033388133304072e+00 3.510000000000000000e+02
4.267623600366247660e-01 6.881074306271872665e-02 3.510000000000000000e+02
-5.629094074633832490e-01 -9.414119020078669520e-01 3.510000000000000000e+02
-1.552581174963391319e+00 -1.951634547078452186e+00 3.510000000000000000e+02
-2.542252942463399723e+00 -2.961857192149037754e+00 3.510000000000000000e+02
-3.531924709963407238e+00 -3.972079837219622878e+00 3.510000000000000000e+02
-4.521596477463414310e+00 -4.982302482290209333e+00 3.510000000000000000e+02
5.375121197536665285e+00 5.119923968415646343e+00 3.520000000000000000e+02
4.385449430036657326e+00 4.109701323345060331e+00 3.520000000000000000e+02
3.395777662536648478e+00 3.099478678274475651e+00 3.520000000000000000e+02
2.406105895036640518e+00 2.089256033203889640e+00 3.520000000000000000e+02
1.416434127536632559e+00 1.079033388133304072e+00 3.520000000000000000e+02
4.267623600366247660e-01 6.881074306271872665e-02 3.520000000000000000e+02
-5.629094074633832490e-01 -9.414119020078669520e-01 3.520000000000000000e+02
-1.552581174963391319e+00 -1.951634547078452186e+00 3.520000000000000000e+02
-2.542252942463399723e+00 -2.961857192149037754e+00 3.520000000000000000e+02
-3.531924709963407238e+00 -3.972079837219622878e+00 3.520000000000000000e+02
-4.521596477463414310e+00 -4.982302482290209333e+00 3.520000000000000000e+02
4.375173991251368300e+00 5.109648529630358205e+00 3.530000000000000000e+02
3.385502223751359452e+00 4.099425884559772193e+00 3.530000000000000000e+02
2.395830456251351936e+00 3.089203239489187069e+00 3.530000000000000000e+02
1.406158688751343755e+00 2.078980594418601058e+00 3.530000000000000000e+02
4.164869212513359620e-01 1.068757949348015490e+00 3.530000000000000000e+02
-5.731848462486720530e-01 5.853530427742992259e-02 3.530000000000000000e+02
-1.562856613748680124e+00 -9.516873407931557560e-01 3.530000000000000000e+02
-2.552528381248688305e+00 -1.961909985863741213e+00 3.530000000000000000e+02
-3.542200148748696265e+00 -2.972132630934326336e+00 3.530000000000000000e+02
-4.531871916248703336e+00 -3.982355276004911904e+00 3.530000000000000000e+02
4.375173991251368300e+00 5.109648529630358205e+00 3.540000000000000000e+02
3.385502223751359452e+00 4.099425884559772193e+00 3.540000000000000000e+02
2.395830456251351936e+00 3.089203239489187069e+00 3.540000000000000000e+02
1.406158688751343755e+00 2.078980594418601058e+00 3.540000000000000000e+02
4.164869212513359620e-01 1.068757949348015490e+00 3.540000000000000000e+02
-5.731848462486720530e-01 5.853530427742992259e-02 3.540000000000000000e+02
-1.562856613748680124e+00 -9.516873407931557560e-01 3.540000000000000000e+02
-2.552528381248688305e+00 -1.961909985863741213e+00 3.540000000000000000e+02
-3.542200148748696265e+00 -2.972132630934326336e+00 3.540000000000000000e+02
-4.531871916248703336e+00 -3.982355276004911904e+00 3.540000000000000000e+02
-5.521543683748711295e+00 -4.992577921075498359e+00 3.540000000000000000e+02
4.375173991251368300e+00 5.109648529630358205e+00 3.550000000000000000e+02
3.385502223751359452e+00 4.099425884559772193e+00 3.550000000000000000e+02
2.395830456251351936e+00 3.089203239489187069e+00 3.550000000000000000e+02
1.406158688751343755e+00 2.078980594418601058e+00 3.550000000000000000e+02
4.164869212513359620e-01 1.068757949348015490e+00 3.550000000000000000e+02
-5.731848462486720530e-01 5.853530427742992259e-02 3.550000000000000000e+02
-1.562856613748680124e+00 -9.516873407931557560e-01 3.550000000000000000e+02
-2.552528381248688305e+00 -1.961909985863741213e+00 3.550000000000000000e+02
-3.542200148748696265e+00 -2.972132630934326336e+00 3.550000000000000000e+02
-4.531871916248703336e+00 -3.982355276004911904e+00 3.550000000000000000e+02
-5.521543683748711295e+00 -4.992577921075498359e+00 3.550000000000000000e+02
5.375121197536665285e+00 5.119923968415646343e+00 3.560000000000000000e+02
4.385449430036657326e+00 4.109701323345060331e+00 3.560000000000000000e+02
3.395777662536648478e+00 3.099478678274475651e+00 3.560000000000000000e+02
2.406105895036640518e+00 2.089256033203889640e+00 3.560000000000000000e+02
1.416434127536632559e+00 1.079033388133304072e+00 3.560000000000000000e+02
4.267623600366247660e-01 6.881074306271872665e-02 3.560000000000000000e+02
-5.629094074633832490e-01 -9.414119020078669520e-01 3.560000000000000000e+02
-1.552581174963391319e+00 -1.951634547078452186e+00 3.560000000000000000e+02
-2.542252942463399723e+00 -2.961857192149037754e+00 3.560000000000000000e+02
-3.531924709963407238e+00 -3.972079837219622878e+00 3.560000000000000000e+02
-4.521596477463414310e+00 -4.982302482290209333e+00 3.560000000000000000e+02
5.375121197536665285e+00 5.119923968415646343e+00 3.570000000000000000e+02
4.385449430036657326e+00 4.109701323345060331e+00 3.570000000000000000e+02
3.395777662536648478e+00 3.099478678274475651e+00 3.570000000000000000e+02
2.406105895036640518e+00 2.089256033203889640e+00 3.570000000000000000e+02
1.416434127536632559e+00 1.079033388133304072e+00 3.570000000000000000e+02
4.267623600366247660e-01 6.881074306271872665e-02 3.570000000000000000e+02
-5.629094074633832490e-01 -9.414119020078669520e-01 3.570000000000000000e+02
-1.552581174963391319e+00 -1.951634547078452186e+00 3.570000000000000000e+02
-2.542252942463399723e+00 -2.961857192149037754e+00 3.570000000000000000e+02
-3.531924709963407238e+00 -3.972079837219622878e+00 3.570000000000000000e+02
-4.521596477463414310e+00 -4.982302482290209333e+00 3.570000000000000000e+02
4.375173991251368300e+00 5.109648529630358205e+00 3.580000000000000000e+02
3.385502223751359452e+00 4.099425884559772193e+00 3.580000000000000000e+02
2.395830456251351936e+00 3.089203239489187069e+00 3.580000000000000000e+02
1.406158688751343755e+00 2.078980594418601058e+00 3.580000000000000000e+02
4.164869212513359620e-01 1.068757949348015490e+00 3.580000000000000000e+02
-5.731848462486720530e-01 5.853530427742992259e-02 3.580000000000000000e+02
-1.562856613748680124e+00 -9.516873407931557560e-01 3.580000000000000000e+02
-2.552528381248688305e+00 -1.961909985863741213e+00 3.580000000000000000e+02
-3.542200148748696265e+00 -2.972132630934326336e+00 3.580000000000000000e+02
-4.531871916248703336e+00 -3.982355276004911904e+00 3.580000000000000000e+02
4.375173991251368300e+00 5.109648529630358205e+00 3.590000000000000000e+02
3.385502223751359452e+00 4.099425884559772193e+00 3.590000000000000000e+02
2.395830456251351936e+00 3.089203239489187069e+00 3.590000000000000000e+02
1.406158688751343755e+00 2.078980594418601058e+00 3.590000000000000000e+02
4.164869212513359620e-01 1.068757949348015490e+00 3.590000000000000000e+02
-5.731848462486720530e-01 5.853530427742992259e-02 3.590000000000000000e+02
-1.562856613748680124e+00 -9.516873407931557560e-01 3.590000000000000000e+02
-2.552528381248688305e+00 -1.961909985863741213e+00 3.590000000000000000e+02
-3.542200148748696265e+00 -2.972132630934326336e+00 3.590000000000000000e+02
-4.531871916248703336e+00 -3.982355276004911904e+00 3.590000000000000000e+02
4.375173991251368300e+00 5.109648529630358205e+00 3.600000000000000000e+02
3.385502223751359452e+00 4.099425884559772193e+00 3.600000000000000000e+02
2.395830456251351936e+00 3.089203239489187069e+00 3.600000000000000000e+02
1.406158688751343755e+00 2.078980594418601058e+00 3.600000000000000000e+02
4.164869212513359620e-01 1.068757949348015490e+00 3.600000000000000000e+02
-5.731848462486720530e-01 5.853530427742992259e-02 3.600000000000000000e+02
-1.562856613748680124e+00 -9.516873407931557560e-01 3.600000000000000000e+02
-2.552528381248688305e+00 -1.961909985863741213e+00 3.600000000000000000e+02
-3.542200148748696265e+00 -2.972132630934326336e+00 3.600000000000000000e+02
-4.531871916248703336e+00 -3.982355276004911904e+00 3.600000000000000000e+02
4.375173991251368300e+00 5.109648529630358205e+00 3.610000000000000000e+02
3.385502223751359452e+00 4.099425884559772193e+00 3.610000000000000000e+02
2.395830456251351936e+00 3.089203239489187069e+00 3.610000000000000000e+02
1.406158688751343755e+00 2.078980594418601058e+00 3.610000000000000000e+02
4.164869212513359620e-01 1.068757949348015490e+00 3.610000000000000000e+02
-5.731848462486720530e-01 5.853530427742992259e-02 3.610000000000000000e+02
-1.562856613748680124e+00 -9.516873407931557560e-01 3.610000000000000000e+02
-2.552528381248688305e+00 -1.961909985863741213e+00 3.610000000000000000e+02
-3.542200148748696265e+00 -2.972132630934326336e+00 3.610000000000000000e+02
-4.531871916248703336e+00 -3.982355276004911904e+00 3.610000000000000000e+02
4.375173991251368300e+00 5.109648529630358205e+00 3.620000000000000000e+02
3.385502223751359452e+00 4.099425884559772193e+00 3.620000000000000000e+02
2.395830456251351936e+00 3.089203239489187069e+00 3.620000000000000000e+02
1.406158688751343755e+00 2.078980594418601058e+00 3.620000000000000000e+02
4.164869212513359620e-01 1.068757949348015490e+00 3.620000000000000000e+02
-5.731848462486720530e-01 5.853530427742992259e-02 3.620000000000000000e+02
-1.562856613748680124e+00 -9.516873407931557560e-01 3.620000000000000000e+02
-2.552528381248688305e+00 -1.961909985863741213e+00 3.620000000000000000e+02
-3.542200148748696265e+00 -2.972132630934326336e+00 3.620000000000000000e+02
-4.531871916248703336e+00 -3.982355276004911904e+00 3.620000000000000000e+02
4.375173991251368300e+00 5.109648529630358205e+00 3.630000000000000000e+02
3.385502223751359452e+00 4.099425884559772193e+00 3.630000000000000000e+02
2.395830456251351936e+00 3.089203239489187069e+00 3.630000000000000000e+02
1.406158688751343755e+00 2.078980594418601058e+00 3.630000000000000000e+02
4.164869212513359620e-01 1.068757949348015490e+00 3.630000000000000000e+02
-5.731848462486720530e-01 5.853530427742992259e-02 3.630000000000000000e+02
-1.562856613748680124e+00 -9.516873407931557560e-01 3.630000000000000000e+02
-2.552528381248688305e+00 -1.961909985863741213e+00 3.630000000000000000e+02
-3.542200148748696265e+00 -2.972132630934326336e+00 3.630000000000000000e+02
-4.531871916248703336e+00 -3.982355276004911904e+00 3.630000000000000000e+02
4.375173991251368300e+00 5.109648529630358205e+00 3.640000000000000000e+02
3.385502223751359452e+00 4.099425884559772193e+00 3.640000000000000000e+02
2.395830456251351936e+00 3.089203239489187069e+00 3.640000000000000000e+02
1.406158688751343755e+00 2.078980594418601058e+00 3.640000000000000000e+02
4.164869212513359620e-01 1.068757949348015490e+00 3.640000000000000000e+02
-5.731848462486720530e-01 5.853530427742992259e-02 3.640000000000000000e+02
-1.562856613748680124e+00 -9.516873407931557560e-01 3.640000000000000000e+02
-2.552528381248688305e+00 -1.961909985863741213e+00 3.640000000000000000e+02
-3.542200148748696265e+00 -2.972132630934326336e+00 3.640000000000000000e+02
-4.531871916248703336e+00 -3.982355276004911904e+00 3.640000000000000000e+02
5.375121197536665285e+00 5.119923968415646343e+00 3.650000000000000000e+02
4.385449430036657326e+00 4.109701323345060331e+00 3.650000000000000000e+02
3.395777662536648478e+00 3.099478678274475651e+00 3.650000000000000000e+02
2.406105895036640518e+00 2.089256033203889640e+00 3.650000000000000000e+02
1.416434127536632559e+00 1.079033388133304072e+00 3.650000000000000000e+02
4.267623600366247660e-01 6.881074306271872665e-02 3.650000000000000000e+02
-5.629094074633832490e-01 -9.414119020078669520e-01 3.650000000000000000e+02
-1.552581174963391319e+00 -1.951634547078452186e+00 3.650000000000000000e+02
-2.542252942463399723e+00 -2.961857192149037754e+00 3.650000000000000000e+02
-3.531924709963407238e+00 -3.972079837219622878e+00 3.650000000000000000e+02
-4.521596477463414310e+00 -4.982302482290209333e+00 3.650000000000000000e+02
4.375173991251368300e+00 5.109648529630358205e+00 3.660000000000000000e+02
3.385502223751359452e+00 4.099425884559772193e+00 3.660000000000000000e+02
2.395830456251351936e+00 3.089203239489187069e+00 3.660000000000000000e+02
1.406158688751343755e+00 2.078980594418601058e+00 3.660000000000000000e+02
4.164869212513359620e-01 1.068757949348015490e+00 3.660000000000000000e+02
-5.731848462486720530e-01 5.853530427742992259e-02 3.660000000000000000e+02
-1.562856613748680124e+00 -9.516873407931557560e-01 3.660000000000000000e+02
-2.552528381248688305e+00 -1.961909985863741213e+00 3.660000000000000000e+02
-3.542200148748696265e+00 -2.972132630934326336e+00 3.660000000000000000e+02
-4.531871916248703336e+00 -3.982355276004911904e+00 3.660000000000000000e+02
4.375173991251368300e+00 5.109648529630358205e+00 3.670000000000000000e+02
3.385502223751359452e+00 4.099425884559772193e+00 3.670000000000000000e+02
2.395830456251351936e+00 3.089203239489187069e+00 3.670000000000000000e+02
1.406158688751343755e+00 2.078980594418601058e+00 3.670000000000000000e+02
4.164869212513359620e-01 1.068757949348015490e+00 3.670000000000000000e+02
-5.731848462486720530e-01 5.853530427742992259e-02 3.670000000000000000e+02
-1.562856613748680124e+00 -9.516873407931557560e-01 3.670000000000000000e+02
-2.552528381248688305e+00 -1.961909985863741213e+00 3.670000000000000000e+02
-3.542200148748696265e+00 -2.972132630934326336e+00 3.670000000000000000e+02
-4.531871916248703336e+00 -3.982355276004911904e+00 3.670000000000000000e+02
5.375121197536665285e+00 5.119923968415646343e+00 3.680000000000000000e+02
4.385449430036657326e+00 4.109701323345060331e+00 3.680000000000000000e+02
3.395777662536648478e+00 3.099478678274475651e+00 3.680000000000000000e+02
2.406105895036640518e+00 2.089256033203889640e+00 3.680000000000000000e+02
1.416434127536632559e+00 1.079033388133304072e+00 3.680000000000000000e+02
4.267623600366247660e-01 6.881074306271872665e-02 3.680000000000000000e+02
-5.629094074633832490e-01 -9.414119020078669520e-01 3.680000000000000000e+02
-1.552581174963391319e+00 -1.951634547078452186e+00 3.680000000000000000e+02
-2.542252942463399723e+00 -2.961857192149037754e+00 3.680000000000000000e+02
-3.531924709963407238e+00 -3.972079837219622878e+00 3.680000000000000000e+02
-4.521596477463414310e+00 -4.982302482290209333e+00 3.680000000000000000e+02
-5.511268244963423157e+00 -5.992525127360794457e+00 3.680000000000000000e+02
5.375121197536665285e+00 5.119923968415646343e+00 3.690000000000000000e+02
4.385449430036657326e+00 4.109701323345060331e+00 3.690000000000000000e+02
3.395777662536648478e+00 3.099478678274475651e+00 3.690000000000000000e+02
2.406105895036640518e+00 2.089256033203889640e+00 3.690000000000000000e+02
1.416434127536632559e+00 1.079033388133304072e+00 3.690000000000000000e+02
4.267623600366247660e-01 6.881074306271872665e-02 3.690000000000000000e+02
-5.629094074633832490e-01 -9.414119020078669520e-01 3.690000000000000000e+02
-1.552581174963391319e+00 -1.951634547078452186e+00 3.690000000000000000e+02
-2.542252942463399723e+00 -2.961857192149037754e+00 3.690000000000000000e+02
-3.531924709963407238e+00 -3.972079837219622878e+00 3.690000000000000000e+02
-4.521596477463414310e+00 -4.982302482290209333e+00 3.690000000000000000e+02
4.375173991251368300e+00 5.109648529630358205e+00 3.700000000000000000e+02
3.385502223751359452e+00 4.099425884559772193e+00 3.700000000000000000e+02
2.395830456251351936e+00 3.089203239489187069e+00 3.700000000000000000e+02
1.406158688751343755e+00 2.078980594418601058e+00 3.700000000000000000e+02
4.164869212513359620e-01 1.068757949348015490e+00 3.700000000000000000e+02
-5.731848462486720530e-01 5.853530427742992259e-02 3.700000000000000000e+02
-1.562856613748680124e+00 -9.516873407931557560e-01 3.700000000000000000e+02
-2.552528381248688305e+00 -1.961909985863741213e+00 3.700000000000000000e+02
-3.542200148748696265e+00 -2.972132630934326336e+00 3.700000000000000000e+02
-4.531871916248703336e+00 -3.982355276004911904e+00 3.700000000000000000e+02
4.375173991251368300e+00 5.109648529630358205e+00 3.710000000000000000e+02
3.385502223751359452e+00 4.099425884559772193e+00 3.710000000000000000e+02
2.395830456251351936e+00 3.089203239489187069e+00 3.710000000000000000e+02
1.406158688751343755e+00 2.078980594418601058e+00 3.710000000000000000e+02
4.164869212513359620e-01 1.068757949348015490e+00 3.710000000000000000e+02
-5.731848462486720530e-01 5.853530427742992259e-02 3.710000000000000000e+02
-1.562856613748680124e+00 -9.516873407931557560e-01 3.710000000000000000e+02
-2.552528381248688305e+00 -1.961909985863741213e+00 3.710000000000000000e+02
-3.542200148748696265e+00 -2.972132630934326336e+00 3.710000000000000000e+02
-4.531871916248703336e+00 -3.982355276004911904e+00 3.710000000000000000e+02
4.375173991251368300e+00 5.109648529630358205e+00 3.720000000000000000e+02
3.385502223751359452e+00 4.099425884559772193e+00 3.720000000000000000e+02
2.395830456251351936e+00 3.089203239489187069e+00 3.720000000000000000e+02
1.406158688751343755e+00 2.078980594418601058e+00 3.720000000000000000e+02
4.164869212513359620e-01 1.068757949348015490e+00 3.720000000000000000e+02
-5.731848462486720530e-01 5.853530427742992259e-02 3.720000000000000000e+02
-1.562856613748680124e+00 -9.516873407931557560e-01 3.720000000000000000e+02
-2.552528381248688305e+00 -1.961909985863741213e+00 3.720000000000000000e+02
-3.542200148748696265e+00 -2.972132630934326336e+00 3.720000000000000000e+02
-4.531871916248703336e+00 -3.982355276004911904e+00 3.720000000000000000e+02
3.375226784966070870e+00 5.099373090845069179e+00 3.730000000000000000e+02
2.385555017466062910e+00 4.089150445774483167e+00 3.730000000000000000e+02
1.395883249966054951e+00 3.078927800703898043e+00 3.730000000000000000e+02
