4.800126718236146672e+00 -5.144094845457716225e+00 3.150000000000000000e+02
6.209941141151001709e+00 -5.032635018877677169e+00 3.150000000000000000e+02
7.619755564065857634e+00 -4.921175192297637224e+00 3.150000000000000000e+02
-8.391309734232761386e-01 -5.589934151777873339e+00 3.160000000000000000e+02
5.706834494915793421e-01 -5.478474325197834283e+00 3.160000000000000000e+02
1.980497872406435045e+00 -5.367014498617795226e+00 3.160000000000000000e+02
3.390312295321290748e+00 -5.255554672037755282e+00 3.160000000000000000e+02
4.800126718236146672e+00 -5.144094845457716225e+00 3.160000000000000000e+02
6.209941141151001709e+00 -5.032635018877677169e+00 3.160000000000000000e+02
7.619755564065857634e+00 -4.921175192297637224e+00 3.160000000000000000e+02
-8.391309734232761386e-01 -5.589934151777873339e+00 3.170000000000000000e+02
5.706834494915793421e-01 -5.478474325197834283e+00 3.170000000000000000e+02
1.980497872406435045e+00 -5.367014498617795226e+00 3.170000000000000000e+02
3.390312295321290748e+00 -5.255554672037755282e+00 3.170000000000000000e+02
4.800126718236146672e+00 -5.144094845457716225e+00 3.170000000000000000e+02
6.209941141151001709e+00 -5.032635018877677169e+00 3.170000000000000000e+02
7.619755564065857634e+00 -4.921175192297637224e+00 3.170000000000000000e+02
9.029569986980714447e+00 -4.809715365717597280e+00 3.170000000000000000e+02
-8.391309734232761386e-01 -5.589934151777873339e+00 3.180000000000000000e+02
5.706834494915793421e-01 -5.478474325197834283e+00 3.180000000000000000e+02
1.980497872406435045e+00 -5.367014498617795226e+00 3.180000000000000000e+02
3.390312295321290748e+00 -5.255554672037755282e+00 3.180000000000000000e+02
4.800126718236146672e+00 -5.144094845457716225e+00 3.180000000000000000e+02
6.209941141151001709e+00 -5.032635018877677169e+00 3.180000000000000000e+02
7.619755564065857634e+00 -4.921175192297637224e+00 3.180000000000000000e+02
9.029569986980714447e+00 -4.809715365717597280e+00 3.180000000000000000e+02
-8.391309734232761386e-01 -5.589934151777873339e+00 3.190000000000000000e+02
5.706834494915793421e-01 -5.478474325197834283e+00 3.190000000000000000e+02
1.980497872406435045e+00 -5.367014498617795226e+00 3.190000000000000000e+02
3.390312295321290748e+00 -5.255554672037755282e+00 3.190000000000000000e+02
4.800126718236146672e+00 -5.144094845457716225e+00 3.190000000000000000e+02
6.209941141151001709e+00 -5.032635018877677169e+00 3.190000000000000000e+02
7.619755564065857634e+00 -4.921175192297637224e+00 3.190000000000000000e+02
9.029569986980714447e+00 -4.809715365717597280e+00 3.190000000000000000e+02
-8.391309734232761386e-01 -5.589934151777873339e+00 3.200000000000000000e+02
5.706834494915793421e-01 -5.478474325197834283e+00 3.200000000000000000e+02
1.980497872406435045e+00 -5.367014498617795226e+00 3.200000000000000000e+02
3.390312295321290748e+00 -5.255554672037755282e+00 3.200000000000000000e+02
4.800126718236146672e+00 -5.144094845457716225e+00 3.200000000000000000e+02
6.209941141151001709e+00 -5.032635018877677169e+00 3.200000000000000000e+02
7.619755564065857634e+00 -4.921175192297637224e+00 3.200000000000000000e+02
9.029569986980714447e+00 -4.809715365717597280e+00 3.200000000000000000e+02
-8.391309734232761386e-01 -5.589934151777873339e+00 3.210000000000000000e+02
5.706834494915793421e-01 -5.478474325197834283e+00 3.210000000000000000e+02
1.980497872406435045e+00 -5.367014498617795226e+00 3.210000000000000000e+02
3.390312295321290748e+00 -5.255554672037755282e+00 3.210000000000000000e+02
4.800126718236146672e+00 -5.144094845457716225e+00 3.210000000000000000e+02
6.209941141151001709e+00 -5.032635018877677169e+00 3.210000000000000000e+02
7.619755564065857634e+00 -4.921175192297637224e+00 3.210000000000000000e+02
9.029569986980714447e+00 -4.809715365717597280e+00 3.210000000000000000e+02
-8.391309734232761386e-01 -5.589934151777873339e+00 3.220000000000000000e+02
5.706834494915793421e-01 -5.478474325197834283e+00 3.220000000000000000e+02
1.980497872406435045e+00 -5.367014498617795226e+00 3.220000000000000000e+02
3.390312295321290748e+00 -5.255554672037755282e+00 3.220000000000000000e+02
4.800126718236146672e+00 -5.144094845457716225e+00 3.220000000000000000e+02
6.209941141151001709e+00 -5.032635018877677169e+00 3.220000000000000000e+02
7.619755564065857634e+00 -4.921175192297637224e+00 3.220000000000000000e+02
9.029569986980714447e+00 -4.809715365717597280e+00 3.220000000000000000e+02
-8.391309734232761386e-01 -5.589934151777873339e+00 3.230000000000000000e+02
5.706834494915793421e-01 -5.478474325197834283e+00 3.230000000000000000e+02
1.980497872406435045e+00 -5.367014498617795226e+00 3.230000000000000000e+02
3.390312295321290748e+00 -5.255554672037755282e+00 3.230000000000000000e+02
4.800126718236146672e+00 -5.144094845457716225e+00 3.230000000000000000e+02
6.209941141151001709e+00 -5.032635018877677169e+00 3.230000000000000000e+02
7.619755564065857634e+00 -4.921175192297637224e+00 3.230000000000000000e+02
9.029569986980714447e+00 -4.809715365717597280e+00 3.230000000000000000e+02
-8.391309734232761386e-01 -5.589934151777873339e+00 3.240000000000000000e+02
5.706834494915793421e-01 -5.478474325197834283e+00 3.240000000000000000e+02
1.980497872406435045e+00 -5.367014498617795226e+00 3.240000000000000000e+02
3.390312295321290748e+00 -5.255554672037755282e+00 3.240000000000000000e+02
4.800126718236146672e+00 -5.144094845457716225e+00 3.240000000000000000e+02
6.209941141151001709e+00 -5.032635018877677169e+00 3.240000000000000000e+02
7.619755564065857634e+00 -4.921175192297637224e+00 3.240000000000000000e+02
9.029569986980714447e+00 -4.809715365717597280e+00 3.240000000000000000e+02
-8.391309734232761386e-01 -5.589934151777873339e+00 3.250000000000000000e+02
5.706834494915793421e-01 -5.478474325197834283e+00 3.250000000000000000e+02
1.980497872406435045e+00 -5.367014498617795226e+00 3.250000000000000000e+02
3.390312295321290748e+00 -5.255554672037755282e+00 3.250000000000000000e+02
4.800126718236146672e+00 -5.144094845457716225e+00 3.250000000000000000e+02
6.209941141151001709e+00 -5.032635018877677169e+00 3.250000000000000000e+02
7.619755564065857634e+00 -4.921175192297637224e+00 3.250000000000000000e+02
9.029569986980714447e+00 -4.809715365717597280e+00 3.250000000000000000e+02
-8.391309734232761386e-01 -5.589934151777873339e+00 3.260000000000000000e+02
5.706834494915793421e-01 -5.478474325197834283e+00 3.260000000000000000e+02
1.980497872406435045e+00 -5.367014498617795226e+00 3.260000000000000000e+02
3.390312295321290748e+00 -5.255554672037755282e+00 3.260000000000000000e+02
4.800126718236146672e+00 -5.144094845457716225e+00 3.260000000000000000e+02
6.209941141151001709e+00 -5.032635018877677169e+00 3.260000000000000000e+02
7.619755564065857634e+00 -4.921175192297637224e+00 3.260000000000000000e+02
9.029569986980714447e+00 -4.809715365717597280e+00 3.260000000000000000e+02
-8.391309734232761386e-01 -5.589934151777873339e+00 3.270000000000000000e+02
5.706834494915793421e-01 -5.478474325197834283e+00 3.270000000000000000e+02
1.980497872406435045e+00 -5.367014498617795226e+00 3.270000000000000000e+02
3.390312295321290748e+00 -5.255554672037755282e+00 3.270000000000000000e+02
4.800126718236146672e+00 -5.144094845457716225e+00 3.270000000000000000e+02
6.209941141151001709e+00 -5.032635018877677169e+00 3.270000000000000000e+02
7.619755564065857634e+00 -4.921175192297637224e+00 3.270000000000000000e+02
9.029569986980714447e+00 -4.809715365717597280e+00 3.270000000000000000e+02
-8.391309734232761386e-01 -5.589934151777873339e+00 3.280000000000000000e+02
5.706834494915793421e-01 -5.478474325197834283e+00 3.280000000000000000e+02
1.980497872406435045e+00 -5.367014498617795226e+00 3.280000000000000000e+02
3.390312295321290748e+00 -5.255554672037755282e+00 3.280000000000000000e+02
4.800126718236146672e+00 -5.144094845457716225e+00 3.280000000000000000e+02
6.209941141151001709e+00 -5.032635018877677169e+00 3.280000000000000000e+02
7.619755564065857634e+00 -4.921175192297637224e+00 3.280000000000000000e+02
9.029569986980714447e+00 -4.809715365717597280e+00 3.280000000000000000e+02
-8.391309734232761386e-01 -5.589934151777873339e+00 3.290000000000000000e+02
5.706834494915793421e-01 -5.478474325197834283e+00 3.290000000000000000e+02
1.980497872406435045e+00 -5.367014498617795226e+00 3.290000000000000000e+02
3.390312295321290748e+00 -5.255554672037755282e+00 3.290000000000000000e+02
4.800126718236146672e+00 -5.144094845457716225e+00 3.290000000000000000e+02
6.209941141151001709e+00 -5.032635018877677169e+00 3.290000000000000000e+02
7.619755564065857634e+00 -4.921175192297637224e+00 3.290000000000000000e+02
9.029569986980714447e+00 -4.809715365717597280e+00 3.290000000000000000e+02
-8.391309734232761386e-01 -5.589934151777873339e+00 3.300000000000000000e+02
5.706834494915793421e-01 -5.478474325197834283e+00 3.300000000000000000e+02
1.980497872406435045e+00 -5.367014498617795226e+00 3.300000000000000000e+02
3.390312295321290748e+00 -5.255554672037755282e+00 3.300000000000000000e+02
4.800126718236146672e+00 -5.144094845457716225e+00 3.300000000000000000e+02
6.209941141151001709e+00 -5.032635018877677169e+00 3.300000000000000000e+02
7.619755564065857634e+00 -4.921175192297637224e+00 3.300000000000000000e+02
9.029569986980714447e+00 -4.809715365717597280e+00 3.300000000000000000e+02
-7.849384867582909209e-02 -6.239111449945282217e+00 3.310000000000000000e+02
1.331320574239026833e+00 -6.127651623365242273e+00 3.310000000000000000e+02
2.741134997153882757e+00 -6.016191796785203216e+00 3.310000000000000000e+02
4.150949420068737794e+00 -5.904731970205164160e+00 3.310000000000000000e+02
5.560763842983593719e+00 -5.793272143625124215e+00 3.310000000000000000e+02
6.970578265898449644e+00 -5.681812317045085159e+00 3.310000000000000000e+02
8.380392688813305568e+00 -5.570352490465045214e+00 3.310000000000000000e+02
-7.849384867582909209e-02 -6.239111449945282217e+00 3.320000000000000000e+02
1.331320574239026833e+00 -6.127651623365242273e+00 3.320000000000000000e+02
2.741134997153882757e+00 -6.016191796785203216e+00 3.320000000000000000e+02
4.150949420068737794e+00 -5.904731970205164160e+00 3.320000000000000000e+02
5.560763842983593719e+00 -5.793272143625124215e+00 3.320000000000000000e+02
6.970578265898449644e+00 -5.681812317045085159e+00 3.320000000000000000e+02
8.380392688813305568e+00 -5.570352490465045214e+00 3.320000000000000000e+02
-8.391309734232761386e-01 -5.589934151777873339e+00 3.330000000000000000e+02
5.706834494915793421e-01 -5.478474325197834283e+00 3.330000000000000000e+02
1.980497872406435045e+00 -5.367014498617795226e+00 3.330000000000000000e+02
3.390312295321290748e+00 -5.255554672037755282e+00 3.330000000000000000e+02
4.800126718236146672e+00 -5.144094845457716225e+00 3.330000000000000000e+02
6.209941141151001709e+00 -5.032635018877677169e+00 3.330000000000000000e+02
7.619755564065857634e+00 -4.921175192297637224e+00 3.330000000000000000e+02
9.029569986980714447e+00 -4.809715365717597280e+00 3.330000000000000000e+02
-8.391309734232761386e-01 -5.589934151777873339e+00 3.340000000000000000e+02
5.706834494915793421e-01 -5.478474325197834283e+00 3.340000000000000000e+02
1.980497872406435045e+00 -5.367014498617795226e+00 3.340000000000000000e+02
3.390312295321290748e+00 -5.255554672037755282e+00 3.340000000000000000e+02
4.800126718236146672e+00 -5.144094845457716225e+00 3.340000000000000000e+02
6.209941141151001709e+00 -5.032635018877677169e+00 3.340000000000000000e+02
7.619755564065857634e+00 -4.921175192297637224e+00 3.340000000000000000e+02
9.029569986980714447e+00 -4.809715365717597280e+00 3.340000000000000000e+02
-8.391309734232761386e-01 -5.589934151777873339e+00 3.350000000000000000e+02
5.706834494915793421e-01 -5.478474325197834283e+00 3.350000000000000000e+02
1.980497872406435045e+00 -5.367014498617795226e+00 3.350000000000000000e+02
3.390312295321290748e+00 -5.255554672037755282e+00 3.350000000000000000e+02
4.800126718236146672e+00 -5.144094845457716225e+00 3.350000000000000000e+02
6.209941141151001709e+00 -5.032635018877677169e+00 3.350000000000000000e+02
7.619755564065857634e+00 -4.921175192297637224e+00 3.350000000000000000e+02
9.029569986980714447e+00 -4.809715365717597280e+00 3.350000000000000000e+02
-8.391309734232761386e-01 -5.589934151777873339e+00 3.360000000000000000e+02
5.706834494915793421e-01 -5.478474325197834283e+00 3.360000000000000000e+02
1.980497872406435045e+00 -5.367014498617795226e+00 3.360000000000000000e+02
3.390312295321290748e+00 -5.255554672037755282e+00 3.360000000000000000e+02
4.800126718236146672e+00 -5.144094845457716225e+00 3.360000000000000000e+02
6.209941141151001709e+00 -5.032635018877677169e+00 3.360000000000000000e+02
7.619755564065857634e+00 -4.921175192297637224e+00 3.360000000000000000e+02
9.029569986980714447e+00 -4.809715365717597280e+00 3.360000000000000000e+02
-8.391309734232761386e-01 -5.589934151777873339e+00 3.370000000000000000e+02
5.706834494915793421e-01 -5.478474325197834283e+00 3.370000000000000000e+02
1.980497872406435045e+00 -5.367014498617795226e+00 3.370000000000000000e+02
3.390312295321290748e+00 -5.255554672037755282e+00 3.370000000000000000e+02
4.800126718236146672e+00 -5.144094845457716225e+00 3.370000000000000000e+02
6.209941141151001709e+00 -5.032635018877677169e+00 3.370000000000000000e+02
7.619755564065857634e+00 -4.921175192297637224e+00 3.370000000000000000e+02
9.029569986980714447e+00 -4.809715365717597280e+00 3.370000000000000000e+02
-8.391309734232761386e-01 -5.589934151777873339e+00 3.380000000000000000e+02
5.706834494915793421e-01 -5.478474325197834283e+00 3.380000000000000000e+02
1.980497872406435045e+00 -5.367014498617795226e+00 3.380000000000000000e+02
3.390312295321290748e+00 -5.255554672037755282e+00 3.380000000000000000e+02
4.800126718236146672e+00 -5.144094845457716225e+00 3.380000000000000000e+02
6.209941141151001709e+00 -5.032635018877677169e+00 3.380000000000000000e+02
7.619755564065857634e+00 -4.921175192297637224e+00 3.380000000000000000e+02
9.029569986980714447e+00 -4.809715365717597280e+00 3.380000000000000000e+02
-8.391309734232761386e-01 -5.589934151777873339e+00 3.390000000000000000e+02
5.706834494915793421e-01 -5.478474325197834283e+00 3.390000000000000000e+02
1.980497872406435045e+00 -5.367014498617795226e+00 3.390000000000000000e+02
3.390312295321290748e+00 -5.255554672037755282e+00 3.390000000000000000e+02
4.800126718236146672e+00 -5.144094845457716225e+00 3.390000000000000000e+02
6.209941141151001709e+00 -5.032635018877677169e+00 3.390000000000000000e+02
7.619755564065857634e+00 -4.921175192297637224e+00 3.390000000000000000e+02
9.029569986980714447e+00 -4.809715365717597280e+00 3.390000000000000000e+02
-8.391309734232761386e-01 -5.589934151777873339e+00 3.400000000000000000e+02
5.706834494915793421e-01 -5.478474325197834283e+00 3.400000000000000000e+02
1.980497872406435045e+00 -5.367014498617795226e+00 3.400000000000000000e+02
3.390312295321290748e+00 -5.255554672037755282e+00 3.400000000000000000e+02
4.800126718236146672e+00 -5.144094845457716225e+00 3.400000000000000000e+02
6.209941141151001709e+00 -5.032635018877677169e+00 3.400000000000000000e+02
7.619755564065857634e+00 -4.921175192297637224e+00 3.400000000000000000e+02
9.029569986980714447e+00 -4.809715365717597280e+00 3.400000000000000000e+02
-8.391309734232761386e-01 -5.589934151777873339e+00 3.410000000000000000e+02
5.706834494915793421e-01 -5.478474325197834283e+00 3.410000000000000000e+02
1.980497872406435045e+00 -5.367014498617795226e+00 3.410000000000000000e+02
3.390312295321290748e+00 -5.255554672037755282e+00 3.410000000000000000e+02
4.800126718236146672e+00 -5.144094845457716225e+00 3.410000000000000000e+02
6.209941141151001709e+00 -5.032635018877677169e+00 3.410000000000000000e+02
7.619755564065857634e+00 -4.921175192297637224e+00 3.410000000000000000e+02
9.029569986980714447e+00 -4.809715365717597280e+00 3.410000000000000000e+02
-8.391309734232761386e-01 -5.589934151777873339e+00 3.420000000000000000e+02
5.706834494915793421e-01 -5.478474325197834283e+00 3.420000000000000000e+02
1.980497872406435045e+00 -5.367014498617795226e+00 3.420000000000000000e+02
3.390312295321290748e+00 -5.255554672037755282e+00 3.420000000000000000e+02
4.800126718236146672e+00 -5.144094845457716225e+00 3.420000000000000000e+02
6.209941141151001709e+00 -5.032635018877677169e+00 3.420000000000000000e+02
7.619755564065857634e+00 -4.921175192297637224e+00 3.420000000000000000e+02
9.029569986980714447e+00 -4.809715365717597280e+00 3.420000000000000000e+02
-8.391309734232761386e-01 -5.589934151777873339e+00 3.430000000000000000e+02
5.706834494915793421e-01 -5.478474325197834283e+00 3.430000000000000000e+02
1.980497872406435045e+00 -5.367014498617795226e+00 3.430000000000000000e+02
3.390312295321290748e+00 -5.255554672037755282e+00 3.430000000000000000e+02
4.800126718236146672e+00 -5.144094845457716225e+00 3.430000000000000000e+02
6.209941141151001709e+00 -5.032635018877677169e+00 3.430000000000000000e+02
7.619755564065857634e+00 -4.921175192297637224e+00 3.430000000000000000e+02
9.029569986980714447e+00 -4.809715365717597280e+00 3.430000000000000000e+02
-8.391309734232761386e-01 -5.589934151777873339e+00 3.440000000000000000e+02
5.706834494915793421e-01 -5.478474325197834283e+00 3.440000000000000000e+02
1.980497872406435045e+00 -5.367014498617795226e+00 3.440000000000000000e+02
3.390312295321290748e+00 -5.255554672037755282e+00 3.440000000000000000e+02
4.800126718236146672e+00 -5.144094845457716225e+00 3.440000000000000000e+02
6.209941141151001709e+00 -5.032635018877677169e+00 3.440000000000000000e+02
7.619755564065857634e+00 -4.921175192297637224e+00 3.440000000000000000e+02
9.029569986980714447e+00 -4.809715365717597280e+00 3.440000000000000000e+02
-8.391309734232761386e-01 -5.589934151777873339e+00 3.450000000000000000e+02
5.706834494915793421e-01 -5.478474325197834283e+00 3.450000000000000000e+02
1.980497872406435045e+00 -5.367014498617795226e+00 3.450000000000000000e+02
3.390312295321290748e+00 -5.255554672037755282e+00 3.450000000000000000e+02
4.800126718236146672e+00 -5.144094845457716225e+00 3.450000000000000000e+02
6.209941141151001709e+00 -5.032635018877677169e+00 3.450000000000000000e+02
7.619755564065857634e+00 -4.921175192297637224e+00 3.450000000000000000e+02
9.029569986980714447e+00 -4.809715365717597280e+00 3.450000000000000000e+02
-8.391309734232761386e-01 -5.589934151777873339e+00 3.460000000000000000e+02
5.706834494915793421e-01 -5.478474325197834283e+00 3.460000000000000000e+02
1.980497872406435045e+00 -5.367014498617795226e+00 3.460000000000000000e+02
3.390312295321290748e+00 -5.255554672037755282e+00 3.460000000000000000e+02
4.800126718236146672e+00 -5.144094845457716225e+00 3.460000000000000000e+02
6.209941141151001709e+00 -5.032635018877677169e+00 3.460000000000000000e+02
7.619755564065857634e+00 -4.921175192297637224e+00 3.460000000000000000e+02
9.029569986980714447e+00 -4.809715365717597280e+00 3.460000000000000000e+02
-8.391309734232761386e-01 -5.589934151777873339e+00 3.470000000000000000e+02
5.706834494915793421e-01 -5.478474325197834283e+00 3.470000000000000000e+02
1.980497872406435045e+00 -5.367014498617795226e+00 3.470000000000000000e+02
3.390312295321290748e+00 -5.255554672037755282e+00 3.470000000000000000e+02
4.800126718236146672e+00 -5.144094845457716225e+00 3.470000000000000000e+02
6.209941141151001709e+00 -5.032635018877677169e+00 3.470000000000000000e+02
7.619755564065857634e+00 -4.921175192297637224e+00 3.470000000000000000e+02
9.029569986980714447e+00 -4.809715365717597280e+00 3.470000000000000000e+02
-8.391309734232761386e-01 -5.589934151777873339e+00 3.480000000000000000e+02
5.706834494915793421e-01 -5.478474325197834283e+00 3.480000000000000000e+02
1.980497872406435045e+00 -5.367014498617795226e+00 3.480000000000000000e+02
3.390312295321290748e+00 -5.255554672037755282e+00 3.480000000000000000e+02
4.800126718236146672e+00 -5.144094845457716225e+00 3.480000000000000000e+02
6.209941141151001709e+00 -5.032635018877677169e+00 3.480000000000000000e+02
7.619755564065857634e+00 -4.921175192297637224e+00 3.480000000000000000e+02
9.029569986980714447e+00 -4.809715365717597280e+00 3.480000000000000000e+02
-8.391309734232761386e-01 -5.589934151777873339e+00 3.490000000000000000e+02
5.706834494915793421e-01 -5.478474325197834283e+00 3.490000000000000000e+02
1.980497872406435045e+00 -5.367014498617795226e+00 3.490000000000000000e+02
3.390312295321290748e+00 -5.255554672037755282e+00 3.490000000000000000e+02
4.800126718236146672e+00 -5.144094845457716225e+00 3.490000000000000000e+02
6.209941141151001709e+00 -5.032635018877677169e+00 3.490000000000000000e+02
7.619755564065857634e+00 -4.921175192297637224e+00 3.490000000000000000e+02
9.029569986980714447e+00 -4.809715365717597280e+00 3.490000000000000000e+02
-8.391309734232761386e-01 -5.589934151777873339e+00 3.500000000000000000e+02
5.706834494915793421e-01 -5.478474325197834283e+00 3.500000000000000000e+02
1.980497872406435045e+00 -5.367014498617795226e+00 3.500000000000000000e+02
3.390312295321290748e+00 -5.255554672037755282e+00 3.500000000000000000e+02
4.800126718236146672e+00 -5.144094845457716225e+00 3.500000000000000000e+02
6.209941141151001709e+00 -5.032635018877677169e+00 3.500000000000000000e+02
7.619755564065857634e+00 -4.921175192297637224e+00 3.500000000000000000e+02
9.029569986980714447e+00 -4.809715365717597280e+00 3.500000000000000000e+02
-8.391309734232761386e-01 -5.589934151777873339e+00 3.510000000000000000e+02
5.706834494915793421e-01 -5.478474325197834283e+00 3.510000000000000000e+02
1.980497872406435045e+00 -5.367014498617795226e+00 3.510000000000000000e+02
3.390312295321290748e+00 -5.255554672037755282e+00 3.510000000000000000e+02
4.800126718236146672e+00 -5.144094845457716225e+00 3.510000000000000000e+02
6.209941141151001709e+00 -5.032635018877677169e+00 3.510000000000000000e+02
7.619755564065857634e+00 -4.921175192297637224e+00 3.510000000000000000e+02
9.029569986980714447e+00 -4.809715365717597280e+00 3.510000000000000000e+02
-8.391309734232761386e-01 -5.589934151777873339e+00 3.520000000000000000e+02
5.706834494915793421e-01 -5.478474325197834283e+00 3.520000000000000000e+02
1.980497872406435045e+00 -5.367014498617795226e+00 3.520000000000000000e+02
3.390312295321290748e+00 -5.255554672037755282e+00 3.520000000000000000e+02
4.800126718236146672e+00 -5.144094845457716225e+00 3.520000000000000000e+02
6.209941141151001709e+00 -5.032635018877677169e+00 3.520000000000000000e+02
7.619755564065857634e+00 -4.921175192297637224e+00 3.520000000000000000e+02
9.029569986980714447e+00 -4.809715365717597280e+00 3.520000000000000000e+02
-8.391309734232761386e-01 -5.589934151777873339e+00 3.530000000000000000e+02
5.706834494915793421e-01 -5.478474325197834283e+00 3.530000000000000000e+02
1.980497872406435045e+00 -5.367014498617795226e+00 3.530000000000000000e+02
3.390312295321290748e+00 -5.255554672037755282e+00 3.530000000000000000e+02
4.800126718236146672e+00 -5.144094845457716225e+00 3.530000000000000000e+02
6.209941141151001709e+00 -5.032635018877677169e+00 3.530000000000000000e+02
7.619755564065857634e+00 -4.921175192297637224e+00 3.530000000000000000e+02
9.029569986980714447e+00 -4.809715365717597280e+00 3.530000000000000000e+02
-8.391309734232761386e-01 -5.589934151777873339e+00 3.540000000000000000e+02
5.706834494915793421e-01 -5.478474325197834283e+00 3.540000000000000000e+02
1.980497872406435045e+00 -5.367014498617795226e+00 3.540000000000000000e+02
3.390312295321290748e+00 -5.255554672037755282e+00 3.540000000000000000e+02
4.800126718236146672e+00 -5.144094845457716225e+00 3.540000000000000000e+02
6.209941141151001709e+00 -5.032635018877677169e+00 3.540000000000000000e+02
7.619755564065857634e+00 -4.921175192297637224e+00 3.540000000000000000e+02
9.029569986980714447e+00 -4.809715365717597280e+00 3.540000000000000000e+02
-8.391309734232761386e-01 -5.589934151777873339e+00 3.550000000000000000e+02
5.706834494915793421e-01 -5.478474325197834283e+00 3.550000000000000000e+02
1.980497872406435045e+00 -5.367014498617795226e+00 3.550000000000000000e+02
3.390312295321290748e+00 -5.255554672037755282e+00 3.550000000000000000e+02
4.800126718236146672e+00 -5.144094845457716225e+00 3.550000000000000000e+02
6.209941141151001709e+00 -5.032635018877677169e+00 3.550000000000000000e+02
7.619755564065857634e+00 -4.921175192297637224e+00 3.550000000000000000e+02
9.029569986980714447e+00 -4.809715365717597280e+00 3.550000000000000000e+02
-8.391309734232761386e-01 -5.589934151777873339e+00 3.560000000000000000e+02
5.706834494915793421e-01 -5.478474325197834283e+00 3.560000000000000000e+02
1.980497872406435045e+00 -5.367014498617795226e+00 3.560000000000000000e+02
3.390312295321290748e+00 -5.255554672037755282e+00 3.560000000000000000e+02
4.800126718236146672e+00 -5.144094845457716225e+00 3.560000000000000000e+02
6.209941141151001709e+00 -5.032635018877677169e+00 3.560000000000000000e+02
7.619755564065857634e+00 -4.921175192297637224e+00 3.560000000000000000e+02
9.029569986980714447e+00 -4.809715365717597280e+00 3.560000000000000000e+02
-8.391309734232761386e-01 -5.589934151777873339e+00 3.570000000000000000e+02
5.706834494915793421e-01 -5.478474325197834283e+00 3.570000000000000000e+02
1.980497872406435045e+00 -5.367014498617795226e+00 3.570000000000000000e+02
3.390312295321290748e+00 -5.255554672037755282e+00 3.570000000000000000e+02
4.800126718236146672e+00 -5.144094845457716225e+00 3.570000000000000000e+02
6.209941141151001709e+00 -5.032635018877677169e+00 3.570000000000000000e+02
7.619755564065857634e+00 -4.921175192297637224e+00 3.570000000000000000e+02
9.029569986980714447e+00 -4.809715365717597280e+00 3.570000000000000000e+02
-8.391309734232761386e-01 -5.589934151777873339e+00 3.580000000000000000e+02
5.706834494915793421e-01 -5.478474325197834283e+00 3.580000000000000000e+02
1.980497872406435045e+00 -5.367014498617795226e+00 3.580000000000000000e+02
3.390312295321290748e+00 -5.255554672037755282e+00 3.580000000000000000e+02
4.800126718236146672e+00 -5.144094845457716225e+00 3.580000000000000000e+02
6.209941141151001709e+00 -5.032635018877677169e+00 3.580000000000000000e+02
7.619755564065857634e+00 -4.921175192297637224e+00 3.580000000000000000e+02
9.029569986980714447e+00 -4.809715365717597280e+00 3.580000000000000000e+02
-7.849384867582909209e-02 -6.239111449945282217e+00 3.590000000000000000e+02
1.331320574239026833e+00 -6.127651623365242273e+00 3.590000000000000000e+02
2.741134997153882757e+00 -6.016191796785203216e+00 3.590000000000000000e+02
4.150949420068737794e+00 -5.904731970205164160e+00 3.590000000000000000e+02
5.560763842983593719e+00 -5.793272143625124215e+00 3.590000000000000000e+02
6.970578265898449644e+00 -5.681812317045085159e+00 3.590000000000000000e+02
8.380392688813305568e+00 -5.570352490465045214e+00 3.590000000000000000e+02
-8.391309734232761386e-01 -5.589934151777873339e+00 3.600000000000000000e+02
5.706834494915793421e-01 -5.478474325197834283e+00 3.600000000000000000e+02
1.980497872406435045e+00 -5.367014498617795226e+00 3.600000000000000000e+02
3.390312295321290748e+00 -5.255554672037755282e+00 3.600000000000000000e+02
4.800126718236146672e+00 -5.144094845457716225e+00 3.600000000000000000e+02
6.209941141151001709e+00 -5.032635018877677169e+00 3.600000000000000000e+02
7.619755564065857634e+00 -4.921175192297637224e+00 3.600000000000000000e+02
9.029569986980714447e+00 -4.809715365717597280e+00 3.600000000000000000e+02
-8.391309734232761386e-01 -5.589934151777873339e+00 3.610000000000000000e+02
5.706834494915793421e-01 -5.478474325197834283e+00 3.610000000000000000e+02
1.980497872406435045e+00 -5.367014498617795226e+00 3.610000000000000000e+02
3.390312295321290748e+00 -5.255554672037755282e+00 3.610000000000000000e+02
4.800126718236146672e+00 -5.144094845457716225e+00 3.610000000000000000e+02
6.209941141151001709e+00 -5.032635018877677169e+00 3.610000000000000000e+02
7.619755564065857634e+00 -4.921175192297637224e+00 3.610000000000000000e+02
9.029569986980714447e+00 -4.809715365717597280e+00 3.610000000000000000e+02
-8.391309734232761386e-01 -5.589934151777873339e+00 3.620000000000000000e+02
5.706834494915793421e-01 -5.478474325197834283e+00 3.620000000000000000e+02
1.980497872406435045e+00 -5.367014498617795226e+00 3.620000000000000000e+02
3.390312295321290748e+00 -5.255554672037755282e+00 3.620000000000000000e+02
4.800126718236146672e+00 -5.144094845457716225e+00 3.620000000000000000e+02
6.209941141151001709e+00 -5.032635018877677169e+00 3.620000000000000000e+02
7.619755564065857634e+00 -4.921175192297637224e+00 3.620000000000000000e+02
9.029569986980714447e+00 -4.809715365717597280e+00 3.620000000000000000e+02
-8.391309734232761386e-01 -5.589934151777873339e+00 3.630000000000000000e+02
5.706834494915793421e-01 -5.478474325197834283e+00 3.630000000000000000e+02
1.980497872406435045e+00 -5.367014498617795226e+00 3.630000000000000000e+02
3.390312295321290748e+00 -5.255554672037755282e+00 3.630000000000000000e+02
4.800126718236146672e+00 -5.144094845457716225e+00 3.630000000000000000e+02
6.209941141151001709e+00 -5.032635018877677169e+00 3.630000000000000000e+02
7.619755564065857634e+00 -4.921175192297637224e+00 3.630000000000000000e+02
9.029569986980714447e+00 -4.809715365717597280e+00 3.630000000000000000e+02
-8.391309734232761386e-01 -5.589934151777873339e+00 3.640000000000000000e+02
5.706834494915793421e-01 -5.478474325197834283e+00 3.640000000000000000e+02
1.980497872406435045e+00 -5.367014498617795226e+00 3.640000000000000000e+02
3.390312295321290748e+00 -5.255554672037755282e+00 3.640000000000000000e+02
4.800126718236146672e+00 -5.144094845457716225e+00 3.640000000000000000e+02
6.209941141151001709e+00 -5.032635018877677169e+00 3.640000000000000000e+02
7.619755564065857634e+00 -4.921175192297637224e+00 3.640000000000000000e+02
9.029569986980714447e+00 -4.809715365717597280e+00 3.640000000000000000e+02
-8.391309734232761386e-01 -5.589934151777873339e+00 3.650000000000000000e+02
5.706834494915793421e-01 -5.478474325197834283e+00 3.650000000000000000e+02
1.980497872406435045e+00 -5.367014498617795226e+00 3.650000000000000000e+02
3.390312295321290748e+00 -5.255554672037755282e+00 3.650000000000000000e+02
4.800126718236146672e+00 -5.144094845457716225e+00 3.650000000000000000e+02
6.209941141151001709e+00 -5.032635018877677169e+00 3.650000000000000000e+02
7.619755564065857634e+00 -4.921175192297637224e+00 3.650000000000000000e+02
9.029569986980714447e+00 -4.809715365717597280e+00 3.650000000000000000e+02
-8.391309734232761386e-01 -5.589934151777873339e+00 3.660000000000000000e+02
5.706834494915793421e-01 -5.478474325197834283e+00 3.660000000000000000e+02
1.980497872406435045e+00 -5.367014498617795226e+00 3.660000000000000000e+02
3.390312295321290748e+00 -5.255554672037755282e+00 3.660000000000000000e+02
4.800126718236146672e+00 -5.144094845457716225e+00 3.660000000000000000e+02
6.209941141151001709e+00 -5.032635018877677169e+00 3.660000000000000000e+02
7.619755564065857634e+00 -4.921175192297637224e+00 3.660000000000000000e+02
9.029569986980714447e+00 -4.809715365717597280e+00 3.660000000000000000e+02
-8.391309734232761386e-01 -5.589934151777873339e+00 3.670000000000000000e+02
5.706834494915793421e-01 -5.478474325197834283e+00 3.670000000000000000e+02
1.980497872406435045e+00 -5.367014498617795226e+00 3.670000000000000000e+02
3.390312295321290748e+00 -5.255554672037755282e+00 3.670000000000000000e+02
4.800126718236146672e+00 -5.144094845457716225e+00 3.670000000000000000e+02
6.209941141151001709e+00 -5.032635018877677169e+00 3.670000000000000000e+02
7.619755564065857634e+00 -4.921175192297637224e+00 3.670000000000000000e+02
9.029569986980714447e+00 -4.809715365717597280e+00 3.670000000000000000e+02
-8.391309734232761386e-01 -5.589934151777873339e+00 3.680000000000000000e+02
5.706834494915793421e-01 -5.478474325197834283e+00 3.680000000000000000e+02
1.980497872406435045e+00 -5.367014498617795226e+00 3.680000000000000000e+02
3.390312295321290748e+00 -5.255554672037755282e+00 3.680000000000000000e+02
4.800126718236146672e+00 -5.144094845457716225e+00 3.680000000000000000e+02
6.209941141151001709e+00 -5.032635018877677169e+00 3.680000000000000000e+02
7.619755564065857634e+00 -4.921175192297637224e+00 3.680000000000000000e+02
9.029569986980714447e+00 -4.809715365717597280e+00 3.680000000000000000e+02
-8.391309734232761386e-01 -5.589934151777873339e+00 3.690000000000000000e+02
5.706834494915793421e-01 -5.478474325197834283e+00 3.690000000000000000e+02
1.980497872406435045e+00 -5.367014498617795226e+00 3.690000000000000000e+02
3.390312295321290748e+00 -5.255554672037755282e+00 3.690000000000000000e+02
4.800126718236146672e+00 -5.144094845457716225e+00 3.690000000000000000e+02
6.209941141151001709e+00 -5.032635018877677169e+00 3.690000000000000000e+02
7.619755564065857634e+00 -4.921175192297637224e+00 3.690000000000000000e+02
9.029569986980714447e+00 -4.809715365717597280e+00 3.690000000000000000e+02
-1.599768098170723185e+00 -4.940756853610465349e+00 3.700000000000000000e+02
-1.899536752558681485e-01 -4.829297027030426293e+00 3.700000000000000000e+02
1.219860747658987332e+00 -4.717837200450387236e+00 3.700000000000000000e+02
2.629675170573842813e+00 -4.606377373870347292e+00 3.700000000000000000e+02
4.039489593488698738e+00 -4.494917547290308235e+00 3.700000000000000000e+02
5.449304016403553774e+00 -4.383457720710268291e+00 3.700000000000000000e+02
6.859118439318409699e+00 -4.271997894130229234e+00 3.700000000000000000e+02
8.268932862233265624e+00 -4.160538067550190178e+00 3.700000000000000000e+02
9.678747285148119772e+00 -4.049078240970150233e+00 3.700000000000000000e+02
-8.391309734232761386e-01 -5.589934151777873339e+00 3.710000000000000000e+02
5.706834494915793421e-01 -5.478474325197834283e+00 3.710000000000000000e+02
1.980497872406435045e+00 -5.367014498617795226e+00 3.710000000000000000e+02
3.390312295321290748e+00 -5.255554672037755282e+00 3.710000000000000000e+02
4.800126718236146672e+00 -5.144094845457716225e+00 3.710000000000000000e+02
6.209941141151001709e+00 -5.032635018877677169e+00 3.710000000000000000e+02
7.619755564065857634e+00 -4.921175192297637224e+00 3.710000000000000000e+02
9.029569986980714447e+00 -4.809715365717597280e+00 3.710000000000000000e+02
-8.391309734232761386e-01 -5.589934151777873339e+00 3.720000000000000000e+02
5.706834494915793421e-01 -5.478474325197834283e+00 3.720000000000000000e+02
1.980497872406435045e+00 -5.367014498617795226e+00 3.720000000000000000e+02
3.390312295321290748e+00 -5.255554672037755282e+00 3.720000000000000000e+02
4.800126718236146672e+00 -5.144094845457716225e+00 3.720000000000000000e+02
6.209941141151001709e+00 -5.032635018877677169e+00 3.720000000000000000e+02
7.619755564065857634e+00 -4.921175192297637224e+00 3.720000000000000000e+02
9.029569986980714447e+00 -4.809715365717597280e+00 3.720000000000000000e+02
-8.391309734232761386e-01 -5.589934151777873339e+00 3.730000000000000000e+02
5.706834494915793421e-01 -5.478474325197834283e+00 3.730000000000000000e+02
1.980497872406435045e+00 -5.367014498617795226e+00 3.730000000000000000e+02
3.390312295321290748e+00 -5.255554672037755282e+00 3.730000000000000000e+02
4.800126718236146672e+00 -5.144094845457716225e+00 3.730000000000000000e+02
6.209941141151001709e+00 -5.032635018877677169e+00 3.730000000000000000e+02
7.619755564065857634e+00 -4.921175192297637224e+00 3.730000000000000000e+02
9.029569986980714447e+00 -4.809715365717597280e+00 3.730000000000000000e+02
-8.391309734232761386e-01 -5.589934151777873339e+00 3.740000000000000000e+02
5.706834494915793421e-01 -5.478474325197834283e+00 3.740000000000000000e+02
1.980497872406435045e+00 -5.367014498617795226e+00 3.740000000000000000e+02
3.390312295321290748e+00 -5.255554672037755282e+00 3.740000000000000000e+02
4.800126718236146672e+00 -5.144094845457716225e+00 3.740000000000000000e+02
6.209941141151001709e+00 -5.032635018877677169e+00 3.740000000000000000e+02
7.619755564065857634e+00 -4.921175192297637224e+00 3.740000000000000000e+02
9.029569986980714447e+00 -4.809715365717597280e+00 3.740000000000000000e+02
-8.391309734232761386e-01 -5.589934151777873339e+00 3.750000000000000000e+02
5.706834494915793421e-01 -5.478474325197834283e+00 3.750000000000000000e+02
1.980497872406435045e+00 -5.367014498617795226e+00 3.750000000000000000e+02
3.390312295321290748e+00 -5.255554672037755282e+00 3.750000000000000000e+02
4.800126718236146672e+00 -5.144094845457716225e+00 3.750000000000000000e+02
6.209941141151001709e+00 -5.032635018877677169e+00 3.750000000000000000e+02
7.619755564065857634e+00 -4.921175192297637224e+00 3.750000000000000000e+02
9.029569986980714447e+00 -4.809715365717597280e+00 3.750000000000000000e+02
-8.391309734232761386e-01 -5.589934151777873339e+00 3.760000000000000000e+02
5.706834494915793421e-01 -5.478474325197834283e+00 3.760000000000000000e+02
1.980497872406435045e+00 -5.367014498617795226e+00 3.760000000000000000e+02
3.390312295321290748e+00 -5.255554672037755282e+00 3.760000000000000000e+02
4.800126718236146672e+00 -5.144094845457716225e+00 3.760000000000000000e+02
6.209941141151001709e+00 -5.032635018877677169e+00 3.760000000000000000e+02
7.619755564065857634e+00 -4.921175192297637224e+00 3.760000000000000000e+02
9.029569986980714447e+00 -4.809715365717597280e+00 3.760000000000000000e+02
-8.391309734232761386e-01 -5.589934151777873339e+00 3.770000000000000000e+02
5.706834494915793421e-01 -5.478474325197834283e+00 3.770000000000000000e+02
1.980497872406435045e+00 -5.367014498617795226e+00 3.770000000000000000e+02
3.390312295321290748e+00 -5.255554672037755282e+00 3.770000000000000000e+02
4.800126718236146672e+00 -5.144094845457716225e+00 3.770000000000000000e+02
6.209941141151001709e+00 -5.032635018877677169e+00 3.770000000000000000e+02
7.619755564065857634e+00 -4.921175192297637224e+00 3.770000000000000000e+02
9.029569986980714447e+00 -4.809715365717597280e+00 3.770000000000000000e+02
-1.599768098170723185e+00 -4.940756853610465349e+00 3.780000000000000000e+02
-1.899536752558681485e-01 -4.829297027030426293e+00 3.780000000000000000e+02
1.219860747658987332e+00 -4.717837200450387236e+00 3.780000000000000000e+02
2.629675170573842813e+00 -4.606377373870347292e+00 3.780000000000000000e+02
4.039489593488698738e+00 -4.494917547290308235e+00 3.780000000000000000e+02
5.449304016403553774e+00 -4.383457720710268291e+00 3.780000000000000000e+02
6.859118439318409699e+00 -4.271997894130229234e+00 3.780000000000000000e+02
8.268932862233265624e+00 -4.160538067550190178e+00 3.780000000000000000e+02
-8.391309734232761386e-01 -5.589934151777873339e+00 3.790000000000000000e+02
5.706834494915793421e-01 -5.478474325197834283e+00 3.790000000000000000e+02
1.980497872406435045e+00 -5.367014498617795226e+00 3.790000000000000000e+02
3.390312295321290748e+00 -5.255554672037755282e+00 3.790000000000000000e+02
4.800126718236146672e+00 -5.144094845457716225e+00 3.790000000000000000e+02
6.209941141151001709e+00 -5.032635018877677169e+00 3.790000000000000000e+02
7.619755564065857634e+00 -4.921175192297637224e+00 3.790000000000000000e+02
-8.391309734232761386e-01 -5.589934151777873339e+00 3.800000000000000000e+02
5.706834494915793421e-01 -5.478474325197834283e+00 3.800000000000000000e+02
1.980497872406435045e+00 -5.367014498617795226e+00 3.800000000000000000e+02
3.390312295321290748e+00 -5.255554672037755282e+00 3.800000000000000000e+02
4.800126718236146672e+00 -5.144094845457716225e+00 3.800000000000000000e+02
6.209941141151001709e+00 -5.032635018877677169e+00 3.800000000000000000e+02
7.619755564065857634e+00 -4.921175192297637224e+00 3.800000000000000000e+02
-8.391309734232761386e-01 -5.589934151777873339e+00 3.810000000000000000e+02
5.706834494915793421e-01 -5.478474325197834283e+00 3.810000000000000000e+02
1.980497872406435045e+00 -5.367014498617795226e+00 3.810000000000000000e+02
3.390312295321290748e+00 -5.255554672037755282e+00 3.810000000000000000e+02
4.800126718236146672e+00 -5.144094845457716225e+00 3.810000000000000000e+02
6.209941141151001709e+00 -5.032635018877677169e+00 3.810000000000000000e+02
7.619755564065857634e+00 -4.921175192297637224e+00 3.810000000000000000e+02
-1.599768098170723185e+00 -4.940756853610465349e+00 3.820000000000000000e+02
-1.899536752558681485e-01 -4.829297027030426293e+00 3.820000000000000000e+02
1.219860747658987332e+00 -4.717837200450387236e+00 3.820000000000000000e+02
2.629675170573842813e+00 -4.606377373870347292e+00 3.820000000000000000e+02
4.039489593488698738e+00 -4.494917547290308235e+00 3.820000000000000000e+02
5.449304016403553774e+00 -4.383457720710268291e+00 3.820000000000000000e+02
6.859118439318409699e+00 -4.271997894130229234e+00 3.820000000000000000e+02
8.268932862233265624e+00 -4.160538067550190178e+00 3.820000000000000000e+02
-8.391309734232761386e-01 -5.589934151777873339e+00 3.830000000000000000e+02
5.706834494915793421e-01 -5.478474325197834283e+00 3.830000000000000000e+02
1.980497872406435045e+00 -5.367014498617795226e+00 3.830000000000000000e+02
3.390312295321290748e+00 -5.255554672037755282e+00 3.830000000000000000e+02
4.800126718236146672e+00 -5.144094845457716225e+00 3.830000000000000000e+02
6.209941141151001709e+00 -5.032635018877677169e+00 3.830000000000000000e+02
7.619755564065857634e+00 -4.921175192297637224e+00 3.830000000000000000e+02
-8.391309734232761386e-01 -5.589934151777873339e+00 3.840000000000000000e+02
5.706834494915793421e-01 -5.478474325197834283e+00 3.840000000000000000e+02
1.980497872406435045e+00 -5.367014498617795226e+00 3.840000000000000000e+02
3.390312295321290748e+00 -5.255554672037755282e+00 3.840000000000000000e+02
4.800126718236146672e+00 -5.144094845457716225e+00 3.840000000000000000e+02
6.209941141151001709e+00 -5.032635018877677169e+00 3.840000000000000000e+02
7.619755564065857634e+00 -4.921175192297637224e+00 3.840000000000000000e+02
-8.391309734232761386e-01 -5.589934151777873339e+00 3.850000000000000000e+02
5.706834494915793421e-01 -5.478474325197834283e+00 3.850000000000000000e+02
1.980497872406435045e+00 -5.367014498617795226e+00 3.850000000000000000e+02
3.390312295321290748e+00 -5.255554672037755282e+00 3.850000000000000000e+02
4.800126718236146672e+00 -5.144094845457716225e+00 3.850000000000000000e+02
6.209941141151001709e+00 -5.032635018877677169e+00 3.850000000000000000e+02
7.619755564065857634e+00 -4.921175192297637224e+00 3.850000000000000000e+02
-1.599768098170723185e+00 -4.940756853610465349e+00 3.860000000000000000e+02
-1.899536752558681485e-01 -4.829297027030426293e+00 3.860000000000000000e+02
1.219860747658987332e+00 -4.717837200450387236e+00 3.860000000000000000e+02
2.629675170573842813e+00 -4.606377373870347292e+00 3.860000000000000000e+02
4.039489593488698738e+00 -4.494917547290308235e+00 3.860000000000000000e+02
5.449304016403553774e+00 -4.383457720710268291e+00 3.860000000000000000e+02
6.859118439318409699e+00 -4.271997894130229234e+00 3.860000000000000000e+02
8.268932862233265624e+00 -4.160538067550190178e+00 3.860000000000000000e+02
-1.599768098170723185e+00 -4.940756853610465349e+00 3.870000000000000000e+02
-1.899536752558681485e-01 -4.829297027030426293e+00 3.870000000000000000e+02
1.219860747658987332e+00 -4.717837200450387236e+00 3.870000000000000000e+02
2.629675170573842813e+00 -4.606377373870347292e+00 3.870000000000000000e+02
4.039489593488698738e+00 -4.494917547290308235e+00 3.870000000000000000e+02
5.449304016403553774e+00 -4.383457720710268291e+00 3.870000000000000000e+02
6.859118439318409699e+00 -4.271997894130229234e+00 3.870000000000000000e+02
8.268932862233265624e+00 -4.160538067550190178e+00 3.870000000000000000e+02
-8.391309734232761386e-01 -5.589934151777873339e+00 3.880000000000000000e+02
5.706834494915793421e-01 -5.478474325197834283e+00 3.880000000000000000e+02
1.980497872406435045e+00 -5.367014498617795226e+00 3.880000000000000000e+02
3.390312295321290748e+00 -5.255554672037755282e+00 3.880000000000000000e+02
4.800126718236146672e+00 -5.144094845457716225e+00 3.880000000000000000e+02
6.209941141151001709e+00 -5.032635018877677169e+00 3.880000000000000000e+02
7.619755564065857634e+00 -4.921175192297637224e+00 3.880000000000000000e+02
-8.391309734232761386e-01 -5.589934151777873339e+00 3.890000000000000000e+02
5.706834494915793421e-01 -5.478474325197834283e+00 3.890000000000000000e+02
1.980497872406435045e+00 -5.367014498617795226e+00 3.890000000000000000e+02
3.390312295321290748e+00 -5.255554672037755282e+00 3.890000000000000000e+02
4.800126718236146672e+00 -5.144094845457716225e+00 3.890000000000000000e+02
6.209941141151001709e+00 -5.032635018877677169e+00 3.890000000000000000e+02
7.619755564065857634e+00 -4.921175192297637224e+00 3.890000000000000000e+02
-8.391309734232761386e-01 -5.589934151777873339e+00 3.900000000000000000e+02
5.706834494915793421e-01 -5.478474325197834283e+00 3.900000000000000000e+02
1.980497872406435045e+00 -5.367014498617795226e+00 3.900000000000000000e+02
3.390312295321290748e+00 -5.255554672037755282e+00 3.900000000000000000e+02
4.800126718236146672e+00 -5.144094845457716225e+00 3.900000000000000000e+02
6.209941141151001709e+00 -5.032635018877677169e+00 3.900000000000000000e+02
7.619755564065857634e+00 -4.921175192297637224e+00 3.900000000000000000e+02
-8.391309734232761386e-01 -5.589934151777873339e+00 3.910000000000000000e+02
5.706834494915793421e-01 -5.478474325197834283e+00 3.910000000000000000e+02
1.980497872406435045e+00 -5.367014498617795226e+00 3.910000000000000000e+02
3.390312295321290748e+00 -5.255554672037755282e+00 3.910000000000000000e+02
4.800126718236146672e+00 -5.144094845457716225e+00 3.910000000000000000e+02
6.209941141151001709e+00 -5.032635018877677169e+00 3.910000000000000000e+02
7.619755564065857634e+00 -4.921175192297637224e+00 3.910000000000000000e+02
-1.599768098170723185e+00 -4.940756853610465349e+00 3.920000000000000000e+02
-1.899536752558681485e-01 -4.829297027030426293e+00 3.920000000000000000e+02
1.219860747658987332e+00 -4.717837200450387236e+00 3.920000000000000000e+02
2.629675170573842813e+00 -4.606377373870347292e+00 3.920000000000000000e+02
4.039489593488698738e+00 -4.494917547290308235e+00 3.920000000000000000e+02
5.449304016403553774e+00 -4.383457720710268291e+00 3.920000000000000000e+02
6.859118439318409699e+00 -4.271997894130229234e+00 3.920000000000000000e+02
8.268932862233265624e+00 -4.160538067550190178e+00 3.920000000000000000e+02
-8.391309734232761386e-01 -5.589934151777873339e+00 3.930000000000000000e+02
5.706834494915793421e-01 -5.478474325197834283e+00 3.930000000000000000e+02
1.980497872406435045e+00 -5.367014498617795226e+00 3.930000000000000000e+02
3.390312295321290748e+00 -5.255554672037755282e+00 3.930000000000000000e+02
4.800126718236146672e+00 -5.144094845457716225e+00 3.930000000000000000e+02
6.209941141151001709e+00 -5.032635018877677169e+00 3.930000000000000000e+02
7.619755564065857634e+00 -4.921175192297637224e+00 3.930000000000000000e+02
-8.391309734232761386e-01 -5.589934151777873339e+00 3.940000000000000000e+02
5.706834494915793421e-01 -5.478474325197834283e+00 3.940000000000000000e+02
1.980497872406435045e+00 -5.367014498617795226e+00 3.940000000000000000e+02
3.390312295321290748e+00 -5.255554672037755282e+00 3.940000000000000000e+02
4.800126718236146672e+00 -5.144094845457716225e+00 3.940000000000000000e+02
6.209941141151001709e+00 -5.032635018877677169e+00 3.940000000000000000e+02
7.619755564065857634e+00 -4.921175192297637224e+00 3.940000000000000000e+02
-8.391309734232761386e-01 -5.589934151777873339e+00 3.950000000000000000e+02
5.706834494915793421e-01 -5.478474325197834283e+00 3.950000000000000000e+02
1.980497872406435045e+00 -5.367014498617795226e+00 3.950000000000000000e+02
3.390312295321290748e+00 -5.255554672037755282e+00 3.950000000000000000e+02
4.800126718236146672e+00 -5.144094845457716225e+00 3.950000000000000000e+02
6.209941141151001709e+00 -5.032635018877677169e+00 3.950000000000000000e+02
7.619755564065857634e+00 -4.921175192297637224e+00 3.950000000000000000e+02
-8.391309734232761386e-01 -5.589934151777873339e+00 3.960000000000000000e+02
5.706834494915793421e-01 -5.478474325197834283e+00 3.960000000000000000e+02
1.980497872406435045e+00 -5.367014498617795226e+00 3.960000000000000000e+02
