4.739006073952370279e+00 6.703312760175826668e+01 3.240000000000000000e+02
3.342203617189154485e+00 6.681189718617251572e+01 3.240000000000000000e+02
1.945401160425939135e+00 6.659066677058675054e+01 3.240000000000000000e+02
5.485987036627237856e-01 6.636943635500099958e+01 3.240000000000000000e+02
-8.482037531004920083e-01 6.614820593941524862e+01 3.240000000000000000e+02
1.032621590100523079e+01 6.791804926410128473e+01 3.250000000000000000e+02
8.929413444242015885e+00 6.769681884851553377e+01 3.250000000000000000e+02
7.532610987478800979e+00 6.747558843292976860e+01 3.250000000000000000e+02
6.135808530715585185e+00 6.725435801734401764e+01 3.250000000000000000e+02
4.739006073952370279e+00 6.703312760175826668e+01 3.250000000000000000e+02
3.342203617189154485e+00 6.681189718617251572e+01 3.250000000000000000e+02
1.945401160425939135e+00 6.659066677058675054e+01 3.250000000000000000e+02
5.485987036627237856e-01 6.636943635500099958e+01 3.250000000000000000e+02
-8.482037531004920083e-01 6.614820593941524862e+01 3.250000000000000000e+02
1.032621590100523079e+01 6.791804926410128473e+01 3.260000000000000000e+02
8.929413444242015885e+00 6.769681884851553377e+01 3.260000000000000000e+02
7.532610987478800979e+00 6.747558843292976860e+01 3.260000000000000000e+02
6.135808530715585185e+00 6.725435801734401764e+01 3.260000000000000000e+02
4.739006073952370279e+00 6.703312760175826668e+01 3.260000000000000000e+02
3.342203617189154485e+00 6.681189718617251572e+01 3.260000000000000000e+02
1.945401160425939135e+00 6.659066677058675054e+01 3.260000000000000000e+02
5.485987036627237856e-01 6.636943635500099958e+01 3.260000000000000000e+02
-8.482037531004920083e-01 6.614820593941524862e+01 3.260000000000000000e+02
1.032621590100523079e+01 6.791804926410128473e+01 3.270000000000000000e+02
8.929413444242015885e+00 6.769681884851553377e+01 3.270000000000000000e+02
7.532610987478800979e+00 6.747558843292976860e+01 3.270000000000000000e+02
6.135808530715585185e+00 6.725435801734401764e+01 3.270000000000000000e+02
4.739006073952370279e+00 6.703312760175826668e+01 3.270000000000000000e+02
3.342203617189154485e+00 6.681189718617251572e+01 3.270000000000000000e+02
1.945401160425939135e+00 6.659066677058675054e+01 3.270000000000000000e+02
5.485987036627237856e-01 6.636943635500099958e+01 3.270000000000000000e+02
-8.482037531004920083e-01 6.614820593941524862e+01 3.270000000000000000e+02
1.032621590100523079e+01 6.791804926410128473e+01 3.280000000000000000e+02
8.929413444242015885e+00 6.769681884851553377e+01 3.280000000000000000e+02
7.532610987478800979e+00 6.747558843292976860e+01 3.280000000000000000e+02
6.135808530715585185e+00 6.725435801734401764e+01 3.280000000000000000e+02
4.739006073952370279e+00 6.703312760175826668e+01 3.280000000000000000e+02
3.342203617189154485e+00 6.681189718617251572e+01 3.280000000000000000e+02
1.945401160425939135e+00 6.659066677058675054e+01 3.280000000000000000e+02
5.485987036627237856e-01 6.636943635500099958e+01 3.280000000000000000e+02
1.032621590100523079e+01 6.791804926410128473e+01 3.290000000000000000e+02
8.929413444242015885e+00 6.769681884851553377e+01 3.290000000000000000e+02
7.532610987478800979e+00 6.747558843292976860e+01 3.290000000000000000e+02
6.135808530715585185e+00 6.725435801734401764e+01 3.290000000000000000e+02
4.739006073952370279e+00 6.703312760175826668e+01 3.290000000000000000e+02
3.342203617189154485e+00 6.681189718617251572e+01 3.290000000000000000e+02
1.945401160425939135e+00 6.659066677058675054e+01 3.290000000000000000e+02
5.485987036627237856e-01 6.636943635500099958e+01 3.290000000000000000e+02
1.032621590100523079e+01 6.791804926410128473e+01 3.300000000000000000e+02
8.929413444242015885e+00 6.769681884851553377e+01 3.300000000000000000e+02
7.532610987478800979e+00 6.747558843292976860e+01 3.300000000000000000e+02
6.135808530715585185e+00 6.725435801734401764e+01 3.300000000000000000e+02
4.739006073952370279e+00 6.703312760175826668e+01 3.300000000000000000e+02
3.342203617189154485e+00 6.681189718617251572e+01 3.300000000000000000e+02
1.945401160425939135e+00 6.659066677058675054e+01 3.300000000000000000e+02
5.485987036627237856e-01 6.636943635500099958e+01 3.300000000000000000e+02
1.032621590100523079e+01 6.791804926410128473e+01 3.310000000000000000e+02
8.929413444242015885e+00 6.769681884851553377e+01 3.310000000000000000e+02
7.532610987478800979e+00 6.747558843292976860e+01 3.310000000000000000e+02
6.135808530715585185e+00 6.725435801734401764e+01 3.310000000000000000e+02
4.739006073952370279e+00 6.703312760175826668e+01 3.310000000000000000e+02
3.342203617189154485e+00 6.681189718617251572e+01 3.310000000000000000e+02
1.945401160425939135e+00 6.659066677058675054e+01 3.310000000000000000e+02
5.485987036627237856e-01 6.636943635500099958e+01 3.310000000000000000e+02
1.032621590100523079e+01 6.791804926410128473e+01 3.320000000000000000e+02
8.929413444242015885e+00 6.769681884851553377e+01 3.320000000000000000e+02
7.532610987478800979e+00 6.747558843292976860e+01 3.320000000000000000e+02
6.135808530715585185e+00 6.725435801734401764e+01 3.320000000000000000e+02
4.739006073952370279e+00 6.703312760175826668e+01 3.320000000000000000e+02
3.342203617189154485e+00 6.681189718617251572e+01 3.320000000000000000e+02
1.945401160425939135e+00 6.659066677058675054e+01 3.320000000000000000e+02
5.485987036627237856e-01 6.636943635500099958e+01 3.320000000000000000e+02
1.032621590100523079e+01 6.791804926410128473e+01 3.330000000000000000e+02
8.929413444242015885e+00 6.769681884851553377e+01 3.330000000000000000e+02
7.532610987478800979e+00 6.747558843292976860e+01 3.330000000000000000e+02
6.135808530715585185e+00 6.725435801734401764e+01 3.330000000000000000e+02
4.739006073952370279e+00 6.703312760175826668e+01 3.330000000000000000e+02
3.342203617189154485e+00 6.681189718617251572e+01 3.330000000000000000e+02
1.945401160425939135e+00 6.659066677058675054e+01 3.330000000000000000e+02
5.485987036627237856e-01 6.636943635500099958e+01 3.330000000000000000e+02
-8.482037531004920083e-01 6.614820593941524862e+01 3.330000000000000000e+02
1.032621590100523079e+01 6.791804926410128473e+01 3.340000000000000000e+02
8.929413444242015885e+00 6.769681884851553377e+01 3.340000000000000000e+02
7.532610987478800979e+00 6.747558843292976860e+01 3.340000000000000000e+02
6.135808530715585185e+00 6.725435801734401764e+01 3.340000000000000000e+02
4.739006073952370279e+00 6.703312760175826668e+01 3.340000000000000000e+02
3.342203617189154485e+00 6.681189718617251572e+01 3.340000000000000000e+02
1.945401160425939135e+00 6.659066677058675054e+01 3.340000000000000000e+02
5.485987036627237856e-01 6.636943635500099958e+01 3.340000000000000000e+02
-8.482037531004920083e-01 6.614820593941524862e+01 3.340000000000000000e+02
1.032621590100523079e+01 6.791804926410128473e+01 3.350000000000000000e+02
8.929413444242015885e+00 6.769681884851553377e+01 3.350000000000000000e+02
7.532610987478800979e+00 6.747558843292976860e+01 3.350000000000000000e+02
6.135808530715585185e+00 6.725435801734401764e+01 3.350000000000000000e+02
4.739006073952370279e+00 6.703312760175826668e+01 3.350000000000000000e+02
3.342203617189154485e+00 6.681189718617251572e+01 3.350000000000000000e+02
1.945401160425939135e+00 6.659066677058675054e+01 3.350000000000000000e+02
5.485987036627237856e-01 6.636943635500099958e+01 3.350000000000000000e+02
-8.482037531004920083e-01 6.614820593941524862e+01 3.350000000000000000e+02
1.032621590100523079e+01 6.791804926410128473e+01 3.360000000000000000e+02
8.929413444242015885e+00 6.769681884851553377e+01 3.360000000000000000e+02
7.532610987478800979e+00 6.747558843292976860e+01 3.360000000000000000e+02
6.135808530715585185e+00 6.725435801734401764e+01 3.360000000000000000e+02
4.739006073952370279e+00 6.703312760175826668e+01 3.360000000000000000e+02
3.342203617189154485e+00 6.681189718617251572e+01 3.360000000000000000e+02
1.945401160425939135e+00 6.659066677058675054e+01 3.360000000000000000e+02
5.485987036627237856e-01 6.636943635500099958e+01 3.360000000000000000e+02
-8.482037531004920083e-01 6.614820593941524862e+01 3.360000000000000000e+02
1.032621590100523079e+01 6.791804926410128473e+01 3.370000000000000000e+02
8.929413444242015885e+00 6.769681884851553377e+01 3.370000000000000000e+02
7.532610987478800979e+00 6.747558843292976860e+01 3.370000000000000000e+02
6.135808530715585185e+00 6.725435801734401764e+01 3.370000000000000000e+02
4.739006073952370279e+00 6.703312760175826668e+01 3.370000000000000000e+02
3.342203617189154485e+00 6.681189718617251572e+01 3.370000000000000000e+02
1.945401160425939135e+00 6.659066677058675054e+01 3.370000000000000000e+02
5.485987036627237856e-01 6.636943635500099958e+01 3.370000000000000000e+02
-8.482037531004920083e-01 6.614820593941524862e+01 3.370000000000000000e+02
1.032621590100523079e+01 6.791804926410128473e+01 3.380000000000000000e+02
8.929413444242015885e+00 6.769681884851553377e+01 3.380000000000000000e+02
7.532610987478800979e+00 6.747558843292976860e+01 3.380000000000000000e+02
6.135808530715585185e+00 6.725435801734401764e+01 3.380000000000000000e+02
4.739006073952370279e+00 6.703312760175826668e+01 3.380000000000000000e+02
3.342203617189154485e+00 6.681189718617251572e+01 3.380000000000000000e+02
1.945401160425939135e+00 6.659066677058675054e+01 3.380000000000000000e+02
5.485987036627237856e-01 6.636943635500099958e+01 3.380000000000000000e+02
-8.482037531004920083e-01 6.614820593941524862e+01 3.380000000000000000e+02
1.032621590100523079e+01 6.791804926410128473e+01 3.390000000000000000e+02
8.929413444242015885e+00 6.769681884851553377e+01 3.390000000000000000e+02
7.532610987478800979e+00 6.747558843292976860e+01 3.390000000000000000e+02
6.135808530715585185e+00 6.725435801734401764e+01 3.390000000000000000e+02
4.739006073952370279e+00 6.703312760175826668e+01 3.390000000000000000e+02
3.342203617189154485e+00 6.681189718617251572e+01 3.390000000000000000e+02
1.945401160425939135e+00 6.659066677058675054e+01 3.390000000000000000e+02
5.485987036627237856e-01 6.636943635500099958e+01 3.390000000000000000e+02
1.032621590100523079e+01 6.791804926410128473e+01 3.400000000000000000e+02
8.929413444242015885e+00 6.769681884851553377e+01 3.400000000000000000e+02
7.532610987478800979e+00 6.747558843292976860e+01 3.400000000000000000e+02
6.135808530715585185e+00 6.725435801734401764e+01 3.400000000000000000e+02
4.739006073952370279e+00 6.703312760175826668e+01 3.400000000000000000e+02
3.342203617189154485e+00 6.681189718617251572e+01 3.400000000000000000e+02
1.945401160425939135e+00 6.659066677058675054e+01 3.400000000000000000e+02
5.485987036627237856e-01 6.636943635500099958e+01 3.400000000000000000e+02
1.032621590100523079e+01 6.791804926410128473e+01 3.410000000000000000e+02
8.929413444242015885e+00 6.769681884851553377e+01 3.410000000000000000e+02
7.532610987478800979e+00 6.747558843292976860e+01 3.410000000000000000e+02
6.135808530715585185e+00 6.725435801734401764e+01 3.410000000000000000e+02
4.739006073952370279e+00 6.703312760175826668e+01 3.410000000000000000e+02
3.342203617189154485e+00 6.681189718617251572e+01 3.410000000000000000e+02
1.945401160425939135e+00 6.659066677058675054e+01 3.410000000000000000e+02
5.485987036627237856e-01 6.636943635500099958e+01 3.410000000000000000e+02
1.032621590100523079e+01 6.791804926410128473e+01 3.420000000000000000e+02
8.929413444242015885e+00 6.769681884851553377e+01 3.420000000000000000e+02
7.532610987478800979e+00 6.747558843292976860e+01 3.420000000000000000e+02
6.135808530715585185e+00 6.725435801734401764e+01 3.420000000000000000e+02
4.739006073952370279e+00 6.703312760175826668e+01 3.420000000000000000e+02
3.342203617189154485e+00 6.681189718617251572e+01 3.420000000000000000e+02
1.945401160425939135e+00 6.659066677058675054e+01 3.420000000000000000e+02
5.485987036627237856e-01 6.636943635500099958e+01 3.420000000000000000e+02
1.032621590100523079e+01 6.791804926410128473e+01 3.430000000000000000e+02
8.929413444242015885e+00 6.769681884851553377e+01 3.430000000000000000e+02
7.532610987478800979e+00 6.747558843292976860e+01 3.430000000000000000e+02
6.135808530715585185e+00 6.725435801734401764e+01 3.430000000000000000e+02
4.739006073952370279e+00 6.703312760175826668e+01 3.430000000000000000e+02
3.342203617189154485e+00 6.681189718617251572e+01 3.430000000000000000e+02
1.945401160425939135e+00 6.659066677058675054e+01 3.430000000000000000e+02
5.485987036627237856e-01 6.636943635500099958e+01 3.430000000000000000e+02
1.032621590100523079e+01 6.791804926410128473e+01 3.440000000000000000e+02
8.929413444242015885e+00 6.769681884851553377e+01 3.440000000000000000e+02
7.532610987478800979e+00 6.747558843292976860e+01 3.440000000000000000e+02
6.135808530715585185e+00 6.725435801734401764e+01 3.440000000000000000e+02
4.739006073952370279e+00 6.703312760175826668e+01 3.440000000000000000e+02
3.342203617189154485e+00 6.681189718617251572e+01 3.440000000000000000e+02
1.945401160425939135e+00 6.659066677058675054e+01 3.440000000000000000e+02
5.485987036627237856e-01 6.636943635500099958e+01 3.440000000000000000e+02
1.032621590100523079e+01 6.791804926410128473e+01 3.450000000000000000e+02
8.929413444242015885e+00 6.769681884851553377e+01 3.450000000000000000e+02
7.532610987478800979e+00 6.747558843292976860e+01 3.450000000000000000e+02
6.135808530715585185e+00 6.725435801734401764e+01 3.450000000000000000e+02
4.739006073952370279e+00 6.703312760175826668e+01 3.450000000000000000e+02
3.342203617189154485e+00 6.681189718617251572e+01 3.450000000000000000e+02
1.945401160425939135e+00 6.659066677058675054e+01 3.450000000000000000e+02
5.485987036627237856e-01 6.636943635500099958e+01 3.450000000000000000e+02
-8.482037531004920083e-01 6.614820593941524862e+01 3.450000000000000000e+02
1.032621590100523079e+01 6.791804926410128473e+01 3.460000000000000000e+02
8.929413444242015885e+00 6.769681884851553377e+01 3.460000000000000000e+02
7.532610987478800979e+00 6.747558843292976860e+01 3.460000000000000000e+02
6.135808530715585185e+00 6.725435801734401764e+01 3.460000000000000000e+02
4.739006073952370279e+00 6.703312760175826668e+01 3.460000000000000000e+02
3.342203617189154485e+00 6.681189718617251572e+01 3.460000000000000000e+02
1.945401160425939135e+00 6.659066677058675054e+01 3.460000000000000000e+02
5.485987036627237856e-01 6.636943635500099958e+01 3.460000000000000000e+02
-8.482037531004920083e-01 6.614820593941524862e+01 3.460000000000000000e+02
1.032621590100523079e+01 6.791804926410128473e+01 3.470000000000000000e+02
8.929413444242015885e+00 6.769681884851553377e+01 3.470000000000000000e+02
7.532610987478800979e+00 6.747558843292976860e+01 3.470000000000000000e+02
6.135808530715585185e+00 6.725435801734401764e+01 3.470000000000000000e+02
4.739006073952370279e+00 6.703312760175826668e+01 3.470000000000000000e+02
3.342203617189154485e+00 6.681189718617251572e+01 3.470000000000000000e+02
1.945401160425939135e+00 6.659066677058675054e+01 3.470000000000000000e+02
5.485987036627237856e-01 6.636943635500099958e+01 3.470000000000000000e+02
-8.482037531004920083e-01 6.614820593941524862e+01 3.470000000000000000e+02
1.113523233717971728e+01 6.733026324351254743e+01 3.480000000000000000e+02
9.738429880416500595e+00 6.710903282792679647e+01 3.480000000000000000e+02
8.341627423653285689e+00 6.688780241234104551e+01 3.480000000000000000e+02
6.944824966890070783e+00 6.666657199675529455e+01 3.480000000000000000e+02
5.548022510126854989e+00 6.644534158116952938e+01 3.480000000000000000e+02
4.151220053363639195e+00 6.622411116558377842e+01 3.480000000000000000e+02
2.754417596600424289e+00 6.600288074999802745e+01 3.480000000000000000e+02
1.357615139837208496e+00 6.578165033441227649e+01 3.480000000000000000e+02
-3.918731692600729843e-02 6.556041991882651132e+01 3.480000000000000000e+02
-1.435989773689222204e+00 6.533918950324076036e+01 3.480000000000000000e+02
1.113523233717971728e+01 6.733026324351254743e+01 3.490000000000000000e+02
9.738429880416500595e+00 6.710903282792679647e+01 3.490000000000000000e+02
8.341627423653285689e+00 6.688780241234104551e+01 3.490000000000000000e+02
6.944824966890070783e+00 6.666657199675529455e+01 3.490000000000000000e+02
5.548022510126854989e+00 6.644534158116952938e+01 3.490000000000000000e+02
4.151220053363639195e+00 6.622411116558377842e+01 3.490000000000000000e+02
2.754417596600424289e+00 6.600288074999802745e+01 3.490000000000000000e+02
1.357615139837208496e+00 6.578165033441227649e+01 3.490000000000000000e+02
-3.918731692600729843e-02 6.556041991882651132e+01 3.490000000000000000e+02
-1.435989773689222204e+00 6.533918950324076036e+01 3.490000000000000000e+02
1.113523233717971728e+01 6.733026324351254743e+01 3.500000000000000000e+02
9.738429880416500595e+00 6.710903282792679647e+01 3.500000000000000000e+02
8.341627423653285689e+00 6.688780241234104551e+01 3.500000000000000000e+02
6.944824966890070783e+00 6.666657199675529455e+01 3.500000000000000000e+02
5.548022510126854989e+00 6.644534158116952938e+01 3.500000000000000000e+02
4.151220053363639195e+00 6.622411116558377842e+01 3.500000000000000000e+02
2.754417596600424289e+00 6.600288074999802745e+01 3.500000000000000000e+02
1.357615139837208496e+00 6.578165033441227649e+01 3.500000000000000000e+02
-3.918731692600729843e-02 6.556041991882651132e+01 3.500000000000000000e+02
-1.435989773689222204e+00 6.533918950324076036e+01 3.500000000000000000e+02
1.032621590100523079e+01 6.791804926410128473e+01 3.510000000000000000e+02
8.929413444242015885e+00 6.769681884851553377e+01 3.510000000000000000e+02
7.532610987478800979e+00 6.747558843292976860e+01 3.510000000000000000e+02
6.135808530715585185e+00 6.725435801734401764e+01 3.510000000000000000e+02
4.739006073952370279e+00 6.703312760175826668e+01 3.510000000000000000e+02
3.342203617189154485e+00 6.681189718617251572e+01 3.510000000000000000e+02
1.945401160425939135e+00 6.659066677058675054e+01 3.510000000000000000e+02
5.485987036627237856e-01 6.636943635500099958e+01 3.510000000000000000e+02
-8.482037531004920083e-01 6.614820593941524862e+01 3.510000000000000000e+02
1.032621590100523079e+01 6.791804926410128473e+01 3.520000000000000000e+02
8.929413444242015885e+00 6.769681884851553377e+01 3.520000000000000000e+02
7.532610987478800979e+00 6.747558843292976860e+01 3.520000000000000000e+02
6.135808530715585185e+00 6.725435801734401764e+01 3.520000000000000000e+02
4.739006073952370279e+00 6.703312760175826668e+01 3.520000000000000000e+02
3.342203617189154485e+00 6.681189718617251572e+01 3.520000000000000000e+02
1.945401160425939135e+00 6.659066677058675054e+01 3.520000000000000000e+02
5.485987036627237856e-01 6.636943635500099958e+01 3.520000000000000000e+02
1.032621590100523079e+01 6.791804926410128473e+01 3.530000000000000000e+02
8.929413444242015885e+00 6.769681884851553377e+01 3.530000000000000000e+02
7.532610987478800979e+00 6.747558843292976860e+01 3.530000000000000000e+02
6.135808530715585185e+00 6.725435801734401764e+01 3.530000000000000000e+02
4.739006073952370279e+00 6.703312760175826668e+01 3.530000000000000000e+02
3.342203617189154485e+00 6.681189718617251572e+01 3.530000000000000000e+02
1.945401160425939135e+00 6.659066677058675054e+01 3.530000000000000000e+02
5.485987036627237856e-01 6.636943635500099958e+01 3.530000000000000000e+02
-8.482037531004920083e-01 6.614820593941524862e+01 3.530000000000000000e+02
1.032621590100523079e+01 6.791804926410128473e+01 3.540000000000000000e+02
8.929413444242015885e+00 6.769681884851553377e+01 3.540000000000000000e+02
7.532610987478800979e+00 6.747558843292976860e+01 3.540000000000000000e+02
6.135808530715585185e+00 6.725435801734401764e+01 3.540000000000000000e+02
4.739006073952370279e+00 6.703312760175826668e+01 3.540000000000000000e+02
3.342203617189154485e+00 6.681189718617251572e+01 3.540000000000000000e+02
1.945401160425939135e+00 6.659066677058675054e+01 3.540000000000000000e+02
5.485987036627237856e-01 6.636943635500099958e+01 3.540000000000000000e+02
-8.482037531004920083e-01 6.614820593941524862e+01 3.540000000000000000e+02
1.032621590100523079e+01 6.791804926410128473e+01 3.550000000000000000e+02
8.929413444242015885e+00 6.769681884851553377e+01 3.550000000000000000e+02
7.532610987478800979e+00 6.747558843292976860e+01 3.550000000000000000e+02
6.135808530715585185e+00 6.725435801734401764e+01 3.550000000000000000e+02
4.739006073952370279e+00 6.703312760175826668e+01 3.550000000000000000e+02
3.342203617189154485e+00 6.681189718617251572e+01 3.550000000000000000e+02
1.945401160425939135e+00 6.659066677058675054e+01 3.550000000000000000e+02
5.485987036627237856e-01 6.636943635500099958e+01 3.550000000000000000e+02
-8.482037531004920083e-01 6.614820593941524862e+01 3.550000000000000000e+02
1.032621590100523079e+01 6.791804926410128473e+01 3.560000000000000000e+02
8.929413444242015885e+00 6.769681884851553377e+01 3.560000000000000000e+02
7.532610987478800979e+00 6.747558843292976860e+01 3.560000000000000000e+02
6.135808530715585185e+00 6.725435801734401764e+01 3.560000000000000000e+02
4.739006073952370279e+00 6.703312760175826668e+01 3.560000000000000000e+02
3.342203617189154485e+00 6.681189718617251572e+01 3.560000000000000000e+02
1.945401160425939135e+00 6.659066677058675054e+01 3.560000000000000000e+02
5.485987036627237856e-01 6.636943635500099958e+01 3.560000000000000000e+02
-8.482037531004920083e-01 6.614820593941524862e+01 3.560000000000000000e+02
1.032621590100523079e+01 6.791804926410128473e+01 3.570000000000000000e+02
8.929413444242015885e+00 6.769681884851553377e+01 3.570000000000000000e+02
7.532610987478800979e+00 6.747558843292976860e+01 3.570000000000000000e+02
6.135808530715585185e+00 6.725435801734401764e+01 3.570000000000000000e+02
4.739006073952370279e+00 6.703312760175826668e+01 3.570000000000000000e+02
3.342203617189154485e+00 6.681189718617251572e+01 3.570000000000000000e+02
1.945401160425939135e+00 6.659066677058675054e+01 3.570000000000000000e+02
5.485987036627237856e-01 6.636943635500099958e+01 3.570000000000000000e+02
1.032621590100523079e+01 6.791804926410128473e+01 3.580000000000000000e+02
8.929413444242015885e+00 6.769681884851553377e+01 3.580000000000000000e+02
7.532610987478800979e+00 6.747558843292976860e+01 3.580000000000000000e+02
6.135808530715585185e+00 6.725435801734401764e+01 3.580000000000000000e+02
4.739006073952370279e+00 6.703312760175826668e+01 3.580000000000000000e+02
3.342203617189154485e+00 6.681189718617251572e+01 3.580000000000000000e+02
1.945401160425939135e+00 6.659066677058675054e+01 3.580000000000000000e+02
5.485987036627237856e-01 6.636943635500099958e+01 3.580000000000000000e+02
1.032621590100523079e+01 6.791804926410128473e+01 3.590000000000000000e+02
8.929413444242015885e+00 6.769681884851553377e+01 3.590000000000000000e+02
7.532610987478800979e+00 6.747558843292976860e+01 3.590000000000000000e+02
6.135808530715585185e+00 6.725435801734401764e+01 3.590000000000000000e+02
4.739006073952370279e+00 6.703312760175826668e+01 3.590000000000000000e+02
3.342203617189154485e+00 6.681189718617251572e+01 3.590000000000000000e+02
1.945401160425939135e+00 6.659066677058675054e+01 3.590000000000000000e+02
5.485987036627237856e-01 6.636943635500099958e+01 3.590000000000000000e+02
1.032621590100523079e+01 6.791804926410128473e+01 3.600000000000000000e+02
8.929413444242015885e+00 6.769681884851553377e+01 3.600000000000000000e+02
7.532610987478800979e+00 6.747558843292976860e+01 3.600000000000000000e+02
6.135808530715585185e+00 6.725435801734401764e+01 3.600000000000000000e+02
4.739006073952370279e+00 6.703312760175826668e+01 3.600000000000000000e+02
3.342203617189154485e+00 6.681189718617251572e+01 3.600000000000000000e+02
1.945401160425939135e+00 6.659066677058675054e+01 3.600000000000000000e+02
5.485987036627237856e-01 6.636943635500099958e+01 3.600000000000000000e+02
-8.482037531004920083e-01 6.614820593941524862e+01 3.600000000000000000e+02
1.032621590100523079e+01 6.791804926410128473e+01 3.610000000000000000e+02
8.929413444242015885e+00 6.769681884851553377e+01 3.610000000000000000e+02
7.532610987478800979e+00 6.747558843292976860e+01 3.610000000000000000e+02
6.135808530715585185e+00 6.725435801734401764e+01 3.610000000000000000e+02
4.739006073952370279e+00 6.703312760175826668e+01 3.610000000000000000e+02
3.342203617189154485e+00 6.681189718617251572e+01 3.610000000000000000e+02
1.945401160425939135e+00 6.659066677058675054e+01 3.610000000000000000e+02
5.485987036627237856e-01 6.636943635500099958e+01 3.610000000000000000e+02
-8.482037531004920083e-01 6.614820593941524862e+01 3.610000000000000000e+02
1.032621590100523079e+01 6.791804926410128473e+01 3.620000000000000000e+02
8.929413444242015885e+00 6.769681884851553377e+01 3.620000000000000000e+02
7.532610987478800979e+00 6.747558843292976860e+01 3.620000000000000000e+02
6.135808530715585185e+00 6.725435801734401764e+01 3.620000000000000000e+02
4.739006073952370279e+00 6.703312760175826668e+01 3.620000000000000000e+02
3.342203617189154485e+00 6.681189718617251572e+01 3.620000000000000000e+02
1.945401160425939135e+00 6.659066677058675054e+01 3.620000000000000000e+02
5.485987036627237856e-01 6.636943635500099958e+01 3.620000000000000000e+02
-8.482037531004920083e-01 6.614820593941524862e+01 3.620000000000000000e+02
1.032621590100523079e+01 6.791804926410128473e+01 3.630000000000000000e+02
8.929413444242015885e+00 6.769681884851553377e+01 3.630000000000000000e+02
7.532610987478800979e+00 6.747558843292976860e+01 3.630000000000000000e+02
6.135808530715585185e+00 6.725435801734401764e+01 3.630000000000000000e+02
4.739006073952370279e+00 6.703312760175826668e+01 3.630000000000000000e+02
3.342203617189154485e+00 6.681189718617251572e+01 3.630000000000000000e+02
1.945401160425939135e+00 6.659066677058675054e+01 3.630000000000000000e+02
5.485987036627237856e-01 6.636943635500099958e+01 3.630000000000000000e+02
-8.482037531004920083e-01 6.614820593941524862e+01 3.630000000000000000e+02
1.032621590100523079e+01 6.791804926410128473e+01 3.640000000000000000e+02
8.929413444242015885e+00 6.769681884851553377e+01 3.640000000000000000e+02
7.532610987478800979e+00 6.747558843292976860e+01 3.640000000000000000e+02
6.135808530715585185e+00 6.725435801734401764e+01 3.640000000000000000e+02
4.739006073952370279e+00 6.703312760175826668e+01 3.640000000000000000e+02
3.342203617189154485e+00 6.681189718617251572e+01 3.640000000000000000e+02
1.945401160425939135e+00 6.659066677058675054e+01 3.640000000000000000e+02
5.485987036627237856e-01 6.636943635500099958e+01 3.640000000000000000e+02
-8.482037531004920083e-01 6.614820593941524862e+01 3.640000000000000000e+02
1.032621590100523079e+01 6.791804926410128473e+01 3.650000000000000000e+02
8.929413444242015885e+00 6.769681884851553377e+01 3.650000000000000000e+02
7.532610987478800979e+00 6.747558843292976860e+01 3.650000000000000000e+02
6.135808530715585185e+00 6.725435801734401764e+01 3.650000000000000000e+02
4.739006073952370279e+00 6.703312760175826668e+01 3.650000000000000000e+02
3.342203617189154485e+00 6.681189718617251572e+01 3.650000000000000000e+02
1.945401160425939135e+00 6.659066677058675054e+01 3.650000000000000000e+02
5.485987036627237856e-01 6.636943635500099958e+01 3.650000000000000000e+02
-8.482037531004920083e-01 6.614820593941524862e+01 3.650000000000000000e+02
1.032621590100523079e+01 6.791804926410128473e+01 3.660000000000000000e+02
8.929413444242015885e+00 6.769681884851553377e+01 3.660000000000000000e+02
7.532610987478800979e+00 6.747558843292976860e+01 3.660000000000000000e+02
6.135808530715585185e+00 6.725435801734401764e+01 3.660000000000000000e+02
4.739006073952370279e+00 6.703312760175826668e+01 3.660000000000000000e+02
3.342203617189154485e+00 6.681189718617251572e+01 3.660000000000000000e+02
1.945401160425939135e+00 6.659066677058675054e+01 3.660000000000000000e+02
5.485987036627237856e-01 6.636943635500099958e+01 3.660000000000000000e+02
-8.482037531004920083e-01 6.614820593941524862e+01 3.660000000000000000e+02
-2.245006209863707802e+00 6.592697552382949766e+01 3.660000000000000000e+02
1.032621590100523079e+01 6.791804926410128473e+01 3.670000000000000000e+02
8.929413444242015885e+00 6.769681884851553377e+01 3.670000000000000000e+02
7.532610987478800979e+00 6.747558843292976860e+01 3.670000000000000000e+02
6.135808530715585185e+00 6.725435801734401764e+01 3.670000000000000000e+02
4.739006073952370279e+00 6.703312760175826668e+01 3.670000000000000000e+02
3.342203617189154485e+00 6.681189718617251572e+01 3.670000000000000000e+02
1.945401160425939135e+00 6.659066677058675054e+01 3.670000000000000000e+02
5.485987036627237856e-01 6.636943635500099958e+01 3.670000000000000000e+02
-8.482037531004920083e-01 6.614820593941524862e+01 3.670000000000000000e+02
1.032621590100523079e+01 6.791804926410128473e+01 3.680000000000000000e+02
8.929413444242015885e+00 6.769681884851553377e+01 3.680000000000000000e+02
7.532610987478800979e+00 6.747558843292976860e+01 3.680000000000000000e+02
6.135808530715585185e+00 6.725435801734401764e+01 3.680000000000000000e+02
4.739006073952370279e+00 6.703312760175826668e+01 3.680000000000000000e+02
3.342203617189154485e+00 6.681189718617251572e+01 3.680000000000000000e+02
1.945401160425939135e+00 6.659066677058675054e+01 3.680000000000000000e+02
5.485987036627237856e-01 6.636943635500099958e+01 3.680000000000000000e+02
-8.482037531004920083e-01 6.614820593941524862e+01 3.680000000000000000e+02
1.032621590100523079e+01 6.791804926410128473e+01 3.690000000000000000e+02
8.929413444242015885e+00 6.769681884851553377e+01 3.690000000000000000e+02
7.532610987478800979e+00 6.747558843292976860e+01 3.690000000000000000e+02
6.135808530715585185e+00 6.725435801734401764e+01 3.690000000000000000e+02
4.739006073952370279e+00 6.703312760175826668e+01 3.690000000000000000e+02
3.342203617189154485e+00 6.681189718617251572e+01 3.690000000000000000e+02
1.945401160425939135e+00 6.659066677058675054e+01 3.690000000000000000e+02
5.485987036627237856e-01 6.636943635500099958e+01 3.690000000000000000e+02
-8.482037531004920083e-01 6.614820593941524862e+01 3.690000000000000000e+02
1.113523233717971728e+01 6.733026324351254743e+01 3.700000000000000000e+02
9.738429880416500595e+00 6.710903282792679647e+01 3.700000000000000000e+02
8.341627423653285689e+00 6.688780241234104551e+01 3.700000000000000000e+02
6.944824966890070783e+00 6.666657199675529455e+01 3.700000000000000000e+02
5.548022510126854989e+00 6.644534158116952938e+01 3.700000000000000000e+02
4.151220053363639195e+00 6.622411116558377842e+01 3.700000000000000000e+02
2.754417596600424289e+00 6.600288074999802745e+01 3.700000000000000000e+02
1.357615139837208496e+00 6.578165033441227649e+01 3.700000000000000000e+02
-3.918731692600729843e-02 6.556041991882651132e+01 3.700000000000000000e+02
-1.435989773689222204e+00 6.533918950324076036e+01 3.700000000000000000e+02
1.113523233717971728e+01 6.733026324351254743e+01 3.710000000000000000e+02
9.738429880416500595e+00 6.710903282792679647e+01 3.710000000000000000e+02
8.341627423653285689e+00 6.688780241234104551e+01 3.710000000000000000e+02
6.944824966890070783e+00 6.666657199675529455e+01 3.710000000000000000e+02
5.548022510126854989e+00 6.644534158116952938e+01 3.710000000000000000e+02
4.151220053363639195e+00 6.622411116558377842e+01 3.710000000000000000e+02
2.754417596600424289e+00 6.600288074999802745e+01 3.710000000000000000e+02
1.357615139837208496e+00 6.578165033441227649e+01 3.710000000000000000e+02
-3.918731692600729843e-02 6.556041991882651132e+01 3.710000000000000000e+02
-1.435989773689222204e+00 6.533918950324076036e+01 3.710000000000000000e+02
1.113523233717971728e+01 6.733026324351254743e+01 3.720000000000000000e+02
9.738429880416500595e+00 6.710903282792679647e+01 3.720000000000000000e+02
8.341627423653285689e+00 6.688780241234104551e+01 3.720000000000000000e+02
6.944824966890070783e+00 6.666657199675529455e+01 3.720000000000000000e+02
5.548022510126854989e+00 6.644534158116952938e+01 3.720000000000000000e+02
4.151220053363639195e+00 6.622411116558377842e+01 3.720000000000000000e+02
2.754417596600424289e+00 6.600288074999802745e+01 3.720000000000000000e+02
1.357615139837208496e+00 6.578165033441227649e+01 3.720000000000000000e+02
-3.918731692600729843e-02 6.556041991882651132e+01 3.720000000000000000e+02
-1.435989773689222204e+00 6.533918950324076036e+01 3.720000000000000000e+02
1.032621590100523079e+01 6.791804926410128473e+01 3.730000000000000000e+02
8.929413444242015885e+00 6.769681884851553377e+01 3.730000000000000000e+02
7.532610987478800979e+00 6.747558843292976860e+01 3.730000000000000000e+02
6.135808530715585185e+00 6.725435801734401764e+01 3.730000000000000000e+02
4.739006073952370279e+00 6.703312760175826668e+01 3.730000000000000000e+02
3.342203617189154485e+00 6.681189718617251572e+01 3.730000000000000000e+02
1.945401160425939135e+00 6.659066677058675054e+01 3.730000000000000000e+02
5.485987036627237856e-01 6.636943635500099958e+01 3.730000000000000000e+02
-8.482037531004920083e-01 6.614820593941524862e+01 3.730000000000000000e+02
1.032621590100523079e+01 6.791804926410128473e+01 3.740000000000000000e+02
8.929413444242015885e+00 6.769681884851553377e+01 3.740000000000000000e+02
7.532610987478800979e+00 6.747558843292976860e+01 3.740000000000000000e+02
6.135808530715585185e+00 6.725435801734401764e+01 3.740000000000000000e+02
4.739006073952370279e+00 6.703312760175826668e+01 3.740000000000000000e+02
3.342203617189154485e+00 6.681189718617251572e+01 3.740000000000000000e+02
1.945401160425939135e+00 6.659066677058675054e+01 3.740000000000000000e+02
5.485987036627237856e-01 6.636943635500099958e+01 3.740000000000000000e+02
-8.482037531004920083e-01 6.614820593941524862e+01 3.740000000000000000e+02
1.032621590100523079e+01 6.791804926410128473e+01 3.750000000000000000e+02
8.929413444242015885e+00 6.769681884851553377e+01 3.750000000000000000e+02
7.532610987478800979e+00 6.747558843292976860e+01 3.750000000000000000e+02
6.135808530715585185e+00 6.725435801734401764e+01 3.750000000000000000e+02
4.739006073952370279e+00 6.703312760175826668e+01 3.750000000000000000e+02
3.342203617189154485e+00 6.681189718617251572e+01 3.750000000000000000e+02
1.945401160425939135e+00 6.659066677058675054e+01 3.750000000000000000e+02
5.485987036627237856e-01 6.636943635500099958e+01 3.750000000000000000e+02
-8.482037531004920083e-01 6.614820593941524862e+01 3.750000000000000000e+02
1.032621590100523079e+01 6.791804926410128473e+01 3.760000000000000000e+02
8.929413444242015885e+00 6.769681884851553377e+01 3.760000000000000000e+02
7.532610987478800979e+00 6.747558843292976860e+01 3.760000000000000000e+02
6.135808530715585185e+00 6.725435801734401764e+01 3.760000000000000000e+02
4.739006073952370279e+00 6.703312760175826668e+01 3.760000000000000000e+02
3.342203617189154485e+00 6.681189718617251572e+01 3.760000000000000000e+02
1.945401160425939135e+00 6.659066677058675054e+01 3.760000000000000000e+02
5.485987036627237856e-01 6.636943635500099958e+01 3.760000000000000000e+02
-8.482037531004920083e-01 6.614820593941524862e+01 3.760000000000000000e+02
1.032621590100523079e+01 6.791804926410128473e+01 3.770000000000000000e+02
8.929413444242015885e+00 6.769681884851553377e+01 3.770000000000000000e+02
7.532610987478800979e+00 6.747558843292976860e+01 3.770000000000000000e+02
6.135808530715585185e+00 6.725435801734401764e+01 3.770000000000000000e+02
4.739006073952370279e+00 6.703312760175826668e+01 3.770000000000000000e+02
3.342203617189154485e+00 6.681189718617251572e+01 3.770000000000000000e+02
1.945401160425939135e+00 6.659066677058675054e+01 3.770000000000000000e+02
5.485987036627237856e-01 6.636943635500099958e+01 3.770000000000000000e+02
-8.482037531004920083e-01 6.614820593941524862e+01 3.770000000000000000e+02
1.032621590100523079e+01 6.791804926410128473e+01 3.780000000000000000e+02
8.929413444242015885e+00 6.769681884851553377e+01 3.780000000000000000e+02
7.532610987478800979e+00 6.747558843292976860e+01 3.780000000000000000e+02
6.135808530715585185e+00 6.725435801734401764e+01 3.780000000000000000e+02
4.739006073952370279e+00 6.703312760175826668e+01 3.780000000000000000e+02
3.342203617189154485e+00 6.681189718617251572e+01 3.780000000000000000e+02
1.945401160425939135e+00 6.659066677058675054e+01 3.780000000000000000e+02
5.485987036627237856e-01 6.636943635500099958e+01 3.780000000000000000e+02
-8.482037531004920083e-01 6.614820593941524862e+01 3.780000000000000000e+02
1.032621590100523079e+01 6.791804926410128473e+01 3.790000000000000000e+02
8.929413444242015885e+00 6.769681884851553377e+01 3.790000000000000000e+02
7.532610987478800979e+00 6.747558843292976860e+01 3.790000000000000000e+02
6.135808530715585185e+00 6.725435801734401764e+01 3.790000000000000000e+02
4.739006073952370279e+00 6.703312760175826668e+01 3.790000000000000000e+02
3.342203617189154485e+00 6.681189718617251572e+01 3.790000000000000000e+02
1.945401160425939135e+00 6.659066677058675054e+01 3.790000000000000000e+02
5.485987036627237856e-01 6.636943635500099958e+01 3.790000000000000000e+02
-8.482037531004920083e-01 6.614820593941524862e+01 3.790000000000000000e+02
1.032621590100523079e+01 6.791804926410128473e+01 3.800000000000000000e+02
8.929413444242015885e+00 6.769681884851553377e+01 3.800000000000000000e+02
7.532610987478800979e+00 6.747558843292976860e+01 3.800000000000000000e+02
6.135808530715585185e+00 6.725435801734401764e+01 3.800000000000000000e+02
4.739006073952370279e+00 6.703312760175826668e+01 3.800000000000000000e+02
3.342203617189154485e+00 6.681189718617251572e+01 3.800000000000000000e+02
1.945401160425939135e+00 6.659066677058675054e+01 3.800000000000000000e+02
5.485987036627237856e-01 6.636943635500099958e+01 3.800000000000000000e+02
1.113523233717971728e+01 6.733026324351254743e+01 3.810000000000000000e+02
9.738429880416500595e+00 6.710903282792679647e+01 3.810000000000000000e+02
8.341627423653285689e+00 6.688780241234104551e+01 3.810000000000000000e+02
6.944824966890070783e+00 6.666657199675529455e+01 3.810000000000000000e+02
5.548022510126854989e+00 6.644534158116952938e+01 3.810000000000000000e+02
4.151220053363639195e+00 6.622411116558377842e+01 3.810000000000000000e+02
2.754417596600424289e+00 6.600288074999802745e+01 3.810000000000000000e+02
1.357615139837208496e+00 6.578165033441227649e+01 3.810000000000000000e+02
-3.918731692600729843e-02 6.556041991882651132e+01 3.810000000000000000e+02
1.113523233717971728e+01 6.733026324351254743e+01 3.820000000000000000e+02
9.738429880416500595e+00 6.710903282792679647e+01 3.820000000000000000e+02
8.341627423653285689e+00 6.688780241234104551e+01 3.820000000000000000e+02
6.944824966890070783e+00 6.666657199675529455e+01 3.820000000000000000e+02
5.548022510126854989e+00 6.644534158116952938e+01 3.820000000000000000e+02
4.151220053363639195e+00 6.622411116558377842e+01 3.820000000000000000e+02
2.754417596600424289e+00 6.600288074999802745e+01 3.820000000000000000e+02
1.357615139837208496e+00 6.578165033441227649e+01 3.820000000000000000e+02
-3.918731692600729843e-02 6.556041991882651132e+01 3.820000000000000000e+02
1.113523233717971728e+01 6.733026324351254743e+01 3.830000000000000000e+02
9.738429880416500595e+00 6.710903282792679647e+01 3.830000000000000000e+02
8.341627423653285689e+00 6.688780241234104551e+01 3.830000000000000000e+02
6.944824966890070783e+00 6.666657199675529455e+01 3.830000000000000000e+02
5.548022510126854989e+00 6.644534158116952938e+01 3.830000000000000000e+02
4.151220053363639195e+00 6.622411116558377842e+01 3.830000000000000000e+02
2.754417596600424289e+00 6.600288074999802745e+01 3.830000000000000000e+02
1.357615139837208496e+00 6.578165033441227649e+01 3.830000000000000000e+02
-3.918731692600729843e-02 6.556041991882651132e+01 3.830000000000000000e+02
1.032621590100523079e+01 6.791804926410128473e+01 3.840000000000000000e+02
8.929413444242015885e+00 6.769681884851553377e+01 3.840000000000000000e+02
7.532610987478800979e+00 6.747558843292976860e+01 3.840000000000000000e+02
6.135808530715585185e+00 6.725435801734401764e+01 3.840000000000000000e+02
4.739006073952370279e+00 6.703312760175826668e+01 3.840000000000000000e+02
3.342203617189154485e+00 6.681189718617251572e+01 3.840000000000000000e+02
1.945401160425939135e+00 6.659066677058675054e+01 3.840000000000000000e+02
5.485987036627237856e-01 6.636943635500099958e+01 3.840000000000000000e+02
1.032621590100523079e+01 6.791804926410128473e+01 3.850000000000000000e+02
8.929413444242015885e+00 6.769681884851553377e+01 3.850000000000000000e+02
7.532610987478800979e+00 6.747558843292976860e+01 3.850000000000000000e+02
6.135808530715585185e+00 6.725435801734401764e+01 3.850000000000000000e+02
4.739006073952370279e+00 6.703312760175826668e+01 3.850000000000000000e+02
3.342203617189154485e+00 6.681189718617251572e+01 3.850000000000000000e+02
1.945401160425939135e+00 6.659066677058675054e+01 3.850000000000000000e+02
5.485987036627237856e-01 6.636943635500099958e+01 3.850000000000000000e+02
1.113523233717971728e+01 6.733026324351254743e+01 3.860000000000000000e+02
9.738429880416500595e+00 6.710903282792679647e+01 3.860000000000000000e+02
8.341627423653285689e+00 6.688780241234104551e+01 3.860000000000000000e+02
6.944824966890070783e+00 6.666657199675529455e+01 3.860000000000000000e+02
5.548022510126854989e+00 6.644534158116952938e+01 3.860000000000000000e+02
4.151220053363639195e+00 6.622411116558377842e+01 3.860000000000000000e+02
2.754417596600424289e+00 6.600288074999802745e+01 3.860000000000000000e+02
1.357615139837208496e+00 6.578165033441227649e+01 3.860000000000000000e+02
-3.918731692600729843e-02 6.556041991882651132e+01 3.860000000000000000e+02
1.113523233717971728e+01 6.733026324351254743e+01 3.870000000000000000e+02
9.738429880416500595e+00 6.710903282792679647e+01 3.870000000000000000e+02
8.341627423653285689e+00 6.688780241234104551e+01 3.870000000000000000e+02
6.944824966890070783e+00 6.666657199675529455e+01 3.870000000000000000e+02
5.548022510126854989e+00 6.644534158116952938e+01 3.870000000000000000e+02
4.151220053363639195e+00 6.622411116558377842e+01 3.870000000000000000e+02
2.754417596600424289e+00 6.600288074999802745e+01 3.870000000000000000e+02
1.357615139837208496e+00 6.578165033441227649e+01 3.870000000000000000e+02
-3.918731692600729843e-02 6.556041991882651132e+01 3.870000000000000000e+02
1.032621590100523079e+01 6.791804926410128473e+01 3.880000000000000000e+02
8.929413444242015885e+00 6.769681884851553377e+01 3.880000000000000000e+02
7.532610987478800979e+00 6.747558843292976860e+01 3.880000000000000000e+02
6.135808530715585185e+00 6.725435801734401764e+01 3.880000000000000000e+02
4.739006073952370279e+00 6.703312760175826668e+01 3.880000000000000000e+02
3.342203617189154485e+00 6.681189718617251572e+01 3.880000000000000000e+02
1.945401160425939135e+00 6.659066677058675054e+01 3.880000000000000000e+02
5.485987036627237856e-01 6.636943635500099958e+01 3.880000000000000000e+02
1.032621590100523079e+01 6.791804926410128473e+01 3.890000000000000000e+02
8.929413444242015885e+00 6.769681884851553377e+01 3.890000000000000000e+02
7.532610987478800979e+00 6.747558843292976860e+01 3.890000000000000000e+02
6.135808530715585185e+00 6.725435801734401764e+01 3.890000000000000000e+02
4.739006073952370279e+00 6.703312760175826668e+01 3.890000000000000000e+02
3.342203617189154485e+00 6.681189718617251572e+01 3.890000000000000000e+02
1.945401160425939135e+00 6.659066677058675054e+01 3.890000000000000000e+02
5.485987036627237856e-01 6.636943635500099958e+01 3.890000000000000000e+02
1.032621590100523079e+01 6.791804926410128473e+01 3.900000000000000000e+02
8.929413444242015885e+00 6.769681884851553377e+01 3.900000000000000000e+02
7.532610987478800979e+00 6.747558843292976860e+01 3.900000000000000000e+02
6.135808530715585185e+00 6.725435801734401764e+01 3.900000000000000000e+02
4.739006073952370279e+00 6.703312760175826668e+01 3.900000000000000000e+02
3.342203617189154485e+00 6.681189718617251572e+01 3.900000000000000000e+02
1.945401160425939135e+00 6.659066677058675054e+01 3.900000000000000000e+02
5.485987036627237856e-01 6.636943635500099958e+01 3.900000000000000000e+02
1.032621590100523079e+01 6.791804926410128473e+01 3.910000000000000000e+02
8.929413444242015885e+00 6.769681884851553377e+01 3.910000000000000000e+02
7.532610987478800979e+00 6.747558843292976860e+01 3.910000000000000000e+02
6.135808530715585185e+00 6.725435801734401764e+01 3.910000000000000000e+02
4.739006073952370279e+00 6.703312760175826668e+01 3.910000000000000000e+02
3.342203617189154485e+00 6.681189718617251572e+01 3.910000000000000000e+02
1.945401160425939135e+00 6.659066677058675054e+01 3.910000000000000000e+02
5.485987036627237856e-01 6.636943635500099958e+01 3.910000000000000000e+02
1.032621590100523079e+01 6.791804926410128473e+01 3.920000000000000000e+02
8.929413444242015885e+00 6.769681884851553377e+01 3.920000000000000000e+02
7.532610987478800979e+00 6.747558843292976860e+01 3.920000000000000000e+02
6.135808530715585185e+00 6.725435801734401764e+01 3.920000000000000000e+02
4.739006073952370279e+00 6.703312760175826668e+01 3.920000000000000000e+02
3.342203617189154485e+00 6.681189718617251572e+01 3.920000000000000000e+02
1.945401160425939135e+00 6.659066677058675054e+01 3.920000000000000000e+02
5.485987036627237856e-01 6.636943635500099958e+01 3.920000000000000000e+02
1.032621590100523079e+01 6.791804926410128473e+01 3.930000000000000000e+02
8.929413444242015885e+00 6.769681884851553377e+01 3.930000000000000000e+02
7.532610987478800979e+00 6.747558843292976860e+01 3.930000000000000000e+02
6.135808530715585185e+00 6.725435801734401764e+01 3.930000000000000000e+02
4.739006073952370279e+00 6.703312760175826668e+01 3.930000000000000000e+02
3.342203617189154485e+00 6.681189718617251572e+01 3.930000000000000000e+02
1.945401160425939135e+00 6.659066677058675054e+01 3.930000000000000000e+02
5.485987036627237856e-01 6.636943635500099958e+01 3.930000000000000000e+02
1.113523233717971728e+01 6.733026324351254743e+01 3.940000000000000000e+02
9.738429880416500595e+00 6.710903282792679647e+01 3.940000000000000000e+02
8.341627423653285689e+00 6.688780241234104551e+01 3.940000000000000000e+02
6.944824966890070783e+00 6.666657199675529455e+01 3.940000000000000000e+02
5.548022510126854989e+00 6.644534158116952938e+01 3.940000000000000000e+02
4.151220053363639195e+00 6.622411116558377842e+01 3.940000000000000000e+02
2.754417596600424289e+00 6.600288074999802745e+01 3.940000000000000000e+02
1.357615139837208496e+00 6.578165033441227649e+01 3.940000000000000000e+02
-3.918731692600729843e-02 6.556041991882651132e+01 3.940000000000000000e+02
1.113523233717971728e+01 6.733026324351254743e+01 3.950000000000000000e+02
9.738429880416500595e+00 6.710903282792679647e+01 3.950000000000000000e+02
8.341627423653285689e+00 6.688780241234104551e+01 3.950000000000000000e+02
6.944824966890070783e+00 6.666657199675529455e+01 3.950000000000000000e+02
5.548022510126854989e+00 6.644534158116952938e+01 3.950000000000000000e+02
4.151220053363639195e+00 6.622411116558377842e+01 3.950000000000000000e+02
2.754417596600424289e+00 6.600288074999802745e+01 3.950000000000000000e+02
1.357615139837208496e+00 6.578165033441227649e+01 3.950000000000000000e+02
-3.918731692600729843e-02 6.556041991882651132e+01 3.950000000000000000e+02
1.113523233717971728e+01 6.733026324351254743e+01 3.960000000000000000e+02
9.738429880416500595e+00 6.710903282792679647e+01 3.960000000000000000e+02
8.341627423653285689e+00 6.688780241234104551e+01 3.960000000000000000e+02
6.944824966890070783e+00 6.666657199675529455e+01 3.960000000000000000e+02
5.548022510126854989e+00 6.644534158116952938e+01 3.960000000000000000e+02
4.151220053363639195e+00 6.622411116558377842e+01 3.960000000000000000e+02
2.754417596600424289e+00 6.600288074999802745e+01 3.960000000000000000e+02
1.357615139837208496e+00 6.578165033441227649e+01 3.960000000000000000e+02
1.113523233717971728e+01 6.733026324351254743e+01 3.970000000000000000e+02
9.738429880416500595e+00 6.710903282792679647e+01 3.970000000000000000e+02
8.341627423653285689e+00 6.688780241234104551e+01 3.970000000000000000e+02
6.944824966890070783e+00 6.666657199675529455e+01 3.970000000000000000e+02
