2.480427872914042542e+00 2.107336533219084984e+00 3.420000000000000000e+02
1.542483025996918000e+00 1.048913430607651964e+00 3.420000000000000000e+02
6.045381790797936805e-01 -9.509672003780916816e-03 3.420000000000000000e+02
-3.334066678373307502e-01 -1.067932774615213853e+00 3.420000000000000000e+02
-1.271351514754455181e+00 -2.126355877226646651e+00 3.420000000000000000e+02
-2.209296361671579501e+00 -3.184778979838079671e+00 3.420000000000000000e+02
-3.147241208588703820e+00 -4.243202082449512247e+00 3.420000000000000000e+02
-4.085186055505828584e+00 -5.301625185060945711e+00 3.420000000000000000e+02
5.294262413665415501e+00 5.282605841053383600e+00 3.430000000000000000e+02
4.356317566748291625e+00 4.224182738441951024e+00 3.430000000000000000e+02
3.418372719831166862e+00 3.165759635830518004e+00 3.430000000000000000e+02
2.480427872914042542e+00 2.107336533219084984e+00 3.430000000000000000e+02
1.542483025996918000e+00 1.048913430607651964e+00 3.430000000000000000e+02
6.045381790797936805e-01 -9.509672003780916816e-03 3.430000000000000000e+02
-3.334066678373307502e-01 -1.067932774615213853e+00 3.430000000000000000e+02
-1.271351514754455181e+00 -2.126355877226646651e+00 3.430000000000000000e+02
-2.209296361671579501e+00 -3.184778979838079671e+00 3.430000000000000000e+02
-3.147241208588703820e+00 -4.243202082449512247e+00 3.430000000000000000e+02
-4.085186055505828584e+00 -5.301625185060945711e+00 3.430000000000000000e+02
5.294262413665415501e+00 5.282605841053383600e+00 3.440000000000000000e+02
4.356317566748291625e+00 4.224182738441951024e+00 3.440000000000000000e+02
3.418372719831166862e+00 3.165759635830518004e+00 3.440000000000000000e+02
2.480427872914042542e+00 2.107336533219084984e+00 3.440000000000000000e+02
1.542483025996918000e+00 1.048913430607651964e+00 3.440000000000000000e+02
6.045381790797936805e-01 -9.509672003780916816e-03 3.440000000000000000e+02
-3.334066678373307502e-01 -1.067932774615213853e+00 3.440000000000000000e+02
-1.271351514754455181e+00 -2.126355877226646651e+00 3.440000000000000000e+02
-2.209296361671579501e+00 -3.184778979838079671e+00 3.440000000000000000e+02
-3.147241208588703820e+00 -4.243202082449512247e+00 3.440000000000000000e+02
-4.085186055505828584e+00 -5.301625185060945711e+00 3.440000000000000000e+02
5.294262413665415501e+00 5.282605841053383600e+00 3.450000000000000000e+02
4.356317566748291625e+00 4.224182738441951024e+00 3.450000000000000000e+02
3.418372719831166862e+00 3.165759635830518004e+00 3.450000000000000000e+02
2.480427872914042542e+00 2.107336533219084984e+00 3.450000000000000000e+02
1.542483025996918000e+00 1.048913430607651964e+00 3.450000000000000000e+02
6.045381790797936805e-01 -9.509672003780916816e-03 3.450000000000000000e+02
-3.334066678373307502e-01 -1.067932774615213853e+00 3.450000000000000000e+02
-1.271351514754455181e+00 -2.126355877226646651e+00 3.450000000000000000e+02
-2.209296361671579501e+00 -3.184778979838079671e+00 3.450000000000000000e+02
-3.147241208588703820e+00 -4.243202082449512247e+00 3.450000000000000000e+02
5.294262413665415501e+00 5.282605841053383600e+00 3.460000000000000000e+02
4.356317566748291625e+00 4.224182738441951024e+00 3.460000000000000000e+02
3.418372719831166862e+00 3.165759635830518004e+00 3.460000000000000000e+02
2.480427872914042542e+00 2.107336533219084984e+00 3.460000000000000000e+02
1.542483025996918000e+00 1.048913430607651964e+00 3.460000000000000000e+02
6.045381790797936805e-01 -9.509672003780916816e-03 3.460000000000000000e+02
-3.334066678373307502e-01 -1.067932774615213853e+00 3.460000000000000000e+02
-1.271351514754455181e+00 -2.126355877226646651e+00 3.460000000000000000e+02
-2.209296361671579501e+00 -3.184778979838079671e+00 3.460000000000000000e+02
-3.147241208588703820e+00 -4.243202082449512247e+00 3.460000000000000000e+02
4.296078438901137275e+00 5.222366713206229250e+00 3.470000000000000000e+02
3.358133591984012511e+00 4.163943610594796674e+00 3.470000000000000000e+02
2.420188745066888192e+00 3.105520507983363654e+00 3.470000000000000000e+02
1.482243898149763650e+00 2.047097405371930634e+00 3.470000000000000000e+02
5.442990512326393304e-01 9.886743027604978362e-01 3.470000000000000000e+02
-3.936457956844850448e-01 -6.974879985093521140e-02 3.470000000000000000e+02
-1.331590642601609531e+00 -1.128171902462368204e+00 3.470000000000000000e+02
-2.269535489518733851e+00 -2.186595005073801001e+00 3.470000000000000000e+02
-3.207480336435858170e+00 -3.245018107685234021e+00 3.470000000000000000e+02
-4.145425183352982934e+00 -4.303441210296666597e+00 3.470000000000000000e+02
4.296078438901137275e+00 5.222366713206229250e+00 3.480000000000000000e+02
3.358133591984012511e+00 4.163943610594796674e+00 3.480000000000000000e+02
2.420188745066888192e+00 3.105520507983363654e+00 3.480000000000000000e+02
1.482243898149763650e+00 2.047097405371930634e+00 3.480000000000000000e+02
5.442990512326393304e-01 9.886743027604978362e-01 3.480000000000000000e+02
-3.936457956844850448e-01 -6.974879985093521140e-02 3.480000000000000000e+02
-1.331590642601609531e+00 -1.128171902462368204e+00 3.480000000000000000e+02
-2.269535489518733851e+00 -2.186595005073801001e+00 3.480000000000000000e+02
-3.207480336435858170e+00 -3.245018107685234021e+00 3.480000000000000000e+02
-4.145425183352982934e+00 -4.303441210296666597e+00 3.480000000000000000e+02
5.294262413665415501e+00 5.282605841053383600e+00 3.490000000000000000e+02
4.356317566748291625e+00 4.224182738441951024e+00 3.490000000000000000e+02
3.418372719831166862e+00 3.165759635830518004e+00 3.490000000000000000e+02
2.480427872914042542e+00 2.107336533219084984e+00 3.490000000000000000e+02
1.542483025996918000e+00 1.048913430607651964e+00 3.490000000000000000e+02
6.045381790797936805e-01 -9.509672003780916816e-03 3.490000000000000000e+02
-3.334066678373307502e-01 -1.067932774615213853e+00 3.490000000000000000e+02
-1.271351514754455181e+00 -2.126355877226646651e+00 3.490000000000000000e+02
-2.209296361671579501e+00 -3.184778979838079671e+00 3.490000000000000000e+02
-3.147241208588703820e+00 -4.243202082449512247e+00 3.490000000000000000e+02
-4.085186055505828584e+00 -5.301625185060945711e+00 3.490000000000000000e+02
5.294262413665415501e+00 5.282605841053383600e+00 3.500000000000000000e+02
4.356317566748291625e+00 4.224182738441951024e+00 3.500000000000000000e+02
3.418372719831166862e+00 3.165759635830518004e+00 3.500000000000000000e+02
2.480427872914042542e+00 2.107336533219084984e+00 3.500000000000000000e+02
1.542483025996918000e+00 1.048913430607651964e+00 3.500000000000000000e+02
6.045381790797936805e-01 -9.509672003780916816e-03 3.500000000000000000e+02
-3.334066678373307502e-01 -1.067932774615213853e+00 3.500000000000000000e+02
-1.271351514754455181e+00 -2.126355877226646651e+00 3.500000000000000000e+02
-2.209296361671579501e+00 -3.184778979838079671e+00 3.500000000000000000e+02
-3.147241208588703820e+00 -4.243202082449512247e+00 3.500000000000000000e+02
-4.085186055505828584e+00 -5.301625185060945711e+00 3.500000000000000000e+02
5.294262413665415501e+00 5.282605841053383600e+00 3.510000000000000000e+02
4.356317566748291625e+00 4.224182738441951024e+00 3.510000000000000000e+02
3.418372719831166862e+00 3.165759635830518004e+00 3.510000000000000000e+02
2.480427872914042542e+00 2.107336533219084984e+00 3.510000000000000000e+02
1.542483025996918000e+00 1.048913430607651964e+00 3.510000000000000000e+02
6.045381790797936805e-01 -9.509672003780916816e-03 3.510000000000000000e+02
-3.334066678373307502e-01 -1.067932774615213853e+00 3.510000000000000000e+02
-1.271351514754455181e+00 -2.126355877226646651e+00 3.510000000000000000e+02
-2.209296361671579501e+00 -3.184778979838079671e+00 3.510000000000000000e+02
-3.147241208588703820e+00 -4.243202082449512247e+00 3.510000000000000000e+02
4.296078438901137275e+00 5.222366713206229250e+00 3.520000000000000000e+02
3.358133591984012511e+00 4.163943610594796674e+00 3.520000000000000000e+02
2.420188745066888192e+00 3.105520507983363654e+00 3.520000000000000000e+02
1.482243898149763650e+00 2.047097405371930634e+00 3.520000000000000000e+02
5.442990512326393304e-01 9.886743027604978362e-01 3.520000000000000000e+02
-3.936457956844850448e-01 -6.974879985093521140e-02 3.520000000000000000e+02
-1.331590642601609531e+00 -1.128171902462368204e+00 3.520000000000000000e+02
-2.269535489518733851e+00 -2.186595005073801001e+00 3.520000000000000000e+02
-3.207480336435858170e+00 -3.245018107685234021e+00 3.520000000000000000e+02
-4.145425183352982934e+00 -4.303441210296666597e+00 3.520000000000000000e+02
4.296078438901137275e+00 5.222366713206229250e+00 3.530000000000000000e+02
3.358133591984012511e+00 4.163943610594796674e+00 3.530000000000000000e+02
2.420188745066888192e+00 3.105520507983363654e+00 3.530000000000000000e+02
1.482243898149763650e+00 2.047097405371930634e+00 3.530000000000000000e+02
5.442990512326393304e-01 9.886743027604978362e-01 3.530000000000000000e+02
-3.936457956844850448e-01 -6.974879985093521140e-02 3.530000000000000000e+02
-1.331590642601609531e+00 -1.128171902462368204e+00 3.530000000000000000e+02
-2.269535489518733851e+00 -2.186595005073801001e+00 3.530000000000000000e+02
-3.207480336435858170e+00 -3.245018107685234021e+00 3.530000000000000000e+02
-4.145425183352982934e+00 -4.303441210296666597e+00 3.530000000000000000e+02
4.296078438901137275e+00 5.222366713206229250e+00 3.540000000000000000e+02
3.358133591984012511e+00 4.163943610594796674e+00 3.540000000000000000e+02
2.420188745066888192e+00 3.105520507983363654e+00 3.540000000000000000e+02
1.482243898149763650e+00 2.047097405371930634e+00 3.540000000000000000e+02
5.442990512326393304e-01 9.886743027604978362e-01 3.540000000000000000e+02
-3.936457956844850448e-01 -6.974879985093521140e-02 3.540000000000000000e+02
-1.331590642601609531e+00 -1.128171902462368204e+00 3.540000000000000000e+02
-2.269535489518733851e+00 -2.186595005073801001e+00 3.540000000000000000e+02
-3.207480336435858170e+00 -3.245018107685234021e+00 3.540000000000000000e+02
-4.145425183352982934e+00 -4.303441210296666597e+00 3.540000000000000000e+02
4.296078438901137275e+00 5.222366713206229250e+00 3.550000000000000000e+02
3.358133591984012511e+00 4.163943610594796674e+00 3.550000000000000000e+02
2.420188745066888192e+00 3.105520507983363654e+00 3.550000000000000000e+02
1.482243898149763650e+00 2.047097405371930634e+00 3.550000000000000000e+02
5.442990512326393304e-01 9.886743027604978362e-01 3.550000000000000000e+02
-3.936457956844850448e-01 -6.974879985093521140e-02 3.550000000000000000e+02
-1.331590642601609531e+00 -1.128171902462368204e+00 3.550000000000000000e+02
-2.269535489518733851e+00 -2.186595005073801001e+00 3.550000000000000000e+02
-3.207480336435858170e+00 -3.245018107685234021e+00 3.550000000000000000e+02
-4.145425183352982934e+00 -4.303441210296666597e+00 3.550000000000000000e+02
4.296078438901137275e+00 5.222366713206229250e+00 3.560000000000000000e+02
3.358133591984012511e+00 4.163943610594796674e+00 3.560000000000000000e+02
2.420188745066888192e+00 3.105520507983363654e+00 3.560000000000000000e+02
1.482243898149763650e+00 2.047097405371930634e+00 3.560000000000000000e+02
5.442990512326393304e-01 9.886743027604978362e-01 3.560000000000000000e+02
-3.936457956844850448e-01 -6.974879985093521140e-02 3.560000000000000000e+02
-1.331590642601609531e+00 -1.128171902462368204e+00 3.560000000000000000e+02
-2.269535489518733851e+00 -2.186595005073801001e+00 3.560000000000000000e+02
-3.207480336435858170e+00 -3.245018107685234021e+00 3.560000000000000000e+02
-4.145425183352982934e+00 -4.303441210296666597e+00 3.560000000000000000e+02
5.294262413665415501e+00 5.282605841053383600e+00 3.570000000000000000e+02
4.356317566748291625e+00 4.224182738441951024e+00 3.570000000000000000e+02
3.418372719831166862e+00 3.165759635830518004e+00 3.570000000000000000e+02
2.480427872914042542e+00 2.107336533219084984e+00 3.570000000000000000e+02
1.542483025996918000e+00 1.048913430607651964e+00 3.570000000000000000e+02
6.045381790797936805e-01 -9.509672003780916816e-03 3.570000000000000000e+02
-3.334066678373307502e-01 -1.067932774615213853e+00 3.570000000000000000e+02
-1.271351514754455181e+00 -2.126355877226646651e+00 3.570000000000000000e+02
-2.209296361671579501e+00 -3.184778979838079671e+00 3.570000000000000000e+02
-3.147241208588703820e+00 -4.243202082449512247e+00 3.570000000000000000e+02
-4.085186055505828584e+00 -5.301625185060945711e+00 3.570000000000000000e+02
5.294262413665415501e+00 5.282605841053383600e+00 3.580000000000000000e+02
4.356317566748291625e+00 4.224182738441951024e+00 3.580000000000000000e+02
3.418372719831166862e+00 3.165759635830518004e+00 3.580000000000000000e+02
2.480427872914042542e+00 2.107336533219084984e+00 3.580000000000000000e+02
1.542483025996918000e+00 1.048913430607651964e+00 3.580000000000000000e+02
6.045381790797936805e-01 -9.509672003780916816e-03 3.580000000000000000e+02
-3.334066678373307502e-01 -1.067932774615213853e+00 3.580000000000000000e+02
-1.271351514754455181e+00 -2.126355877226646651e+00 3.580000000000000000e+02
-2.209296361671579501e+00 -3.184778979838079671e+00 3.580000000000000000e+02
-3.147241208588703820e+00 -4.243202082449512247e+00 3.580000000000000000e+02
-4.085186055505828584e+00 -5.301625185060945711e+00 3.580000000000000000e+02
5.294262413665415501e+00 5.282605841053383600e+00 3.590000000000000000e+02
4.356317566748291625e+00 4.224182738441951024e+00 3.590000000000000000e+02
3.418372719831166862e+00 3.165759635830518004e+00 3.590000000000000000e+02
2.480427872914042542e+00 2.107336533219084984e+00 3.590000000000000000e+02
1.542483025996918000e+00 1.048913430607651964e+00 3.590000000000000000e+02
6.045381790797936805e-01 -9.509672003780916816e-03 3.590000000000000000e+02
-3.334066678373307502e-01 -1.067932774615213853e+00 3.590000000000000000e+02
-1.271351514754455181e+00 -2.126355877226646651e+00 3.590000000000000000e+02
-2.209296361671579501e+00 -3.184778979838079671e+00 3.590000000000000000e+02
-3.147241208588703820e+00 -4.243202082449512247e+00 3.590000000000000000e+02
4.296078438901137275e+00 5.222366713206229250e+00 3.600000000000000000e+02
3.358133591984012511e+00 4.163943610594796674e+00 3.600000000000000000e+02
2.420188745066888192e+00 3.105520507983363654e+00 3.600000000000000000e+02
1.482243898149763650e+00 2.047097405371930634e+00 3.600000000000000000e+02
5.442990512326393304e-01 9.886743027604978362e-01 3.600000000000000000e+02
-3.936457956844850448e-01 -6.974879985093521140e-02 3.600000000000000000e+02
-1.331590642601609531e+00 -1.128171902462368204e+00 3.600000000000000000e+02
-2.269535489518733851e+00 -2.186595005073801001e+00 3.600000000000000000e+02
-3.207480336435858170e+00 -3.245018107685234021e+00 3.600000000000000000e+02
-4.145425183352982934e+00 -4.303441210296666597e+00 3.600000000000000000e+02
4.296078438901137275e+00 5.222366713206229250e+00 3.610000000000000000e+02
3.358133591984012511e+00 4.163943610594796674e+00 3.610000000000000000e+02
2.420188745066888192e+00 3.105520507983363654e+00 3.610000000000000000e+02
1.482243898149763650e+00 2.047097405371930634e+00 3.610000000000000000e+02
5.442990512326393304e-01 9.886743027604978362e-01 3.610000000000000000e+02
-3.936457956844850448e-01 -6.974879985093521140e-02 3.610000000000000000e+02
-1.331590642601609531e+00 -1.128171902462368204e+00 3.610000000000000000e+02
-2.269535489518733851e+00 -2.186595005073801001e+00 3.610000000000000000e+02
-3.207480336435858170e+00 -3.245018107685234021e+00 3.610000000000000000e+02
-4.145425183352982934e+00 -4.303441210296666597e+00 3.610000000000000000e+02
4.296078438901137275e+00 5.222366713206229250e+00 3.620000000000000000e+02
3.358133591984012511e+00 4.163943610594796674e+00 3.620000000000000000e+02
2.420188745066888192e+00 3.105520507983363654e+00 3.620000000000000000e+02
1.482243898149763650e+00 2.047097405371930634e+00 3.620000000000000000e+02
5.442990512326393304e-01 9.886743027604978362e-01 3.620000000000000000e+02
-3.936457956844850448e-01 -6.974879985093521140e-02 3.620000000000000000e+02
-1.331590642601609531e+00 -1.128171902462368204e+00 3.620000000000000000e+02
-2.269535489518733851e+00 -2.186595005073801001e+00 3.620000000000000000e+02
-3.207480336435858170e+00 -3.245018107685234021e+00 3.620000000000000000e+02
-4.145425183352982934e+00 -4.303441210296666597e+00 3.620000000000000000e+02
-5.083370030270106810e+00 -5.361864312908100061e+00 3.620000000000000000e+02
4.296078438901137275e+00 5.222366713206229250e+00 3.630000000000000000e+02
3.358133591984012511e+00 4.163943610594796674e+00 3.630000000000000000e+02
2.420188745066888192e+00 3.105520507983363654e+00 3.630000000000000000e+02
1.482243898149763650e+00 2.047097405371930634e+00 3.630000000000000000e+02
5.442990512326393304e-01 9.886743027604978362e-01 3.630000000000000000e+02
-3.936457956844850448e-01 -6.974879985093521140e-02 3.630000000000000000e+02
-1.331590642601609531e+00 -1.128171902462368204e+00 3.630000000000000000e+02
-2.269535489518733851e+00 -2.186595005073801001e+00 3.630000000000000000e+02
-3.207480336435858170e+00 -3.245018107685234021e+00 3.630000000000000000e+02
-4.145425183352982934e+00 -4.303441210296666597e+00 3.630000000000000000e+02
-5.083370030270106810e+00 -5.361864312908100061e+00 3.630000000000000000e+02
4.296078438901137275e+00 5.222366713206229250e+00 3.640000000000000000e+02
3.358133591984012511e+00 4.163943610594796674e+00 3.640000000000000000e+02
2.420188745066888192e+00 3.105520507983363654e+00 3.640000000000000000e+02
1.482243898149763650e+00 2.047097405371930634e+00 3.640000000000000000e+02
5.442990512326393304e-01 9.886743027604978362e-01 3.640000000000000000e+02
-3.936457956844850448e-01 -6.974879985093521140e-02 3.640000000000000000e+02
-1.331590642601609531e+00 -1.128171902462368204e+00 3.640000000000000000e+02
-2.269535489518733851e+00 -2.186595005073801001e+00 3.640000000000000000e+02
-3.207480336435858170e+00 -3.245018107685234021e+00 3.640000000000000000e+02
-4.145425183352982934e+00 -4.303441210296666597e+00 3.640000000000000000e+02
-5.083370030270106810e+00 -5.361864312908100061e+00 3.640000000000000000e+02
4.296078438901137275e+00 5.222366713206229250e+00 3.650000000000000000e+02
3.358133591984012511e+00 4.163943610594796674e+00 3.650000000000000000e+02
2.420188745066888192e+00 3.105520507983363654e+00 3.650000000000000000e+02
1.482243898149763650e+00 2.047097405371930634e+00 3.650000000000000000e+02
5.442990512326393304e-01 9.886743027604978362e-01 3.650000000000000000e+02
-3.936457956844850448e-01 -6.974879985093521140e-02 3.650000000000000000e+02
-1.331590642601609531e+00 -1.128171902462368204e+00 3.650000000000000000e+02
-2.269535489518733851e+00 -2.186595005073801001e+00 3.650000000000000000e+02
-3.207480336435858170e+00 -3.245018107685234021e+00 3.650000000000000000e+02
-4.145425183352982934e+00 -4.303441210296666597e+00 3.650000000000000000e+02
-5.083370030270106810e+00 -5.361864312908100061e+00 3.650000000000000000e+02
4.296078438901137275e+00 5.222366713206229250e+00 3.660000000000000000e+02
3.358133591984012511e+00 4.163943610594796674e+00 3.660000000000000000e+02
2.420188745066888192e+00 3.105520507983363654e+00 3.660000000000000000e+02
1.482243898149763650e+00 2.047097405371930634e+00 3.660000000000000000e+02
5.442990512326393304e-01 9.886743027604978362e-01 3.660000000000000000e+02
-3.936457956844850448e-01 -6.974879985093521140e-02 3.660000000000000000e+02
-1.331590642601609531e+00 -1.128171902462368204e+00 3.660000000000000000e+02
-2.269535489518733851e+00 -2.186595005073801001e+00 3.660000000000000000e+02
-3.207480336435858170e+00 -3.245018107685234021e+00 3.660000000000000000e+02
-4.145425183352982934e+00 -4.303441210296666597e+00 3.660000000000000000e+02
-5.083370030270106810e+00 -5.361864312908100061e+00 3.660000000000000000e+02
4.296078438901137275e+00 5.222366713206229250e+00 3.670000000000000000e+02
3.358133591984012511e+00 4.163943610594796674e+00 3.670000000000000000e+02
2.420188745066888192e+00 3.105520507983363654e+00 3.670000000000000000e+02
1.482243898149763650e+00 2.047097405371930634e+00 3.670000000000000000e+02
5.442990512326393304e-01 9.886743027604978362e-01 3.670000000000000000e+02
-3.936457956844850448e-01 -6.974879985093521140e-02 3.670000000000000000e+02
-1.331590642601609531e+00 -1.128171902462368204e+00 3.670000000000000000e+02
-2.269535489518733851e+00 -2.186595005073801001e+00 3.670000000000000000e+02
-3.207480336435858170e+00 -3.245018107685234021e+00 3.670000000000000000e+02
-4.145425183352982934e+00 -4.303441210296666597e+00 3.670000000000000000e+02
-5.083370030270106810e+00 -5.361864312908100061e+00 3.670000000000000000e+02
4.296078438901137275e+00 5.222366713206229250e+00 3.680000000000000000e+02
3.358133591984012511e+00 4.163943610594796674e+00 3.680000000000000000e+02
2.420188745066888192e+00 3.105520507983363654e+00 3.680000000000000000e+02
1.482243898149763650e+00 2.047097405371930634e+00 3.680000000000000000e+02
5.442990512326393304e-01 9.886743027604978362e-01 3.680000000000000000e+02
-3.936457956844850448e-01 -6.974879985093521140e-02 3.680000000000000000e+02
-1.331590642601609531e+00 -1.128171902462368204e+00 3.680000000000000000e+02
-2.269535489518733851e+00 -2.186595005073801001e+00 3.680000000000000000e+02
-3.207480336435858170e+00 -3.245018107685234021e+00 3.680000000000000000e+02
-4.145425183352982934e+00 -4.303441210296666597e+00 3.680000000000000000e+02
-5.083370030270106810e+00 -5.361864312908100061e+00 3.680000000000000000e+02
4.296078438901137275e+00 5.222366713206229250e+00 3.690000000000000000e+02
3.358133591984012511e+00 4.163943610594796674e+00 3.690000000000000000e+02
2.420188745066888192e+00 3.105520507983363654e+00 3.690000000000000000e+02
1.482243898149763650e+00 2.047097405371930634e+00 3.690000000000000000e+02
5.442990512326393304e-01 9.886743027604978362e-01 3.690000000000000000e+02
-3.936457956844850448e-01 -6.974879985093521140e-02 3.690000000000000000e+02
-1.331590642601609531e+00 -1.128171902462368204e+00 3.690000000000000000e+02
-2.269535489518733851e+00 -2.186595005073801001e+00 3.690000000000000000e+02
-3.207480336435858170e+00 -3.245018107685234021e+00 3.690000000000000000e+02
-4.145425183352982934e+00 -4.303441210296666597e+00 3.690000000000000000e+02
-5.083370030270106810e+00 -5.361864312908100061e+00 3.690000000000000000e+02
4.296078438901137275e+00 5.222366713206229250e+00 3.700000000000000000e+02
3.358133591984012511e+00 4.163943610594796674e+00 3.700000000000000000e+02
2.420188745066888192e+00 3.105520507983363654e+00 3.700000000000000000e+02
1.482243898149763650e+00 2.047097405371930634e+00 3.700000000000000000e+02
5.442990512326393304e-01 9.886743027604978362e-01 3.700000000000000000e+02
-3.936457956844850448e-01 -6.974879985093521140e-02 3.700000000000000000e+02
-1.331590642601609531e+00 -1.128171902462368204e+00 3.700000000000000000e+02
-2.269535489518733851e+00 -2.186595005073801001e+00 3.700000000000000000e+02
-3.207480336435858170e+00 -3.245018107685234021e+00 3.700000000000000000e+02
-4.145425183352982934e+00 -4.303441210296666597e+00 3.700000000000000000e+02
-5.083370030270106810e+00 -5.361864312908100061e+00 3.700000000000000000e+02
4.296078438901137275e+00 5.222366713206229250e+00 3.710000000000000000e+02
3.358133591984012511e+00 4.163943610594796674e+00 3.710000000000000000e+02
2.420188745066888192e+00 3.105520507983363654e+00 3.710000000000000000e+02
1.482243898149763650e+00 2.047097405371930634e+00 3.710000000000000000e+02
5.442990512326393304e-01 9.886743027604978362e-01 3.710000000000000000e+02
-3.936457956844850448e-01 -6.974879985093521140e-02 3.710000000000000000e+02
-1.331590642601609531e+00 -1.128171902462368204e+00 3.710000000000000000e+02
-2.269535489518733851e+00 -2.186595005073801001e+00 3.710000000000000000e+02
-3.207480336435858170e+00 -3.245018107685234021e+00 3.710000000000000000e+02
-4.145425183352982934e+00 -4.303441210296666597e+00 3.710000000000000000e+02
-5.083370030270106810e+00 -5.361864312908100061e+00 3.710000000000000000e+02
4.296078438901137275e+00 5.222366713206229250e+00 3.720000000000000000e+02
3.358133591984012511e+00 4.163943610594796674e+00 3.720000000000000000e+02
2.420188745066888192e+00 3.105520507983363654e+00 3.720000000000000000e+02
1.482243898149763650e+00 2.047097405371930634e+00 3.720000000000000000e+02
5.442990512326393304e-01 9.886743027604978362e-01 3.720000000000000000e+02
-3.936457956844850448e-01 -6.974879985093521140e-02 3.720000000000000000e+02
-1.331590642601609531e+00 -1.128171902462368204e+00 3.720000000000000000e+02
-2.269535489518733851e+00 -2.186595005073801001e+00 3.720000000000000000e+02
-3.207480336435858170e+00 -3.245018107685234021e+00 3.720000000000000000e+02
-4.145425183352982934e+00 -4.303441210296666597e+00 3.720000000000000000e+02
-5.083370030270106810e+00 -5.361864312908100061e+00 3.720000000000000000e+02
4.296078438901137275e+00 5.222366713206229250e+00 3.730000000000000000e+02
3.358133591984012511e+00 4.163943610594796674e+00 3.730000000000000000e+02
2.420188745066888192e+00 3.105520507983363654e+00 3.730000000000000000e+02
1.482243898149763650e+00 2.047097405371930634e+00 3.730000000000000000e+02
5.442990512326393304e-01 9.886743027604978362e-01 3.730000000000000000e+02
-3.936457956844850448e-01 -6.974879985093521140e-02 3.730000000000000000e+02
-1.331590642601609531e+00 -1.128171902462368204e+00 3.730000000000000000e+02
-2.269535489518733851e+00 -2.186595005073801001e+00 3.730000000000000000e+02
-3.207480336435858170e+00 -3.245018107685234021e+00 3.730000000000000000e+02
-4.145425183352982934e+00 -4.303441210296666597e+00 3.730000000000000000e+02
-5.083370030270106810e+00 -5.361864312908100061e+00 3.730000000000000000e+02
4.296078438901137275e+00 5.222366713206229250e+00 3.740000000000000000e+02
3.358133591984012511e+00 4.163943610594796674e+00 3.740000000000000000e+02
2.420188745066888192e+00 3.105520507983363654e+00 3.740000000000000000e+02
1.482243898149763650e+00 2.047097405371930634e+00 3.740000000000000000e+02
5.442990512326393304e-01 9.886743027604978362e-01 3.740000000000000000e+02
-3.936457956844850448e-01 -6.974879985093521140e-02 3.740000000000000000e+02
-1.331590642601609531e+00 -1.128171902462368204e+00 3.740000000000000000e+02
-2.269535489518733851e+00 -2.186595005073801001e+00 3.740000000000000000e+02
-3.207480336435858170e+00 -3.245018107685234021e+00 3.740000000000000000e+02
-4.145425183352982934e+00 -4.303441210296666597e+00 3.740000000000000000e+02
-5.083370030270106810e+00 -5.361864312908100061e+00 3.740000000000000000e+02
4.296078438901137275e+00 5.222366713206229250e+00 3.750000000000000000e+02
3.358133591984012511e+00 4.163943610594796674e+00 3.750000000000000000e+02
2.420188745066888192e+00 3.105520507983363654e+00 3.750000000000000000e+02
1.482243898149763650e+00 2.047097405371930634e+00 3.750000000000000000e+02
5.442990512326393304e-01 9.886743027604978362e-01 3.750000000000000000e+02
-3.936457956844850448e-01 -6.974879985093521140e-02 3.750000000000000000e+02
-1.331590642601609531e+00 -1.128171902462368204e+00 3.750000000000000000e+02
-2.269535489518733851e+00 -2.186595005073801001e+00 3.750000000000000000e+02
-3.207480336435858170e+00 -3.245018107685234021e+00 3.750000000000000000e+02
-4.145425183352982934e+00 -4.303441210296666597e+00 3.750000000000000000e+02
-5.083370030270106810e+00 -5.361864312908100061e+00 3.750000000000000000e+02
4.296078438901137275e+00 5.222366713206229250e+00 3.760000000000000000e+02
3.358133591984012511e+00 4.163943610594796674e+00 3.760000000000000000e+02
2.420188745066888192e+00 3.105520507983363654e+00 3.760000000000000000e+02
1.482243898149763650e+00 2.047097405371930634e+00 3.760000000000000000e+02
5.442990512326393304e-01 9.886743027604978362e-01 3.760000000000000000e+02
-3.936457956844850448e-01 -6.974879985093521140e-02 3.760000000000000000e+02
-1.331590642601609531e+00 -1.128171902462368204e+00 3.760000000000000000e+02
-2.269535489518733851e+00 -2.186595005073801001e+00 3.760000000000000000e+02
-3.207480336435858170e+00 -3.245018107685234021e+00 3.760000000000000000e+02
-4.145425183352982934e+00 -4.303441210296666597e+00 3.760000000000000000e+02
-5.083370030270106810e+00 -5.361864312908100061e+00 3.760000000000000000e+02
4.296078438901137275e+00 5.222366713206229250e+00 3.770000000000000000e+02
3.358133591984012511e+00 4.163943610594796674e+00 3.770000000000000000e+02
2.420188745066888192e+00 3.105520507983363654e+00 3.770000000000000000e+02
1.482243898149763650e+00 2.047097405371930634e+00 3.770000000000000000e+02
5.442990512326393304e-01 9.886743027604978362e-01 3.770000000000000000e+02
-3.936457956844850448e-01 -6.974879985093521140e-02 3.770000000000000000e+02
-1.331590642601609531e+00 -1.128171902462368204e+00 3.770000000000000000e+02
-2.269535489518733851e+00 -2.186595005073801001e+00 3.770000000000000000e+02
-3.207480336435858170e+00 -3.245018107685234021e+00 3.770000000000000000e+02
-4.145425183352982934e+00 -4.303441210296666597e+00 3.770000000000000000e+02
-5.083370030270106810e+00 -5.361864312908100061e+00 3.770000000000000000e+02
4.296078438901137275e+00 5.222366713206229250e+00 3.780000000000000000e+02
3.358133591984012511e+00 4.163943610594796674e+00 3.780000000000000000e+02
2.420188745066888192e+00 3.105520507983363654e+00 3.780000000000000000e+02
1.482243898149763650e+00 2.047097405371930634e+00 3.780000000000000000e+02
5.442990512326393304e-01 9.886743027604978362e-01 3.780000000000000000e+02
-3.936457956844850448e-01 -6.974879985093521140e-02 3.780000000000000000e+02
-1.331590642601609531e+00 -1.128171902462368204e+00 3.780000000000000000e+02
-2.269535489518733851e+00 -2.186595005073801001e+00 3.780000000000000000e+02
-3.207480336435858170e+00 -3.245018107685234021e+00 3.780000000000000000e+02
-4.145425183352982934e+00 -4.303441210296666597e+00 3.780000000000000000e+02
-5.083370030270106810e+00 -5.361864312908100061e+00 3.780000000000000000e+02
4.296078438901137275e+00 5.222366713206229250e+00 3.790000000000000000e+02
3.358133591984012511e+00 4.163943610594796674e+00 3.790000000000000000e+02
2.420188745066888192e+00 3.105520507983363654e+00 3.790000000000000000e+02
1.482243898149763650e+00 2.047097405371930634e+00 3.790000000000000000e+02
5.442990512326393304e-01 9.886743027604978362e-01 3.790000000000000000e+02
-3.936457956844850448e-01 -6.974879985093521140e-02 3.790000000000000000e+02
-1.331590642601609531e+00 -1.128171902462368204e+00 3.790000000000000000e+02
-2.269535489518733851e+00 -2.186595005073801001e+00 3.790000000000000000e+02
-3.207480336435858170e+00 -3.245018107685234021e+00 3.790000000000000000e+02
-4.145425183352982934e+00 -4.303441210296666597e+00 3.790000000000000000e+02
-5.083370030270106810e+00 -5.361864312908100061e+00 3.790000000000000000e+02
3.297894464136858161e+00 5.162127585359074899e+00 3.800000000000000000e+02
2.359949617219733842e+00 4.103704482747642324e+00 3.800000000000000000e+02
1.422004770302609522e+00 3.045281380136209304e+00 3.800000000000000000e+02
4.840599233854850914e-01 1.986858277524776284e+00 3.800000000000000000e+02
-4.538849235316393393e-01 9.284351749133434861e-01 3.800000000000000000e+02
-1.391829770448763659e+00 -1.299879276980894782e-01 3.800000000000000000e+02
-2.329774617365888201e+00 -1.188411030309522554e+00 3.800000000000000000e+02
-3.267719464283012520e+00 -2.246834132920955351e+00 3.800000000000000000e+02
-4.205664311200137284e+00 -3.305257235532388371e+00 3.800000000000000000e+02
-5.143609158117261160e+00 -4.363680338143820947e+00 3.800000000000000000e+02
4.296078438901137275e+00 5.222366713206229250e+00 3.810000000000000000e+02
3.358133591984012511e+00 4.163943610594796674e+00 3.810000000000000000e+02
2.420188745066888192e+00 3.105520507983363654e+00 3.810000000000000000e+02
1.482243898149763650e+00 2.047097405371930634e+00 3.810000000000000000e+02
5.442990512326393304e-01 9.886743027604978362e-01 3.810000000000000000e+02
-3.936457956844850448e-01 -6.974879985093521140e-02 3.810000000000000000e+02
-1.331590642601609531e+00 -1.128171902462368204e+00 3.810000000000000000e+02
-2.269535489518733851e+00 -2.186595005073801001e+00 3.810000000000000000e+02
-3.207480336435858170e+00 -3.245018107685234021e+00 3.810000000000000000e+02
-4.145425183352982934e+00 -4.303441210296666597e+00 3.810000000000000000e+02
-5.083370030270106810e+00 -5.361864312908100061e+00 3.810000000000000000e+02
3.297894464136858161e+00 5.162127585359074899e+00 3.820000000000000000e+02
2.359949617219733842e+00 4.103704482747642324e+00 3.820000000000000000e+02
1.422004770302609522e+00 3.045281380136209304e+00 3.820000000000000000e+02
4.840599233854850914e-01 1.986858277524776284e+00 3.820000000000000000e+02
-4.538849235316393393e-01 9.284351749133434861e-01 3.820000000000000000e+02
-1.391829770448763659e+00 -1.299879276980894782e-01 3.820000000000000000e+02
-2.329774617365888201e+00 -1.188411030309522554e+00 3.820000000000000000e+02
-3.267719464283012520e+00 -2.246834132920955351e+00 3.820000000000000000e+02
-4.205664311200137284e+00 -3.305257235532388371e+00 3.820000000000000000e+02
-5.143609158117261160e+00 -4.363680338143820947e+00 3.820000000000000000e+02
4.296078438901137275e+00 5.222366713206229250e+00 3.830000000000000000e+02
3.358133591984012511e+00 4.163943610594796674e+00 3.830000000000000000e+02
2.420188745066888192e+00 3.105520507983363654e+00 3.830000000000000000e+02
1.482243898149763650e+00 2.047097405371930634e+00 3.830000000000000000e+02
5.442990512326393304e-01 9.886743027604978362e-01 3.830000000000000000e+02
-3.936457956844850448e-01 -6.974879985093521140e-02 3.830000000000000000e+02
-1.331590642601609531e+00 -1.128171902462368204e+00 3.830000000000000000e+02
-2.269535489518733851e+00 -2.186595005073801001e+00 3.830000000000000000e+02
-3.207480336435858170e+00 -3.245018107685234021e+00 3.830000000000000000e+02
-4.145425183352982934e+00 -4.303441210296666597e+00 3.830000000000000000e+02
-5.083370030270106810e+00 -5.361864312908100061e+00 3.830000000000000000e+02
4.296078438901137275e+00 5.222366713206229250e+00 3.840000000000000000e+02
3.358133591984012511e+00 4.163943610594796674e+00 3.840000000000000000e+02
2.420188745066888192e+00 3.105520507983363654e+00 3.840000000000000000e+02
1.482243898149763650e+00 2.047097405371930634e+00 3.840000000000000000e+02
5.442990512326393304e-01 9.886743027604978362e-01 3.840000000000000000e+02
-3.936457956844850448e-01 -6.974879985093521140e-02 3.840000000000000000e+02
-1.331590642601609531e+00 -1.128171902462368204e+00 3.840000000000000000e+02
-2.269535489518733851e+00 -2.186595005073801001e+00 3.840000000000000000e+02
-3.207480336435858170e+00 -3.245018107685234021e+00 3.840000000000000000e+02
-4.145425183352982934e+00 -4.303441210296666597e+00 3.840000000000000000e+02
-5.083370030270106810e+00 -5.361864312908100061e+00 3.840000000000000000e+02
3.297894464136858161e+00 5.162127585359074899e+00 3.850000000000000000e+02
2.359949617219733842e+00 4.103704482747642324e+00 3.850000000000000000e+02
1.422004770302609522e+00 3.045281380136209304e+00 3.850000000000000000e+02
4.840599233854850914e-01 1.986858277524776284e+00 3.850000000000000000e+02
-4.538849235316393393e-01 9.284351749133434861e-01 3.850000000000000000e+02
-1.391829770448763659e+00 -1.299879276980894782e-01 3.850000000000000000e+02
-2.329774617365888201e+00 -1.188411030309522554e+00 3.850000000000000000e+02
-3.267719464283012520e+00 -2.246834132920955351e+00 3.850000000000000000e+02
-4.205664311200137284e+00 -3.305257235532388371e+00 3.850000000000000000e+02
-5.143609158117261160e+00 -4.363680338143820947e+00 3.850000000000000000e+02
-6.081554005034385924e+00 -5.422103440755254411e+00 3.850000000000000000e+02
3.297894464136858161e+00 5.162127585359074899e+00 3.860000000000000000e+02
2.359949617219733842e+00 4.103704482747642324e+00 3.860000000000000000e+02
1.422004770302609522e+00 3.045281380136209304e+00 3.860000000000000000e+02
4.840599233854850914e-01 1.986858277524776284e+00 3.860000000000000000e+02
-4.538849235316393393e-01 9.284351749133434861e-01 3.860000000000000000e+02
-1.391829770448763659e+00 -1.299879276980894782e-01 3.860000000000000000e+02
-2.329774617365888201e+00 -1.188411030309522554e+00 3.860000000000000000e+02
-3.267719464283012520e+00 -2.246834132920955351e+00 3.860000000000000000e+02
-4.205664311200137284e+00 -3.305257235532388371e+00 3.860000000000000000e+02
-5.143609158117261160e+00 -4.363680338143820947e+00 3.860000000000000000e+02
3.297894464136858161e+00 5.162127585359074899e+00 3.870000000000000000e+02
2.359949617219733842e+00 4.103704482747642324e+00 3.870000000000000000e+02
1.422004770302609522e+00 3.045281380136209304e+00 3.870000000000000000e+02
4.840599233854850914e-01 1.986858277524776284e+00 3.870000000000000000e+02
-4.538849235316393393e-01 9.284351749133434861e-01 3.870000000000000000e+02
-1.391829770448763659e+00 -1.299879276980894782e-01 3.870000000000000000e+02
-2.329774617365888201e+00 -1.188411030309522554e+00 3.870000000000000000e+02
-3.267719464283012520e+00 -2.246834132920955351e+00 3.870000000000000000e+02
-4.205664311200137284e+00 -3.305257235532388371e+00 3.870000000000000000e+02
-5.143609158117261160e+00 -4.363680338143820947e+00 3.870000000000000000e+02
3.297894464136858161e+00 5.162127585359074899e+00 3.880000000000000000e+02
2.359949617219733842e+00 4.103704482747642324e+00 3.880000000000000000e+02
1.422004770302609522e+00 3.045281380136209304e+00 3.880000000000000000e+02
4.840599233854850914e-01 1.986858277524776284e+00 3.880000000000000000e+02
-4.538849235316393393e-01 9.284351749133434861e-01 3.880000000000000000e+02
-1.391829770448763659e+00 -1.299879276980894782e-01 3.880000000000000000e+02
-2.329774617365888201e+00 -1.188411030309522554e+00 3.880000000000000000e+02
-3.267719464283012520e+00 -2.246834132920955351e+00 3.880000000000000000e+02
-4.205664311200137284e+00 -3.305257235532388371e+00 3.880000000000000000e+02
-5.143609158117261160e+00 -4.363680338143820947e+00 3.880000000000000000e+02
3.297894464136858161e+00 5.162127585359074899e+00 3.890000000000000000e+02
2.359949617219733842e+00 4.103704482747642324e+00 3.890000000000000000e+02
1.422004770302609522e+00 3.045281380136209304e+00 3.890000000000000000e+02
4.840599233854850914e-01 1.986858277524776284e+00 3.890000000000000000e+02
-4.538849235316393393e-01 9.284351749133434861e-01 3.890000000000000000e+02
-1.391829770448763659e+00 -1.299879276980894782e-01 3.890000000000000000e+02
-2.329774617365888201e+00 -1.188411030309522554e+00 3.890000000000000000e+02
-3.267719464283012520e+00 -2.246834132920955351e+00 3.890000000000000000e+02
-4.205664311200137284e+00 -3.305257235532388371e+00 3.890000000000000000e+02
-5.143609158117261160e+00 -4.363680338143820947e+00 3.890000000000000000e+02
3.297894464136858161e+00 5.162127585359074899e+00 3.900000000000000000e+02
2.359949617219733842e+00 4.103704482747642324e+00 3.900000000000000000e+02
1.422004770302609522e+00 3.045281380136209304e+00 3.900000000000000000e+02
4.840599233854850914e-01 1.986858277524776284e+00 3.900000000000000000e+02
-4.538849235316393393e-01 9.284351749133434861e-01 3.900000000000000000e+02
-1.391829770448763659e+00 -1.299879276980894782e-01 3.900000000000000000e+02
-2.329774617365888201e+00 -1.188411030309522554e+00 3.900000000000000000e+02
-3.267719464283012520e+00 -2.246834132920955351e+00 3.900000000000000000e+02
-4.205664311200137284e+00 -3.305257235532388371e+00 3.900000000000000000e+02
-5.143609158117261160e+00 -4.363680338143820947e+00 3.900000000000000000e+02
-6.081554005034385924e+00 -5.422103440755254411e+00 3.900000000000000000e+02
4.296078438901137275e+00 5.222366713206229250e+00 3.910000000000000000e+02
3.358133591984012511e+00 4.163943610594796674e+00 3.910000000000000000e+02
2.420188745066888192e+00 3.105520507983363654e+00 3.910000000000000000e+02
1.482243898149763650e+00 2.047097405371930634e+00 3.910000000000000000e+02
5.442990512326393304e-01 9.886743027604978362e-01 3.910000000000000000e+02
-3.936457956844850448e-01 -6.974879985093521140e-02 3.910000000000000000e+02
-1.331590642601609531e+00 -1.128171902462368204e+00 3.910000000000000000e+02
-2.269535489518733851e+00 -2.186595005073801001e+00 3.910000000000000000e+02
-3.207480336435858170e+00 -3.245018107685234021e+00 3.910000000000000000e+02
-4.145425183352982934e+00 -4.303441210296666597e+00 3.910000000000000000e+02
-5.083370030270106810e+00 -5.361864312908100061e+00 3.910000000000000000e+02
-6.021314877187231573e+00 -6.420287415519532637e+00 3.910000000000000000e+02
3.297894464136858161e+00 5.162127585359074899e+00 3.920000000000000000e+02
2.359949617219733842e+00 4.103704482747642324e+00 3.920000000000000000e+02
1.422004770302609522e+00 3.045281380136209304e+00 3.920000000000000000e+02
4.840599233854850914e-01 1.986858277524776284e+00 3.920000000000000000e+02
-4.538849235316393393e-01 9.284351749133434861e-01 3.920000000000000000e+02
-1.391829770448763659e+00 -1.299879276980894782e-01 3.920000000000000000e+02
-2.329774617365888201e+00 -1.188411030309522554e+00 3.920000000000000000e+02
-3.267719464283012520e+00 -2.246834132920955351e+00 3.920000000000000000e+02
-4.205664311200137284e+00 -3.305257235532388371e+00 3.920000000000000000e+02
-5.143609158117261160e+00 -4.363680338143820947e+00 3.920000000000000000e+02
3.297894464136858161e+00 5.162127585359074899e+00 3.930000000000000000e+02
2.359949617219733842e+00 4.103704482747642324e+00 3.930000000000000000e+02
1.422004770302609522e+00 3.045281380136209304e+00 3.930000000000000000e+02
4.840599233854850914e-01 1.986858277524776284e+00 3.930000000000000000e+02
-4.538849235316393393e-01 9.284351749133434861e-01 3.930000000000000000e+02
-1.391829770448763659e+00 -1.299879276980894782e-01 3.930000000000000000e+02
-2.329774617365888201e+00 -1.188411030309522554e+00 3.930000000000000000e+02
-3.267719464283012520e+00 -2.246834132920955351e+00 3.930000000000000000e+02
-4.205664311200137284e+00 -3.305257235532388371e+00 3.930000000000000000e+02
-5.143609158117261160e+00 -4.363680338143820947e+00 3.930000000000000000e+02
3.297894464136858161e+00 5.162127585359074899e+00 3.940000000000000000e+02
2.359949617219733842e+00 4.103704482747642324e+00 3.940000000000000000e+02
1.422004770302609522e+00 3.045281380136209304e+00 3.940000000000000000e+02
4.840599233854850914e-01 1.986858277524776284e+00 3.940000000000000000e+02
-4.538849235316393393e-01 9.284351749133434861e-01 3.940000000000000000e+02
-1.391829770448763659e+00 -1.299879276980894782e-01 3.940000000000000000e+02
-2.329774617365888201e+00 -1.188411030309522554e+00 3.940000000000000000e+02
-3.267719464283012520e+00 -2.246834132920955351e+00 3.940000000000000000e+02
-4.205664311200137284e+00 -3.305257235532388371e+00 3.940000000000000000e+02
-5.143609158117261160e+00 -4.363680338143820947e+00 3.940000000000000000e+02
3.297894464136858161e+00 5.162127585359074899e+00 3.950000000000000000e+02
2.359949617219733842e+00 4.103704482747642324e+00 3.950000000000000000e+02
1.422004770302609522e+00 3.045281380136209304e+00 3.950000000000000000e+02
4.840599233854850914e-01 1.986858277524776284e+00 3.950000000000000000e+02
-4.538849235316393393e-01 9.284351749133434861e-01 3.950000000000000000e+02
-1.391829770448763659e+00 -1.299879276980894782e-01 3.950000000000000000e+02
-2.329774617365888201e+00 -1.188411030309522554e+00 3.950000000000000000e+02
-3.267719464283012520e+00 -2.246834132920955351e+00 3.950000000000000000e+02
-4.205664311200137284e+00 -3.305257235532388371e+00 3.950000000000000000e+02
-5.143609158117261160e+00 -4.363680338143820947e+00 3.950000000000000000e+02
3.297894464136858161e+00 5.162127585359074899e+00 3.960000000000000000e+02
2.359949617219733842e+00 4.103704482747642324e+00 3.960000000000000000e+02
1.422004770302609522e+00 3.045281380136209304e+00 3.960000000000000000e+02
4.840599233854850914e-01 1.986858277524776284e+00 3.960000000000000000e+02
-4.538849235316393393e-01 9.284351749133434861e-01 3.960000000000000000e+02
-1.391829770448763659e+00 -1.299879276980894782e-01 3.960000000000000000e+02
-2.329774617365888201e+00 -1.188411030309522554e+00 3.960000000000000000e+02
-3.267719464283012520e+00 -2.246834132920955351e+00 3.960000000000000000e+02
-4.205664311200137284e+00 -3.305257235532388371e+00 3.960000000000000000e+02
-5.143609158117261160e+00 -4.363680338143820947e+00 3.960000000000000000e+02
3.297894464136858161e+00 5.162127585359074899e+00 3.970000000000000000e+02
2.359949617219733842e+00 4.103704482747642324e+00 3.970000000000000000e+02
1.422004770302609522e+00 3.045281380136209304e+00 3.970000000000000000e+02
4.840599233854850914e-01 1.986858277524776284e+00 3.970000000000000000e+02
-4.538849235316393393e-01 9.284351749133434861e-01 3.970000000000000000e+02
-1.391829770448763659e+00 -1.299879276980894782e-01 3.970000000000000000e+02
-2.329774617365888201e+00 -1.188411030309522554e+00 3.970000000000000000e+02
-3.267719464283012520e+00 -2.246834132920955351e+00 3.970000000000000000e+02
-4.205664311200137284e+00 -3.305257235532388371e+00 3.970000000000000000e+02
-5.143609158117261160e+00 -4.363680338143820947e+00 3.970000000000000000e+02
3.297894464136858161e+00 5.162127585359074899e+00 3.980000000000000000e+02
2.359949617219733842e+00 4.103704482747642324e+00 3.980000000000000000e+02
1.422004770302609522e+00 3.045281380136209304e+00 3.980000000000000000e+02
4.840599233854850914e-01 1.986858277524776284e+00 3.980000000000000000e+02
-4.538849235316393393e-01 9.284351749133434861e-01 3.980000000000000000e+02
-1.391829770448763659e+00 -1.299879276980894782e-01 3.980000000000000000e+02
-2.329774617365888201e+00 -1.188411030309522554e+00 3.980000000000000000e+02
-3.267719464283012520e+00 -2.246834132920955351e+00 3.980000000000000000e+02
-4.205664311200137284e+00 -3.305257235532388371e+00 3.980000000000000000e+02
-5.143609158117261160e+00 -4.363680338143820947e+00 3.980000000000000000e+02
3.297894464136858161e+00 5.162127585359074899e+00 3.990000000000000000e+02
2.359949617219733842e+00 4.103704482747642324e+00 3.990000000000000000e+02
1.422004770302609522e+00 3.045281380136209304e+00 3.990000000000000000e+02
4.840599233854850914e-01 1.986858277524776284e+00 3.990000000000000000e+02
-4.538849235316393393e-01 9.284351749133434861e-01 3.990000000000000000e+02
-1.391829770448763659e+00 -1.299879276980894782e-01 3.990000000000000000e+02
-2.329774617365888201e+00 -1.188411030309522554e+00 3.990000000000000000e+02
-3.267719464283012520e+00 -2.246834132920955351e+00 3.990000000000000000e+02
-4.205664311200137284e+00 -3.305257235532388371e+00 3.990000000000000000e+02
-5.143609158117261160e+00 -4.363680338143820947e+00 3.990000000000000000e+02
3.297894464136858161e+00 5.162127585359074899e+00 4.000000000000000000e+02
2.359949617219733842e+00 4.103704482747642324e+00 4.000000000000000000e+02
1.422004770302609522e+00 3.045281380136209304e+00 4.000000000000000000e+02
4.840599233854850914e-01 1.986858277524776284e+00 4.000000000000000000e+02
-4.538849235316393393e-01 9.284351749133434861e-01 4.000000000000000000e+02
-1.391829770448763659e+00 -1.299879276980894782e-01 4.000000000000000000e+02
-2.329774617365888201e+00 -1.188411030309522554e+00 4.000000000000000000e+02
-3.267719464283012520e+00 -2.246834132920955351e+00 4.000000000000000000e+02
-4.205664311200137284e+00 -3.305257235532388371e+00 4.000000000000000000e+02
-5.143609158117261160e+00 -4.363680338143820947e+00 4.000000000000000000e+02
3.297894464136858161e+00 5.162127585359074899e+00 4.010000000000000000e+02
2.359949617219733842e+00 4.103704482747642324e+00 4.010000000000000000e+02
1.422004770302609522e+00 3.045281380136209304e+00 4.010000000000000000e+02
4.840599233854850914e-01 1.986858277524776284e+00 4.010000000000000000e+02
-4.538849235316393393e-01 9.284351749133434861e-01 4.010000000000000000e+02
-1.391829770448763659e+00 -1.299879276980894782e-01 4.010000000000000000e+02
-2.329774617365888201e+00 -1.188411030309522554e+00 4.010000000000000000e+02
-3.267719464283012520e+00 -2.246834132920955351e+00 4.010000000000000000e+02
-4.205664311200137284e+00 -3.305257235532388371e+00 4.010000000000000000e+02
-5.143609158117261160e+00 -4.363680338143820947e+00 4.010000000000000000e+02
3.297894464136858161e+00 5.162127585359074899e+00 4.020000000000000000e+02
2.359949617219733842e+00 4.103704482747642324e+00 4.020000000000000000e+02
