1.574138211195310610e+00 -3.559381328963495683e-03 3.510000000000000000e+02
2.926882395792993474e+00 -4.159707912549630571e-01 3.510000000000000000e+02
4.279626580390675450e+00 -8.283822011809625074e-01 3.510000000000000000e+02
5.632370764988358758e+00 -1.240793611106962180e+00 3.510000000000000000e+02
-6.542326896390785684e+00 2.470909078227033540e+00 3.520000000000000000e+02
-5.189582711793102376e+00 2.058497668301033201e+00 3.520000000000000000e+02
-3.836838527195419957e+00 1.646086258375033973e+00 3.520000000000000000e+02
-2.484094342597737093e+00 1.233674848449034966e+00 3.520000000000000000e+02
-1.131350158000054451e+00 8.212634385230354050e-01 3.520000000000000000e+02
2.213940265976280797e-01 4.088520285970360102e-01 3.520000000000000000e+02
1.574138211195310610e+00 -3.559381328963495683e-03 3.520000000000000000e+02
2.926882395792993474e+00 -4.159707912549630571e-01 3.520000000000000000e+02
4.279626580390675450e+00 -8.283822011809625074e-01 3.520000000000000000e+02
5.632370764988358758e+00 -1.240793611106962180e+00 3.520000000000000000e+02
6.985114949586042066e+00 -1.653205021032961630e+00 3.520000000000000000e+02
-6.542326896390785684e+00 2.470909078227033540e+00 3.530000000000000000e+02
-5.189582711793102376e+00 2.058497668301033201e+00 3.530000000000000000e+02
-3.836838527195419957e+00 1.646086258375033973e+00 3.530000000000000000e+02
-2.484094342597737093e+00 1.233674848449034966e+00 3.530000000000000000e+02
-1.131350158000054451e+00 8.212634385230354050e-01 3.530000000000000000e+02
2.213940265976280797e-01 4.088520285970360102e-01 3.530000000000000000e+02
1.574138211195310610e+00 -3.559381328963495683e-03 3.530000000000000000e+02
2.926882395792993474e+00 -4.159707912549630571e-01 3.530000000000000000e+02
4.279626580390675450e+00 -8.283822011809625074e-01 3.530000000000000000e+02
5.632370764988358758e+00 -1.240793611106962180e+00 3.530000000000000000e+02
6.985114949586042066e+00 -1.653205021032961630e+00 3.530000000000000000e+02
-6.072160509054943311e+00 1.588331280965191938e+00 3.540000000000000000e+02
-4.719416324457260892e+00 1.175919871039192488e+00 3.540000000000000000e+02
-3.366672139859578028e+00 7.635084611131932597e-01 3.540000000000000000e+02
-2.013927955261895608e+00 3.510970511871938649e-01 3.540000000000000000e+02
-6.611837706642129664e-01 -6.131435873880564102e-02 3.540000000000000000e+02
6.915604139334697864e-01 -4.737257686648050914e-01 3.540000000000000000e+02
2.044304598531152539e+00 -8.861371785908047638e-01 3.540000000000000000e+02
3.397048783128835403e+00 -1.298548588516803992e+00 3.540000000000000000e+02
4.749792967726517823e+00 -1.710959998442804109e+00 3.540000000000000000e+02
-6.072160509054943311e+00 1.588331280965191938e+00 3.550000000000000000e+02
-4.719416324457260892e+00 1.175919871039192488e+00 3.550000000000000000e+02
-3.366672139859578028e+00 7.635084611131932597e-01 3.550000000000000000e+02
-2.013927955261895608e+00 3.510970511871938649e-01 3.550000000000000000e+02
-6.611837706642129664e-01 -6.131435873880564102e-02 3.550000000000000000e+02
6.915604139334697864e-01 -4.737257686648050914e-01 3.550000000000000000e+02
2.044304598531152539e+00 -8.861371785908047638e-01 3.550000000000000000e+02
3.397048783128835403e+00 -1.298548588516803992e+00 3.550000000000000000e+02
4.749792967726517823e+00 -1.710959998442804109e+00 3.550000000000000000e+02
-6.072160509054943311e+00 1.588331280965191938e+00 3.560000000000000000e+02
-4.719416324457260892e+00 1.175919871039192488e+00 3.560000000000000000e+02
-3.366672139859578028e+00 7.635084611131932597e-01 3.560000000000000000e+02
-2.013927955261895608e+00 3.510970511871938649e-01 3.560000000000000000e+02
-6.611837706642129664e-01 -6.131435873880564102e-02 3.560000000000000000e+02
6.915604139334697864e-01 -4.737257686648050914e-01 3.560000000000000000e+02
2.044304598531152539e+00 -8.861371785908047638e-01 3.560000000000000000e+02
3.397048783128835403e+00 -1.298548588516803992e+00 3.560000000000000000e+02
4.749792967726517823e+00 -1.710959998442804109e+00 3.560000000000000000e+02
6.102537152324200243e+00 -2.123371408368803337e+00 3.560000000000000000e+02
-6.072160509054943311e+00 1.588331280965191938e+00 3.570000000000000000e+02
-4.719416324457260892e+00 1.175919871039192488e+00 3.570000000000000000e+02
-3.366672139859578028e+00 7.635084611131932597e-01 3.570000000000000000e+02
-2.013927955261895608e+00 3.510970511871938649e-01 3.570000000000000000e+02
-6.611837706642129664e-01 -6.131435873880564102e-02 3.570000000000000000e+02
6.915604139334697864e-01 -4.737257686648050914e-01 3.570000000000000000e+02
2.044304598531152539e+00 -8.861371785908047638e-01 3.570000000000000000e+02
3.397048783128835403e+00 -1.298548588516803992e+00 3.570000000000000000e+02
4.749792967726517823e+00 -1.710959998442804109e+00 3.570000000000000000e+02
6.102537152324200243e+00 -2.123371408368803337e+00 3.570000000000000000e+02
-6.072160509054943311e+00 1.588331280965191938e+00 3.580000000000000000e+02
-4.719416324457260892e+00 1.175919871039192488e+00 3.580000000000000000e+02
-3.366672139859578028e+00 7.635084611131932597e-01 3.580000000000000000e+02
-2.013927955261895608e+00 3.510970511871938649e-01 3.580000000000000000e+02
-6.611837706642129664e-01 -6.131435873880564102e-02 3.580000000000000000e+02
6.915604139334697864e-01 -4.737257686648050914e-01 3.580000000000000000e+02
2.044304598531152539e+00 -8.861371785908047638e-01 3.580000000000000000e+02
3.397048783128835403e+00 -1.298548588516803992e+00 3.580000000000000000e+02
4.749792967726517823e+00 -1.710959998442804109e+00 3.580000000000000000e+02
6.102537152324200243e+00 -2.123371408368803337e+00 3.580000000000000000e+02
-6.072160509054943311e+00 1.588331280965191938e+00 3.590000000000000000e+02
-4.719416324457260892e+00 1.175919871039192488e+00 3.590000000000000000e+02
-3.366672139859578028e+00 7.635084611131932597e-01 3.590000000000000000e+02
-2.013927955261895608e+00 3.510970511871938649e-01 3.590000000000000000e+02
-6.611837706642129664e-01 -6.131435873880564102e-02 3.590000000000000000e+02
6.915604139334697864e-01 -4.737257686648050914e-01 3.590000000000000000e+02
2.044304598531152539e+00 -8.861371785908047638e-01 3.590000000000000000e+02
3.397048783128835403e+00 -1.298548588516803992e+00 3.590000000000000000e+02
4.749792967726517823e+00 -1.710959998442804109e+00 3.590000000000000000e+02
6.102537152324200243e+00 -2.123371408368803337e+00 3.590000000000000000e+02
-6.072160509054943311e+00 1.588331280965191938e+00 3.600000000000000000e+02
-4.719416324457260892e+00 1.175919871039192488e+00 3.600000000000000000e+02
-3.366672139859578028e+00 7.635084611131932597e-01 3.600000000000000000e+02
-2.013927955261895608e+00 3.510970511871938649e-01 3.600000000000000000e+02
-6.611837706642129664e-01 -6.131435873880564102e-02 3.600000000000000000e+02
6.915604139334697864e-01 -4.737257686648050914e-01 3.600000000000000000e+02
2.044304598531152539e+00 -8.861371785908047638e-01 3.600000000000000000e+02
3.397048783128835403e+00 -1.298548588516803992e+00 3.600000000000000000e+02
4.749792967726517823e+00 -1.710959998442804109e+00 3.600000000000000000e+02
-6.072160509054943311e+00 1.588331280965191938e+00 3.610000000000000000e+02
-4.719416324457260892e+00 1.175919871039192488e+00 3.610000000000000000e+02
-3.366672139859578028e+00 7.635084611131932597e-01 3.610000000000000000e+02
-2.013927955261895608e+00 3.510970511871938649e-01 3.610000000000000000e+02
-6.611837706642129664e-01 -6.131435873880564102e-02 3.610000000000000000e+02
6.915604139334697864e-01 -4.737257686648050914e-01 3.610000000000000000e+02
2.044304598531152539e+00 -8.861371785908047638e-01 3.610000000000000000e+02
3.397048783128835403e+00 -1.298548588516803992e+00 3.610000000000000000e+02
4.749792967726517823e+00 -1.710959998442804109e+00 3.610000000000000000e+02
-6.072160509054943311e+00 1.588331280965191938e+00 3.620000000000000000e+02
-4.719416324457260892e+00 1.175919871039192488e+00 3.620000000000000000e+02
-3.366672139859578028e+00 7.635084611131932597e-01 3.620000000000000000e+02
-2.013927955261895608e+00 3.510970511871938649e-01 3.620000000000000000e+02
-6.611837706642129664e-01 -6.131435873880564102e-02 3.620000000000000000e+02
6.915604139334697864e-01 -4.737257686648050914e-01 3.620000000000000000e+02
2.044304598531152539e+00 -8.861371785908047638e-01 3.620000000000000000e+02
3.397048783128835403e+00 -1.298548588516803992e+00 3.620000000000000000e+02
4.749792967726517823e+00 -1.710959998442804109e+00 3.620000000000000000e+02
-6.072160509054943311e+00 1.588331280965191938e+00 3.630000000000000000e+02
-4.719416324457260892e+00 1.175919871039192488e+00 3.630000000000000000e+02
-3.366672139859578028e+00 7.635084611131932597e-01 3.630000000000000000e+02
-2.013927955261895608e+00 3.510970511871938649e-01 3.630000000000000000e+02
-6.611837706642129664e-01 -6.131435873880564102e-02 3.630000000000000000e+02
6.915604139334697864e-01 -4.737257686648050914e-01 3.630000000000000000e+02
2.044304598531152539e+00 -8.861371785908047638e-01 3.630000000000000000e+02
3.397048783128835403e+00 -1.298548588516803992e+00 3.630000000000000000e+02
4.749792967726517823e+00 -1.710959998442804109e+00 3.630000000000000000e+02
-6.072160509054943311e+00 1.588331280965191938e+00 3.640000000000000000e+02
-4.719416324457260892e+00 1.175919871039192488e+00 3.640000000000000000e+02
-3.366672139859578028e+00 7.635084611131932597e-01 3.640000000000000000e+02
-2.013927955261895608e+00 3.510970511871938649e-01 3.640000000000000000e+02
-6.611837706642129664e-01 -6.131435873880564102e-02 3.640000000000000000e+02
6.915604139334697864e-01 -4.737257686648050914e-01 3.640000000000000000e+02
2.044304598531152539e+00 -8.861371785908047638e-01 3.640000000000000000e+02
3.397048783128835403e+00 -1.298548588516803992e+00 3.640000000000000000e+02
4.749792967726517823e+00 -1.710959998442804109e+00 3.640000000000000000e+02
-6.072160509054943311e+00 1.588331280965191938e+00 3.650000000000000000e+02
-4.719416324457260892e+00 1.175919871039192488e+00 3.650000000000000000e+02
-3.366672139859578028e+00 7.635084611131932597e-01 3.650000000000000000e+02
-2.013927955261895608e+00 3.510970511871938649e-01 3.650000000000000000e+02
-6.611837706642129664e-01 -6.131435873880564102e-02 3.650000000000000000e+02
6.915604139334697864e-01 -4.737257686648050914e-01 3.650000000000000000e+02
2.044304598531152539e+00 -8.861371785908047638e-01 3.650000000000000000e+02
3.397048783128835403e+00 -1.298548588516803992e+00 3.650000000000000000e+02
4.749792967726517823e+00 -1.710959998442804109e+00 3.650000000000000000e+02
-6.072160509054943311e+00 1.588331280965191938e+00 3.660000000000000000e+02
-4.719416324457260892e+00 1.175919871039192488e+00 3.660000000000000000e+02
-3.366672139859578028e+00 7.635084611131932597e-01 3.660000000000000000e+02
-2.013927955261895608e+00 3.510970511871938649e-01 3.660000000000000000e+02
-6.611837706642129664e-01 -6.131435873880564102e-02 3.660000000000000000e+02
6.915604139334697864e-01 -4.737257686648050914e-01 3.660000000000000000e+02
2.044304598531152539e+00 -8.861371785908047638e-01 3.660000000000000000e+02
3.397048783128835403e+00 -1.298548588516803992e+00 3.660000000000000000e+02
4.749792967726517823e+00 -1.710959998442804109e+00 3.660000000000000000e+02
6.102537152324200243e+00 -2.123371408368803337e+00 3.660000000000000000e+02
-6.072160509054943311e+00 1.588331280965191938e+00 3.670000000000000000e+02
-4.719416324457260892e+00 1.175919871039192488e+00 3.670000000000000000e+02
-3.366672139859578028e+00 7.635084611131932597e-01 3.670000000000000000e+02
-2.013927955261895608e+00 3.510970511871938649e-01 3.670000000000000000e+02
-6.611837706642129664e-01 -6.131435873880564102e-02 3.670000000000000000e+02
6.915604139334697864e-01 -4.737257686648050914e-01 3.670000000000000000e+02
2.044304598531152539e+00 -8.861371785908047638e-01 3.670000000000000000e+02
3.397048783128835403e+00 -1.298548588516803992e+00 3.670000000000000000e+02
4.749792967726517823e+00 -1.710959998442804109e+00 3.670000000000000000e+02
6.102537152324200243e+00 -2.123371408368803337e+00 3.670000000000000000e+02
-6.072160509054943311e+00 1.588331280965191938e+00 3.680000000000000000e+02
-4.719416324457260892e+00 1.175919871039192488e+00 3.680000000000000000e+02
-3.366672139859578028e+00 7.635084611131932597e-01 3.680000000000000000e+02
-2.013927955261895608e+00 3.510970511871938649e-01 3.680000000000000000e+02
-6.611837706642129664e-01 -6.131435873880564102e-02 3.680000000000000000e+02
6.915604139334697864e-01 -4.737257686648050914e-01 3.680000000000000000e+02
2.044304598531152539e+00 -8.861371785908047638e-01 3.680000000000000000e+02
3.397048783128835403e+00 -1.298548588516803992e+00 3.680000000000000000e+02
4.749792967726517823e+00 -1.710959998442804109e+00 3.680000000000000000e+02
6.102537152324200243e+00 -2.123371408368803337e+00 3.680000000000000000e+02
-6.072160509054943311e+00 1.588331280965191938e+00 3.690000000000000000e+02
-4.719416324457260892e+00 1.175919871039192488e+00 3.690000000000000000e+02
-3.366672139859578028e+00 7.635084611131932597e-01 3.690000000000000000e+02
-2.013927955261895608e+00 3.510970511871938649e-01 3.690000000000000000e+02
-6.611837706642129664e-01 -6.131435873880564102e-02 3.690000000000000000e+02
6.915604139334697864e-01 -4.737257686648050914e-01 3.690000000000000000e+02
2.044304598531152539e+00 -8.861371785908047638e-01 3.690000000000000000e+02
3.397048783128835403e+00 -1.298548588516803992e+00 3.690000000000000000e+02
4.749792967726517823e+00 -1.710959998442804109e+00 3.690000000000000000e+02
-6.542326896390785684e+00 2.470909078227033540e+00 3.700000000000000000e+02
-5.189582711793102376e+00 2.058497668301033201e+00 3.700000000000000000e+02
-3.836838527195419957e+00 1.646086258375033973e+00 3.700000000000000000e+02
-2.484094342597737093e+00 1.233674848449034966e+00 3.700000000000000000e+02
-1.131350158000054451e+00 8.212634385230354050e-01 3.700000000000000000e+02
2.213940265976280797e-01 4.088520285970360102e-01 3.700000000000000000e+02
1.574138211195310610e+00 -3.559381328963495683e-03 3.700000000000000000e+02
2.926882395792993474e+00 -4.159707912549630571e-01 3.700000000000000000e+02
4.279626580390675450e+00 -8.283822011809625074e-01 3.700000000000000000e+02
5.632370764988358758e+00 -1.240793611106962180e+00 3.700000000000000000e+02
-6.542326896390785684e+00 2.470909078227033540e+00 3.710000000000000000e+02
-5.189582711793102376e+00 2.058497668301033201e+00 3.710000000000000000e+02
-3.836838527195419957e+00 1.646086258375033973e+00 3.710000000000000000e+02
-2.484094342597737093e+00 1.233674848449034966e+00 3.710000000000000000e+02
-1.131350158000054451e+00 8.212634385230354050e-01 3.710000000000000000e+02
2.213940265976280797e-01 4.088520285970360102e-01 3.710000000000000000e+02
1.574138211195310610e+00 -3.559381328963495683e-03 3.710000000000000000e+02
2.926882395792993474e+00 -4.159707912549630571e-01 3.710000000000000000e+02
4.279626580390675450e+00 -8.283822011809625074e-01 3.710000000000000000e+02
5.632370764988358758e+00 -1.240793611106962180e+00 3.710000000000000000e+02
-6.072160509054943311e+00 1.588331280965191938e+00 3.720000000000000000e+02
-4.719416324457260892e+00 1.175919871039192488e+00 3.720000000000000000e+02
-3.366672139859578028e+00 7.635084611131932597e-01 3.720000000000000000e+02
-2.013927955261895608e+00 3.510970511871938649e-01 3.720000000000000000e+02
-6.611837706642129664e-01 -6.131435873880564102e-02 3.720000000000000000e+02
6.915604139334697864e-01 -4.737257686648050914e-01 3.720000000000000000e+02
2.044304598531152539e+00 -8.861371785908047638e-01 3.720000000000000000e+02
3.397048783128835403e+00 -1.298548588516803992e+00 3.720000000000000000e+02
4.749792967726517823e+00 -1.710959998442804109e+00 3.720000000000000000e+02
6.102537152324200243e+00 -2.123371408368803337e+00 3.720000000000000000e+02
-6.072160509054943311e+00 1.588331280965191938e+00 3.730000000000000000e+02
-4.719416324457260892e+00 1.175919871039192488e+00 3.730000000000000000e+02
-3.366672139859578028e+00 7.635084611131932597e-01 3.730000000000000000e+02
-2.013927955261895608e+00 3.510970511871938649e-01 3.730000000000000000e+02
-6.611837706642129664e-01 -6.131435873880564102e-02 3.730000000000000000e+02
6.915604139334697864e-01 -4.737257686648050914e-01 3.730000000000000000e+02
2.044304598531152539e+00 -8.861371785908047638e-01 3.730000000000000000e+02
3.397048783128835403e+00 -1.298548588516803992e+00 3.730000000000000000e+02
4.749792967726517823e+00 -1.710959998442804109e+00 3.730000000000000000e+02
6.102537152324200243e+00 -2.123371408368803337e+00 3.730000000000000000e+02
-6.072160509054943311e+00 1.588331280965191938e+00 3.740000000000000000e+02
-4.719416324457260892e+00 1.175919871039192488e+00 3.740000000000000000e+02
-3.366672139859578028e+00 7.635084611131932597e-01 3.740000000000000000e+02
-2.013927955261895608e+00 3.510970511871938649e-01 3.740000000000000000e+02
-6.611837706642129664e-01 -6.131435873880564102e-02 3.740000000000000000e+02
6.915604139334697864e-01 -4.737257686648050914e-01 3.740000000000000000e+02
2.044304598531152539e+00 -8.861371785908047638e-01 3.740000000000000000e+02
3.397048783128835403e+00 -1.298548588516803992e+00 3.740000000000000000e+02
4.749792967726517823e+00 -1.710959998442804109e+00 3.740000000000000000e+02
6.102537152324200243e+00 -2.123371408368803337e+00 3.740000000000000000e+02
-6.072160509054943311e+00 1.588331280965191938e+00 3.750000000000000000e+02
-4.719416324457260892e+00 1.175919871039192488e+00 3.750000000000000000e+02
-3.366672139859578028e+00 7.635084611131932597e-01 3.750000000000000000e+02
-2.013927955261895608e+00 3.510970511871938649e-01 3.750000000000000000e+02
-6.611837706642129664e-01 -6.131435873880564102e-02 3.750000000000000000e+02
6.915604139334697864e-01 -4.737257686648050914e-01 3.750000000000000000e+02
2.044304598531152539e+00 -8.861371785908047638e-01 3.750000000000000000e+02
3.397048783128835403e+00 -1.298548588516803992e+00 3.750000000000000000e+02
4.749792967726517823e+00 -1.710959998442804109e+00 3.750000000000000000e+02
6.102537152324200243e+00 -2.123371408368803337e+00 3.750000000000000000e+02
-6.072160509054943311e+00 1.588331280965191938e+00 3.760000000000000000e+02
-4.719416324457260892e+00 1.175919871039192488e+00 3.760000000000000000e+02
-3.366672139859578028e+00 7.635084611131932597e-01 3.760000000000000000e+02
-2.013927955261895608e+00 3.510970511871938649e-01 3.760000000000000000e+02
-6.611837706642129664e-01 -6.131435873880564102e-02 3.760000000000000000e+02
6.915604139334697864e-01 -4.737257686648050914e-01 3.760000000000000000e+02
2.044304598531152539e+00 -8.861371785908047638e-01 3.760000000000000000e+02
3.397048783128835403e+00 -1.298548588516803992e+00 3.760000000000000000e+02
4.749792967726517823e+00 -1.710959998442804109e+00 3.760000000000000000e+02
6.102537152324200243e+00 -2.123371408368803337e+00 3.760000000000000000e+02
-6.072160509054943311e+00 1.588331280965191938e+00 3.770000000000000000e+02
-4.719416324457260892e+00 1.175919871039192488e+00 3.770000000000000000e+02
-3.366672139859578028e+00 7.635084611131932597e-01 3.770000000000000000e+02
-2.013927955261895608e+00 3.510970511871938649e-01 3.770000000000000000e+02
-6.611837706642129664e-01 -6.131435873880564102e-02 3.770000000000000000e+02
6.915604139334697864e-01 -4.737257686648050914e-01 3.770000000000000000e+02
2.044304598531152539e+00 -8.861371785908047638e-01 3.770000000000000000e+02
3.397048783128835403e+00 -1.298548588516803992e+00 3.770000000000000000e+02
4.749792967726517823e+00 -1.710959998442804109e+00 3.770000000000000000e+02
-6.072160509054943311e+00 1.588331280965191938e+00 3.780000000000000000e+02
-4.719416324457260892e+00 1.175919871039192488e+00 3.780000000000000000e+02
-3.366672139859578028e+00 7.635084611131932597e-01 3.780000000000000000e+02
-2.013927955261895608e+00 3.510970511871938649e-01 3.780000000000000000e+02
-6.611837706642129664e-01 -6.131435873880564102e-02 3.780000000000000000e+02
6.915604139334697864e-01 -4.737257686648050914e-01 3.780000000000000000e+02
2.044304598531152539e+00 -8.861371785908047638e-01 3.780000000000000000e+02
3.397048783128835403e+00 -1.298548588516803992e+00 3.780000000000000000e+02
4.749792967726517823e+00 -1.710959998442804109e+00 3.780000000000000000e+02
-6.072160509054943311e+00 1.588331280965191938e+00 3.790000000000000000e+02
-4.719416324457260892e+00 1.175919871039192488e+00 3.790000000000000000e+02
-3.366672139859578028e+00 7.635084611131932597e-01 3.790000000000000000e+02
-2.013927955261895608e+00 3.510970511871938649e-01 3.790000000000000000e+02
-6.611837706642129664e-01 -6.131435873880564102e-02 3.790000000000000000e+02
6.915604139334697864e-01 -4.737257686648050914e-01 3.790000000000000000e+02
2.044304598531152539e+00 -8.861371785908047638e-01 3.790000000000000000e+02
3.397048783128835403e+00 -1.298548588516803992e+00 3.790000000000000000e+02
4.749792967726517823e+00 -1.710959998442804109e+00 3.790000000000000000e+02
-6.072160509054943311e+00 1.588331280965191938e+00 3.800000000000000000e+02
-4.719416324457260892e+00 1.175919871039192488e+00 3.800000000000000000e+02
-3.366672139859578028e+00 7.635084611131932597e-01 3.800000000000000000e+02
-2.013927955261895608e+00 3.510970511871938649e-01 3.800000000000000000e+02
-6.611837706642129664e-01 -6.131435873880564102e-02 3.800000000000000000e+02
6.915604139334697864e-01 -4.737257686648050914e-01 3.800000000000000000e+02
2.044304598531152539e+00 -8.861371785908047638e-01 3.800000000000000000e+02
3.397048783128835403e+00 -1.298548588516803992e+00 3.800000000000000000e+02
4.749792967726517823e+00 -1.710959998442804109e+00 3.800000000000000000e+02
-6.072160509054943311e+00 1.588331280965191938e+00 3.810000000000000000e+02
-4.719416324457260892e+00 1.175919871039192488e+00 3.810000000000000000e+02
-3.366672139859578028e+00 7.635084611131932597e-01 3.810000000000000000e+02
-2.013927955261895608e+00 3.510970511871938649e-01 3.810000000000000000e+02
-6.611837706642129664e-01 -6.131435873880564102e-02 3.810000000000000000e+02
6.915604139334697864e-01 -4.737257686648050914e-01 3.810000000000000000e+02
2.044304598531152539e+00 -8.861371785908047638e-01 3.810000000000000000e+02
3.397048783128835403e+00 -1.298548588516803992e+00 3.810000000000000000e+02
4.749792967726517823e+00 -1.710959998442804109e+00 3.810000000000000000e+02
-6.072160509054943311e+00 1.588331280965191938e+00 3.820000000000000000e+02
-4.719416324457260892e+00 1.175919871039192488e+00 3.820000000000000000e+02
-3.366672139859578028e+00 7.635084611131932597e-01 3.820000000000000000e+02
-2.013927955261895608e+00 3.510970511871938649e-01 3.820000000000000000e+02
-6.611837706642129664e-01 -6.131435873880564102e-02 3.820000000000000000e+02
6.915604139334697864e-01 -4.737257686648050914e-01 3.820000000000000000e+02
2.044304598531152539e+00 -8.861371785908047638e-01 3.820000000000000000e+02
3.397048783128835403e+00 -1.298548588516803992e+00 3.820000000000000000e+02
4.749792967726517823e+00 -1.710959998442804109e+00 3.820000000000000000e+02
6.102537152324200243e+00 -2.123371408368803337e+00 3.820000000000000000e+02
-6.072160509054943311e+00 1.588331280965191938e+00 3.830000000000000000e+02
-4.719416324457260892e+00 1.175919871039192488e+00 3.830000000000000000e+02
-3.366672139859578028e+00 7.635084611131932597e-01 3.830000000000000000e+02
-2.013927955261895608e+00 3.510970511871938649e-01 3.830000000000000000e+02
-6.611837706642129664e-01 -6.131435873880564102e-02 3.830000000000000000e+02
6.915604139334697864e-01 -4.737257686648050914e-01 3.830000000000000000e+02
2.044304598531152539e+00 -8.861371785908047638e-01 3.830000000000000000e+02
3.397048783128835403e+00 -1.298548588516803992e+00 3.830000000000000000e+02
4.749792967726517823e+00 -1.710959998442804109e+00 3.830000000000000000e+02
6.102537152324200243e+00 -2.123371408368803337e+00 3.830000000000000000e+02
-6.072160509054943311e+00 1.588331280965191938e+00 3.840000000000000000e+02
-4.719416324457260892e+00 1.175919871039192488e+00 3.840000000000000000e+02
-3.366672139859578028e+00 7.635084611131932597e-01 3.840000000000000000e+02
-2.013927955261895608e+00 3.510970511871938649e-01 3.840000000000000000e+02
-6.611837706642129664e-01 -6.131435873880564102e-02 3.840000000000000000e+02
6.915604139334697864e-01 -4.737257686648050914e-01 3.840000000000000000e+02
2.044304598531152539e+00 -8.861371785908047638e-01 3.840000000000000000e+02
3.397048783128835403e+00 -1.298548588516803992e+00 3.840000000000000000e+02
4.749792967726517823e+00 -1.710959998442804109e+00 3.840000000000000000e+02
-6.072160509054943311e+00 1.588331280965191938e+00 3.850000000000000000e+02
-4.719416324457260892e+00 1.175919871039192488e+00 3.850000000000000000e+02
-3.366672139859578028e+00 7.635084611131932597e-01 3.850000000000000000e+02
-2.013927955261895608e+00 3.510970511871938649e-01 3.850000000000000000e+02
-6.611837706642129664e-01 -6.131435873880564102e-02 3.850000000000000000e+02
6.915604139334697864e-01 -4.737257686648050914e-01 3.850000000000000000e+02
2.044304598531152539e+00 -8.861371785908047638e-01 3.850000000000000000e+02
3.397048783128835403e+00 -1.298548588516803992e+00 3.850000000000000000e+02
4.749792967726517823e+00 -1.710959998442804109e+00 3.850000000000000000e+02
-6.072160509054943311e+00 1.588331280965191938e+00 3.860000000000000000e+02
-4.719416324457260892e+00 1.175919871039192488e+00 3.860000000000000000e+02
-3.366672139859578028e+00 7.635084611131932597e-01 3.860000000000000000e+02
-2.013927955261895608e+00 3.510970511871938649e-01 3.860000000000000000e+02
-6.611837706642129664e-01 -6.131435873880564102e-02 3.860000000000000000e+02
6.915604139334697864e-01 -4.737257686648050914e-01 3.860000000000000000e+02
2.044304598531152539e+00 -8.861371785908047638e-01 3.860000000000000000e+02
3.397048783128835403e+00 -1.298548588516803992e+00 3.860000000000000000e+02
4.749792967726517823e+00 -1.710959998442804109e+00 3.860000000000000000e+02
-6.072160509054943311e+00 1.588331280965191938e+00 3.870000000000000000e+02
-4.719416324457260892e+00 1.175919871039192488e+00 3.870000000000000000e+02
-3.366672139859578028e+00 7.635084611131932597e-01 3.870000000000000000e+02
-2.013927955261895608e+00 3.510970511871938649e-01 3.870000000000000000e+02
-6.611837706642129664e-01 -6.131435873880564102e-02 3.870000000000000000e+02
6.915604139334697864e-01 -4.737257686648050914e-01 3.870000000000000000e+02
2.044304598531152539e+00 -8.861371785908047638e-01 3.870000000000000000e+02
3.397048783128835403e+00 -1.298548588516803992e+00 3.870000000000000000e+02
4.749792967726517823e+00 -1.710959998442804109e+00 3.870000000000000000e+02
-6.072160509054943311e+00 1.588331280965191938e+00 3.880000000000000000e+02
-4.719416324457260892e+00 1.175919871039192488e+00 3.880000000000000000e+02
-3.366672139859578028e+00 7.635084611131932597e-01 3.880000000000000000e+02
-2.013927955261895608e+00 3.510970511871938649e-01 3.880000000000000000e+02
-6.611837706642129664e-01 -6.131435873880564102e-02 3.880000000000000000e+02
6.915604139334697864e-01 -4.737257686648050914e-01 3.880000000000000000e+02
2.044304598531152539e+00 -8.861371785908047638e-01 3.880000000000000000e+02
3.397048783128835403e+00 -1.298548588516803992e+00 3.880000000000000000e+02
4.749792967726517823e+00 -1.710959998442804109e+00 3.880000000000000000e+02
-6.072160509054943311e+00 1.588331280965191938e+00 3.890000000000000000e+02
-4.719416324457260892e+00 1.175919871039192488e+00 3.890000000000000000e+02
-3.366672139859578028e+00 7.635084611131932597e-01 3.890000000000000000e+02
-2.013927955261895608e+00 3.510970511871938649e-01 3.890000000000000000e+02
-6.611837706642129664e-01 -6.131435873880564102e-02 3.890000000000000000e+02
6.915604139334697864e-01 -4.737257686648050914e-01 3.890000000000000000e+02
2.044304598531152539e+00 -8.861371785908047638e-01 3.890000000000000000e+02
3.397048783128835403e+00 -1.298548588516803992e+00 3.890000000000000000e+02
4.749792967726517823e+00 -1.710959998442804109e+00 3.890000000000000000e+02
-6.072160509054943311e+00 1.588331280965191938e+00 3.900000000000000000e+02
-4.719416324457260892e+00 1.175919871039192488e+00 3.900000000000000000e+02
-3.366672139859578028e+00 7.635084611131932597e-01 3.900000000000000000e+02
-2.013927955261895608e+00 3.510970511871938649e-01 3.900000000000000000e+02
-6.611837706642129664e-01 -6.131435873880564102e-02 3.900000000000000000e+02
6.915604139334697864e-01 -4.737257686648050914e-01 3.900000000000000000e+02
2.044304598531152539e+00 -8.861371785908047638e-01 3.900000000000000000e+02
3.397048783128835403e+00 -1.298548588516803992e+00 3.900000000000000000e+02
4.749792967726517823e+00 -1.710959998442804109e+00 3.900000000000000000e+02
-6.072160509054943311e+00 1.588331280965191938e+00 3.910000000000000000e+02
-4.719416324457260892e+00 1.175919871039192488e+00 3.910000000000000000e+02
-3.366672139859578028e+00 7.635084611131932597e-01 3.910000000000000000e+02
-2.013927955261895608e+00 3.510970511871938649e-01 3.910000000000000000e+02
-6.611837706642129664e-01 -6.131435873880564102e-02 3.910000000000000000e+02
6.915604139334697864e-01 -4.737257686648050914e-01 3.910000000000000000e+02
2.044304598531152539e+00 -8.861371785908047638e-01 3.910000000000000000e+02
3.397048783128835403e+00 -1.298548588516803992e+00 3.910000000000000000e+02
4.749792967726517823e+00 -1.710959998442804109e+00 3.910000000000000000e+02
-6.072160509054943311e+00 1.588331280965191938e+00 3.920000000000000000e+02
-4.719416324457260892e+00 1.175919871039192488e+00 3.920000000000000000e+02
-3.366672139859578028e+00 7.635084611131932597e-01 3.920000000000000000e+02
-2.013927955261895608e+00 3.510970511871938649e-01 3.920000000000000000e+02
-6.611837706642129664e-01 -6.131435873880564102e-02 3.920000000000000000e+02
6.915604139334697864e-01 -4.737257686648050914e-01 3.920000000000000000e+02
2.044304598531152539e+00 -8.861371785908047638e-01 3.920000000000000000e+02
3.397048783128835403e+00 -1.298548588516803992e+00 3.920000000000000000e+02
4.749792967726517823e+00 -1.710959998442804109e+00 3.920000000000000000e+02
-6.072160509054943311e+00 1.588331280965191938e+00 3.930000000000000000e+02
-4.719416324457260892e+00 1.175919871039192488e+00 3.930000000000000000e+02
-3.366672139859578028e+00 7.635084611131932597e-01 3.930000000000000000e+02
-2.013927955261895608e+00 3.510970511871938649e-01 3.930000000000000000e+02
-6.611837706642129664e-01 -6.131435873880564102e-02 3.930000000000000000e+02
6.915604139334697864e-01 -4.737257686648050914e-01 3.930000000000000000e+02
2.044304598531152539e+00 -8.861371785908047638e-01 3.930000000000000000e+02
3.397048783128835403e+00 -1.298548588516803992e+00 3.930000000000000000e+02
4.749792967726517823e+00 -1.710959998442804109e+00 3.930000000000000000e+02
-6.072160509054943311e+00 1.588331280965191938e+00 3.940000000000000000e+02
-4.719416324457260892e+00 1.175919871039192488e+00 3.940000000000000000e+02
-3.366672139859578028e+00 7.635084611131932597e-01 3.940000000000000000e+02
-2.013927955261895608e+00 3.510970511871938649e-01 3.940000000000000000e+02
-6.611837706642129664e-01 -6.131435873880564102e-02 3.940000000000000000e+02
6.915604139334697864e-01 -4.737257686648050914e-01 3.940000000000000000e+02
2.044304598531152539e+00 -8.861371785908047638e-01 3.940000000000000000e+02
3.397048783128835403e+00 -1.298548588516803992e+00 3.940000000000000000e+02
4.749792967726517823e+00 -1.710959998442804109e+00 3.940000000000000000e+02
-6.072160509054943311e+00 1.588331280965191938e+00 3.950000000000000000e+02
-4.719416324457260892e+00 1.175919871039192488e+00 3.950000000000000000e+02
-3.366672139859578028e+00 7.635084611131932597e-01 3.950000000000000000e+02
-2.013927955261895608e+00 3.510970511871938649e-01 3.950000000000000000e+02
-6.611837706642129664e-01 -6.131435873880564102e-02 3.950000000000000000e+02
6.915604139334697864e-01 -4.737257686648050914e-01 3.950000000000000000e+02
2.044304598531152539e+00 -8.861371785908047638e-01 3.950000000000000000e+02
3.397048783128835403e+00 -1.298548588516803992e+00 3.950000000000000000e+02
4.749792967726517823e+00 -1.710959998442804109e+00 3.950000000000000000e+02
-6.542326896390785684e+00 2.470909078227033540e+00 3.960000000000000000e+02
-5.189582711793102376e+00 2.058497668301033201e+00 3.960000000000000000e+02
-3.836838527195419957e+00 1.646086258375033973e+00 3.960000000000000000e+02
-2.484094342597737093e+00 1.233674848449034966e+00 3.960000000000000000e+02
-1.131350158000054451e+00 8.212634385230354050e-01 3.960000000000000000e+02
2.213940265976280797e-01 4.088520285970360102e-01 3.960000000000000000e+02
1.574138211195310610e+00 -3.559381328963495683e-03 3.960000000000000000e+02
2.926882395792993474e+00 -4.159707912549630571e-01 3.960000000000000000e+02
4.279626580390675450e+00 -8.283822011809625074e-01 3.960000000000000000e+02
5.632370764988358758e+00 -1.240793611106962180e+00 3.960000000000000000e+02
-6.542326896390785684e+00 2.470909078227033540e+00 3.970000000000000000e+02
-5.189582711793102376e+00 2.058497668301033201e+00 3.970000000000000000e+02
-3.836838527195419957e+00 1.646086258375033973e+00 3.970000000000000000e+02
-2.484094342597737093e+00 1.233674848449034966e+00 3.970000000000000000e+02
-1.131350158000054451e+00 8.212634385230354050e-01 3.970000000000000000e+02
2.213940265976280797e-01 4.088520285970360102e-01 3.970000000000000000e+02
1.574138211195310610e+00 -3.559381328963495683e-03 3.970000000000000000e+02
2.926882395792993474e+00 -4.159707912549630571e-01 3.970000000000000000e+02
4.279626580390675450e+00 -8.283822011809625074e-01 3.970000000000000000e+02
5.632370764988358758e+00 -1.240793611106962180e+00 3.970000000000000000e+02
-6.542326896390785684e+00 2.470909078227033540e+00 3.980000000000000000e+02
-5.189582711793102376e+00 2.058497668301033201e+00 3.980000000000000000e+02
-3.836838527195419957e+00 1.646086258375033973e+00 3.980000000000000000e+02
-2.484094342597737093e+00 1.233674848449034966e+00 3.980000000000000000e+02
-1.131350158000054451e+00 8.212634385230354050e-01 3.980000000000000000e+02
2.213940265976280797e-01 4.088520285970360102e-01 3.980000000000000000e+02
1.574138211195310610e+00 -3.559381328963495683e-03 3.980000000000000000e+02
2.926882395792993474e+00 -4.159707912549630571e-01 3.980000000000000000e+02
4.279626580390675450e+00 -8.283822011809625074e-01 3.980000000000000000e+02
5.632370764988358758e+00 -1.240793611106962180e+00 3.980000000000000000e+02
-6.072160509054943311e+00 1.588331280965191938e+00 3.990000000000000000e+02
-4.719416324457260892e+00 1.175919871039192488e+00 3.990000000000000000e+02
-3.366672139859578028e+00 7.635084611131932597e-01 3.990000000000000000e+02
-2.013927955261895608e+00 3.510970511871938649e-01 3.990000000000000000e+02
-6.611837706642129664e-01 -6.131435873880564102e-02 3.990000000000000000e+02
6.915604139334697864e-01 -4.737257686648050914e-01 3.990000000000000000e+02
2.044304598531152539e+00 -8.861371785908047638e-01 3.990000000000000000e+02
3.397048783128835403e+00 -1.298548588516803992e+00 3.990000000000000000e+02
4.749792967726517823e+00 -1.710959998442804109e+00 3.990000000000000000e+02
-6.072160509054943311e+00 1.588331280965191938e+00 4.000000000000000000e+02
-4.719416324457260892e+00 1.175919871039192488e+00 4.000000000000000000e+02
-3.366672139859578028e+00 7.635084611131932597e-01 4.000000000000000000e+02
-2.013927955261895608e+00 3.510970511871938649e-01 4.000000000000000000e+02
-6.611837706642129664e-01 -6.131435873880564102e-02 4.000000000000000000e+02
6.915604139334697864e-01 -4.737257686648050914e-01 4.000000000000000000e+02
2.044304598531152539e+00 -8.861371785908047638e-01 4.000000000000000000e+02
3.397048783128835403e+00 -1.298548588516803992e+00 4.000000000000000000e+02
4.749792967726517823e+00 -1.710959998442804109e+00 4.000000000000000000e+02
-6.542326896390785684e+00 2.470909078227033540e+00 4.010000000000000000e+02
-5.189582711793102376e+00 2.058497668301033201e+00 4.010000000000000000e+02
-3.836838527195419957e+00 1.646086258375033973e+00 4.010000000000000000e+02
-2.484094342597737093e+00 1.233674848449034966e+00 4.010000000000000000e+02
-1.131350158000054451e+00 8.212634385230354050e-01 4.010000000000000000e+02
2.213940265976280797e-01 4.088520285970360102e-01 4.010000000000000000e+02
1.574138211195310610e+00 -3.559381328963495683e-03 4.010000000000000000e+02
2.926882395792993474e+00 -4.159707912549630571e-01 4.010000000000000000e+02
4.279626580390675450e+00 -8.283822011809625074e-01 4.010000000000000000e+02
5.632370764988358758e+00 -1.240793611106962180e+00 4.010000000000000000e+02
-6.542326896390785684e+00 2.470909078227033540e+00 4.020000000000000000e+02
-5.189582711793102376e+00 2.058497668301033201e+00 4.020000000000000000e+02
-3.836838527195419957e+00 1.646086258375033973e+00 4.020000000000000000e+02
-2.484094342597737093e+00 1.233674848449034966e+00 4.020000000000000000e+02
-1.131350158000054451e+00 8.212634385230354050e-01 4.020000000000000000e+02
2.213940265976280797e-01 4.088520285970360102e-01 4.020000000000000000e+02
1.574138211195310610e+00 -3.559381328963495683e-03 4.020000000000000000e+02
2.926882395792993474e+00 -4.159707912549630571e-01 4.020000000000000000e+02
4.279626580390675450e+00 -8.283822011809625074e-01 4.020000000000000000e+02
5.632370764988358758e+00 -1.240793611106962180e+00 4.020000000000000000e+02
-6.542326896390785684e+00 2.470909078227033540e+00 4.030000000000000000e+02
-5.189582711793102376e+00 2.058497668301033201e+00 4.030000000000000000e+02
-3.836838527195419957e+00 1.646086258375033973e+00 4.030000000000000000e+02
-2.484094342597737093e+00 1.233674848449034966e+00 4.030000000000000000e+02
-1.131350158000054451e+00 8.212634385230354050e-01 4.030000000000000000e+02
2.213940265976280797e-01 4.088520285970360102e-01 4.030000000000000000e+02
1.574138211195310610e+00 -3.559381328963495683e-03 4.030000000000000000e+02
2.926882395792993474e+00 -4.159707912549630571e-01 4.030000000000000000e+02
4.279626580390675450e+00 -8.283822011809625074e-01 4.030000000000000000e+02
5.632370764988358758e+00 -1.240793611106962180e+00 4.030000000000000000e+02
-6.542326896390785684e+00 2.470909078227033540e+00 4.040000000000000000e+02
-5.189582711793102376e+00 2.058497668301033201e+00 4.040000000000000000e+02
-3.836838527195419957e+00 1.646086258375033973e+00 4.040000000000000000e+02
-2.484094342597737093e+00 1.233674848449034966e+00 4.040000000000000000e+02
-1.131350158000054451e+00 8.212634385230354050e-01 4.040000000000000000e+02
2.213940265976280797e-01 4.088520285970360102e-01 4.040000000000000000e+02
1.574138211195310610e+00 -3.559381328963495683e-03 4.040000000000000000e+02
2.926882395792993474e+00 -4.159707912549630571e-01 4.040000000000000000e+02
4.279626580390675450e+00 -8.283822011809625074e-01 4.040000000000000000e+02
5.632370764988358758e+00 -1.240793611106962180e+00 4.040000000000000000e+02
-6.542326896390785684e+00 2.470909078227033540e+00 4.050000000000000000e+02
-5.189582711793102376e+00 2.058497668301033201e+00 4.050000000000000000e+02
-3.836838527195419957e+00 1.646086258375033973e+00 4.050000000000000000e+02
-2.484094342597737093e+00 1.233674848449034966e+00 4.050000000000000000e+02
-1.131350158000054451e+00 8.212634385230354050e-01 4.050000000000000000e+02
2.213940265976280797e-01 4.088520285970360102e-01 4.050000000000000000e+02
1.574138211195310610e+00 -3.559381328963495683e-03 4.050000000000000000e+02
2.926882395792993474e+00 -4.159707912549630571e-01 4.050000000000000000e+02
4.279626580390675450e+00 -8.283822011809625074e-01 4.050000000000000000e+02
5.632370764988358758e+00 -1.240793611106962180e+00 4.050000000000000000e+02
-6.542326896390785684e+00 2.470909078227033540e+00 4.060000000000000000e+02
-5.189582711793102376e+00 2.058497668301033201e+00 4.060000000000000000e+02
-3.836838527195419957e+00 1.646086258375033973e+00 4.060000000000000000e+02
-2.484094342597737093e+00 1.233674848449034966e+00 4.060000000000000000e+02
-1.131350158000054451e+00 8.212634385230354050e-01 4.060000000000000000e+02
2.213940265976280797e-01 4.088520285970360102e-01 4.060000000000000000e+02
1.574138211195310610e+00 -3.559381328963495683e-03 4.060000000000000000e+02
2.926882395792993474e+00 -4.159707912549630571e-01 4.060000000000000000e+02
4.279626580390675450e+00 -8.283822011809625074e-01 4.060000000000000000e+02
5.632370764988358758e+00 -1.240793611106962180e+00 4.060000000000000000e+02
-6.542326896390785684e+00 2.470909078227033540e+00 4.070000000000000000e+02
-5.189582711793102376e+00 2.058497668301033201e+00 4.070000000000000000e+02
-3.836838527195419957e+00 1.646086258375033973e+00 4.070000000000000000e+02
-2.484094342597737093e+00 1.233674848449034966e+00 4.070000000000000000e+02
-1.131350158000054451e+00 8.212634385230354050e-01 4.070000000000000000e+02
2.213940265976280797e-01 4.088520285970360102e-01 4.070000000000000000e+02
1.574138211195310610e+00 -3.559381328963495683e-03 4.070000000000000000e+02
2.926882395792993474e+00 -4.159707912549630571e-01 4.070000000000000000e+02
4.279626580390675450e+00 -8.283822011809625074e-01 4.070000000000000000e+02
5.632370764988358758e+00 -1.240793611106962180e+00 4.070000000000000000e+02
-6.542326896390785684e+00 2.470909078227033540e+00 4.080000000000000000e+02
-5.189582711793102376e+00 2.058497668301033201e+00 4.080000000000000000e+02
-3.836838527195419957e+00 1.646086258375033973e+00 4.080000000000000000e+02
-2.484094342597737093e+00 1.233674848449034966e+00 4.080000000000000000e+02
-1.131350158000054451e+00 8.212634385230354050e-01 4.080000000000000000e+02
2.213940265976280797e-01 4.088520285970360102e-01 4.080000000000000000e+02
1.574138211195310610e+00 -3.559381328963495683e-03 4.080000000000000000e+02
2.926882395792993474e+00 -4.159707912549630571e-01 4.080000000000000000e+02
4.279626580390675450e+00 -8.283822011809625074e-01 4.080000000000000000e+02
-6.542326896390785684e+00 2.470909078227033540e+00 4.090000000000000000e+02
-5.189582711793102376e+00 2.058497668301033201e+00 4.090000000000000000e+02
-3.836838527195419957e+00 1.646086258375033973e+00 4.090000000000000000e+02
-2.484094342597737093e+00 1.233674848449034966e+00 4.090000000000000000e+02
-1.131350158000054451e+00 8.212634385230354050e-01 4.090000000000000000e+02
2.213940265976280797e-01 4.088520285970360102e-01 4.090000000000000000e+02
1.574138211195310610e+00 -3.559381328963495683e-03 4.090000000000000000e+02
2.926882395792993474e+00 -4.159707912549630571e-01 4.090000000000000000e+02
4.279626580390675450e+00 -8.283822011809625074e-01 4.090000000000000000e+02
-6.542326896390785684e+00 2.470909078227033540e+00 4.100000000000000000e+02
-5.189582711793102376e+00 2.058497668301033201e+00 4.100000000000000000e+02
-3.836838527195419957e+00 1.646086258375033973e+00 4.100000000000000000e+02
-2.484094342597737093e+00 1.233674848449034966e+00 4.100000000000000000e+02
-1.131350158000054451e+00 8.212634385230354050e-01 4.100000000000000000e+02
2.213940265976280797e-01 4.088520285970360102e-01 4.100000000000000000e+02
1.574138211195310610e+00 -3.559381328963495683e-03 4.100000000000000000e+02
2.926882395792993474e+00 -4.159707912549630571e-01 4.100000000000000000e+02
4.279626580390675450e+00 -8.283822011809625074e-01 4.100000000000000000e+02
-6.542326896390785684e+00 2.470909078227033540e+00 4.110000000000000000e+02
-5.189582711793102376e+00 2.058497668301033201e+00 4.110000000000000000e+02
-3.836838527195419957e+00 1.646086258375033973e+00 4.110000000000000000e+02
-2.484094342597737093e+00 1.233674848449034966e+00 4.110000000000000000e+02
-1.131350158000054451e+00 8.212634385230354050e-01 4.110000000000000000e+02
2.213940265976280797e-01 4.088520285970360102e-01 4.110000000000000000e+02
1.574138211195310610e+00 -3.559381328963495683e-03 4.110000000000000000e+02
2.926882395792993474e+00 -4.159707912549630571e-01 4.110000000000000000e+02
4.279626580390675450e+00 -8.283822011809625074e-01 4.110000000000000000e+02
-6.542326896390785684e+00 2.470909078227033540e+00 4.120000000000000000e+02
-5.189582711793102376e+00 2.058497668301033201e+00 4.120000000000000000e+02
-3.836838527195419957e+00 1.646086258375033973e+00 4.120000000000000000e+02
-2.484094342597737093e+00 1.233674848449034966e+00 4.120000000000000000e+02
-1.131350158000054451e+00 8.212634385230354050e-01 4.120000000000000000e+02
2.213940265976280797e-01 4.088520285970360102e-01 4.120000000000000000e+02
1.574138211195310610e+00 -3.559381328963495683e-03 4.120000000000000000e+02
2.926882395792993474e+00 -4.159707912549630571e-01 4.120000000000000000e+02
4.279626580390675450e+00 -8.283822011809625074e-01 4.120000000000000000e+02
-6.542326896390785684e+00 2.470909078227033540e+00 4.130000000000000000e+02
-5.189582711793102376e+00 2.058497668301033201e+00 4.130000000000000000e+02
-3.836838527195419957e+00 1.646086258375033973e+00 4.130000000000000000e+02
-2.484094342597737093e+00 1.233674848449034966e+00 4.130000000000000000e+02
-1.131350158000054451e+00 8.212634385230354050e-01 4.130000000000000000e+02
2.213940265976280797e-01 4.088520285970360102e-01 4.130000000000000000e+02
1.574138211195310610e+00 -3.559381328963495683e-03 4.130000000000000000e+02
2.926882395792993474e+00 -4.159707912549630571e-01 4.130000000000000000e+02
4.279626580390675450e+00 -8.283822011809625074e-01 4.130000000000000000e+02
-6.542326896390785684e+00 2.470909078227033540e+00 4.140000000000000000e+02
-5.189582711793102376e+00 2.058497668301033201e+00 4.140000000000000000e+02
-3.836838527195419957e+00 1.646086258375033973e+00 4.140000000000000000e+02
-2.484094342597737093e+00 1.233674848449034966e+00 4.140000000000000000e+02
-1.131350158000054451e+00 8.212634385230354050e-01 4.140000000000000000e+02
2.213940265976280797e-01 4.088520285970360102e-01 4.140000000000000000e+02
1.574138211195310610e+00 -3.559381328963495683e-03 4.140000000000000000e+02
2.926882395792993474e+00 -4.159707912549630571e-01 4.140000000000000000e+02
4.279626580390675450e+00 -8.283822011809625074e-01 4.140000000000000000e+02
-6.542326896390785684e+00 2.470909078227033540e+00 4.150000000000000000e+02
-5.189582711793102376e+00 2.058497668301033201e+00 4.150000000000000000e+02
-3.836838527195419957e+00 1.646086258375033973e+00 4.150000000000000000e+02
-2.484094342597737093e+00 1.233674848449034966e+00 4.150000000000000000e+02
-1.131350158000054451e+00 8.212634385230354050e-01 4.150000000000000000e+02
2.213940265976280797e-01 4.088520285970360102e-01 4.150000000000000000e+02
1.574138211195310610e+00 -3.559381328963495683e-03 4.150000000000000000e+02
2.926882395792993474e+00 -4.159707912549630571e-01 4.150000000000000000e+02
4.279626580390675450e+00 -8.283822011809625074e-01 4.150000000000000000e+02
5.632370764988358758e+00 -1.240793611106962180e+00 4.150000000000000000e+02
-6.542326896390785684e+00 2.470909078227033540e+00 4.160000000000000000e+02
-5.189582711793102376e+00 2.058497668301033201e+00 4.160000000000000000e+02
-3.836838527195419957e+00 1.646086258375033973e+00 4.160000000000000000e+02
-2.484094342597737093e+00 1.233674848449034966e+00 4.160000000000000000e+02
-1.131350158000054451e+00 8.212634385230354050e-01 4.160000000000000000e+02
2.213940265976280797e-01 4.088520285970360102e-01 4.160000000000000000e+02
1.574138211195310610e+00 -3.559381328963495683e-03 4.160000000000000000e+02
2.926882395792993474e+00 -4.159707912549630571e-01 4.160000000000000000e+02
4.279626580390675450e+00 -8.283822011809625074e-01 4.160000000000000000e+02
5.632370764988358758e+00 -1.240793611106962180e+00 4.160000000000000000e+02
-7.012493283726626281e+00 3.353486875488873586e+00 4.170000000000000000e+02
-5.659749099128943861e+00 2.941075465562875024e+00 4.170000000000000000e+02
-4.307004914531261441e+00 2.528664055636874686e+00 4.170000000000000000e+02
-2.954260729933579022e+00 2.116252645710875679e+00 4.170000000000000000e+02
-1.601516545335896158e+00 1.703841235784876451e+00 4.170000000000000000e+02
-2.487723607382135160e-01 1.291429825858877001e+00 4.170000000000000000e+02
1.103971823859469126e+00 8.790184159328776614e-01 4.170000000000000000e+02
2.456716008457151545e+00 4.666070060068781000e-01 4.170000000000000000e+02
3.809460193054834853e+00 5.419559608087842761e-02 4.170000000000000000e+02
5.162204377652517273e+00 -3.582158138451208007e-01 4.170000000000000000e+02
