-3.758506787485803358e+00 2.730434975472768588e+00 3.110000000000000000e+02
-3.500410958245896431e+00 4.120897683685026180e+00 3.110000000000000000e+02
-3.242315129005989949e+00 5.511360391897283328e+00 3.110000000000000000e+02
-5.307081762925241364e+00 -5.612341273800775632e+00 3.120000000000000000e+02
-5.048985933685335326e+00 -4.221878565588518484e+00 3.120000000000000000e+02
-4.790890104445429287e+00 -2.831415857376260892e+00 3.120000000000000000e+02
-4.532794275205522361e+00 -1.440953149164003300e+00 3.120000000000000000e+02
-4.274698445965615434e+00 -5.049044095174587410e-02 3.120000000000000000e+02
-4.016602616725709396e+00 1.339972267260511440e+00 3.120000000000000000e+02
-3.758506787485803358e+00 2.730434975472768588e+00 3.120000000000000000e+02
-3.500410958245896431e+00 4.120897683685026180e+00 3.120000000000000000e+02
-3.242315129005989949e+00 5.511360391897283328e+00 3.120000000000000000e+02
-2.984219299766083910e+00 6.901823100109540476e+00 3.120000000000000000e+02
-5.307081762925241364e+00 -5.612341273800775632e+00 3.130000000000000000e+02
-5.048985933685335326e+00 -4.221878565588518484e+00 3.130000000000000000e+02
-4.790890104445429287e+00 -2.831415857376260892e+00 3.130000000000000000e+02
-4.532794275205522361e+00 -1.440953149164003300e+00 3.130000000000000000e+02
-4.274698445965615434e+00 -5.049044095174587410e-02 3.130000000000000000e+02
-4.016602616725709396e+00 1.339972267260511440e+00 3.130000000000000000e+02
-3.758506787485803358e+00 2.730434975472768588e+00 3.130000000000000000e+02
-3.500410958245896431e+00 4.120897683685026180e+00 3.130000000000000000e+02
-3.242315129005989949e+00 5.511360391897283328e+00 3.130000000000000000e+02
-2.984219299766083910e+00 6.901823100109540476e+00 3.130000000000000000e+02
-5.307081762925241364e+00 -5.612341273800775632e+00 3.140000000000000000e+02
-5.048985933685335326e+00 -4.221878565588518484e+00 3.140000000000000000e+02
-4.790890104445429287e+00 -2.831415857376260892e+00 3.140000000000000000e+02
-4.532794275205522361e+00 -1.440953149164003300e+00 3.140000000000000000e+02
-4.274698445965615434e+00 -5.049044095174587410e-02 3.140000000000000000e+02
-4.016602616725709396e+00 1.339972267260511440e+00 3.140000000000000000e+02
-3.758506787485803358e+00 2.730434975472768588e+00 3.140000000000000000e+02
-3.500410958245896431e+00 4.120897683685026180e+00 3.140000000000000000e+02
-3.242315129005989949e+00 5.511360391897283328e+00 3.140000000000000000e+02
-2.984219299766083910e+00 6.901823100109540476e+00 3.140000000000000000e+02
-5.307081762925241364e+00 -5.612341273800775632e+00 3.150000000000000000e+02
-5.048985933685335326e+00 -4.221878565588518484e+00 3.150000000000000000e+02
-4.790890104445429287e+00 -2.831415857376260892e+00 3.150000000000000000e+02
-4.532794275205522361e+00 -1.440953149164003300e+00 3.150000000000000000e+02
-4.274698445965615434e+00 -5.049044095174587410e-02 3.150000000000000000e+02
-4.016602616725709396e+00 1.339972267260511440e+00 3.150000000000000000e+02
-3.758506787485803358e+00 2.730434975472768588e+00 3.150000000000000000e+02
-3.500410958245896431e+00 4.120897683685026180e+00 3.150000000000000000e+02
-3.242315129005989949e+00 5.511360391897283328e+00 3.150000000000000000e+02
-2.984219299766083910e+00 6.901823100109540476e+00 3.150000000000000000e+02
-5.307081762925241364e+00 -5.612341273800775632e+00 3.160000000000000000e+02
-5.048985933685335326e+00 -4.221878565588518484e+00 3.160000000000000000e+02
-4.790890104445429287e+00 -2.831415857376260892e+00 3.160000000000000000e+02
-4.532794275205522361e+00 -1.440953149164003300e+00 3.160000000000000000e+02
-4.274698445965615434e+00 -5.049044095174587410e-02 3.160000000000000000e+02
-4.016602616725709396e+00 1.339972267260511440e+00 3.160000000000000000e+02
-3.758506787485803358e+00 2.730434975472768588e+00 3.160000000000000000e+02
-3.500410958245896431e+00 4.120897683685026180e+00 3.160000000000000000e+02
-3.242315129005989949e+00 5.511360391897283328e+00 3.160000000000000000e+02
-2.984219299766083910e+00 6.901823100109540476e+00 3.160000000000000000e+02
-6.131361031651323401e+00 -6.178524713286951631e+00 3.170000000000000000e+02
-5.873265202411417363e+00 -4.788062005074693595e+00 3.170000000000000000e+02
-5.615169373171510436e+00 -3.397599296862436447e+00 3.170000000000000000e+02
-5.357073543931604398e+00 -2.007136588650178854e+00 3.170000000000000000e+02
-5.098977714691697471e+00 -6.166738804379212624e-01 3.170000000000000000e+02
-4.840881885451791433e+00 7.737888277743361076e-01 3.170000000000000000e+02
-4.582786056211885395e+00 2.164251535986593478e+00 3.170000000000000000e+02
-4.324690226971978468e+00 3.554714244198850626e+00 3.170000000000000000e+02
-4.066594397732071542e+00 4.945176952411108218e+00 3.170000000000000000e+02
-3.808498568492165504e+00 6.335639660623365366e+00 3.170000000000000000e+02
-3.550402739252259465e+00 7.726102368835622514e+00 3.170000000000000000e+02
-6.131361031651323401e+00 -6.178524713286951631e+00 3.180000000000000000e+02
-5.873265202411417363e+00 -4.788062005074693595e+00 3.180000000000000000e+02
-5.615169373171510436e+00 -3.397599296862436447e+00 3.180000000000000000e+02
-5.357073543931604398e+00 -2.007136588650178854e+00 3.180000000000000000e+02
-5.098977714691697471e+00 -6.166738804379212624e-01 3.180000000000000000e+02
-4.840881885451791433e+00 7.737888277743361076e-01 3.180000000000000000e+02
-4.582786056211885395e+00 2.164251535986593478e+00 3.180000000000000000e+02
-4.324690226971978468e+00 3.554714244198850626e+00 3.180000000000000000e+02
-4.066594397732071542e+00 4.945176952411108218e+00 3.180000000000000000e+02
-3.808498568492165504e+00 6.335639660623365366e+00 3.180000000000000000e+02
-3.550402739252259465e+00 7.726102368835622514e+00 3.180000000000000000e+02
-6.131361031651323401e+00 -6.178524713286951631e+00 3.190000000000000000e+02
-5.873265202411417363e+00 -4.788062005074693595e+00 3.190000000000000000e+02
-5.615169373171510436e+00 -3.397599296862436447e+00 3.190000000000000000e+02
-5.357073543931604398e+00 -2.007136588650178854e+00 3.190000000000000000e+02
-5.098977714691697471e+00 -6.166738804379212624e-01 3.190000000000000000e+02
-4.840881885451791433e+00 7.737888277743361076e-01 3.190000000000000000e+02
-4.582786056211885395e+00 2.164251535986593478e+00 3.190000000000000000e+02
-4.324690226971978468e+00 3.554714244198850626e+00 3.190000000000000000e+02
-4.066594397732071542e+00 4.945176952411108218e+00 3.190000000000000000e+02
-3.808498568492165504e+00 6.335639660623365366e+00 3.190000000000000000e+02
-3.550402739252259465e+00 7.726102368835622514e+00 3.190000000000000000e+02
-6.131361031651323401e+00 -6.178524713286951631e+00 3.200000000000000000e+02
-5.873265202411417363e+00 -4.788062005074693595e+00 3.200000000000000000e+02
-5.615169373171510436e+00 -3.397599296862436447e+00 3.200000000000000000e+02
-5.357073543931604398e+00 -2.007136588650178854e+00 3.200000000000000000e+02
-5.098977714691697471e+00 -6.166738804379212624e-01 3.200000000000000000e+02
-4.840881885451791433e+00 7.737888277743361076e-01 3.200000000000000000e+02
-4.582786056211885395e+00 2.164251535986593478e+00 3.200000000000000000e+02
-4.324690226971978468e+00 3.554714244198850626e+00 3.200000000000000000e+02
-4.066594397732071542e+00 4.945176952411108218e+00 3.200000000000000000e+02
-3.808498568492165504e+00 6.335639660623365366e+00 3.200000000000000000e+02
-3.550402739252259465e+00 7.726102368835622514e+00 3.200000000000000000e+02
-5.307081762925241364e+00 -5.612341273800775632e+00 3.210000000000000000e+02
-5.048985933685335326e+00 -4.221878565588518484e+00 3.210000000000000000e+02
-4.790890104445429287e+00 -2.831415857376260892e+00 3.210000000000000000e+02
-4.532794275205522361e+00 -1.440953149164003300e+00 3.210000000000000000e+02
-4.274698445965615434e+00 -5.049044095174587410e-02 3.210000000000000000e+02
-4.016602616725709396e+00 1.339972267260511440e+00 3.210000000000000000e+02
-3.758506787485803358e+00 2.730434975472768588e+00 3.210000000000000000e+02
-3.500410958245896431e+00 4.120897683685026180e+00 3.210000000000000000e+02
-3.242315129005989949e+00 5.511360391897283328e+00 3.210000000000000000e+02
-2.984219299766083910e+00 6.901823100109540476e+00 3.210000000000000000e+02
-5.307081762925241364e+00 -5.612341273800775632e+00 3.220000000000000000e+02
-5.048985933685335326e+00 -4.221878565588518484e+00 3.220000000000000000e+02
-4.790890104445429287e+00 -2.831415857376260892e+00 3.220000000000000000e+02
-4.532794275205522361e+00 -1.440953149164003300e+00 3.220000000000000000e+02
-4.274698445965615434e+00 -5.049044095174587410e-02 3.220000000000000000e+02
-4.016602616725709396e+00 1.339972267260511440e+00 3.220000000000000000e+02
-3.758506787485803358e+00 2.730434975472768588e+00 3.220000000000000000e+02
-3.500410958245896431e+00 4.120897683685026180e+00 3.220000000000000000e+02
-3.242315129005989949e+00 5.511360391897283328e+00 3.220000000000000000e+02
-2.984219299766083910e+00 6.901823100109540476e+00 3.220000000000000000e+02
-4.482802494199159327e+00 -5.046157834314600521e+00 3.230000000000000000e+02
-4.224706664959253288e+00 -3.655695126102342485e+00 3.230000000000000000e+02
-3.966610835719346806e+00 -2.265232417890085337e+00 3.230000000000000000e+02
-3.708515006479440324e+00 -8.747697096778277448e-01 3.230000000000000000e+02
-3.450419177239534285e+00 5.156929985344296252e-01 3.230000000000000000e+02
-3.192323347999627803e+00 1.906155706746686773e+00 3.230000000000000000e+02
-2.934227518759721320e+00 3.296618414958944143e+00 3.230000000000000000e+02
-2.676131689519814394e+00 4.687081123171201291e+00 3.230000000000000000e+02
-2.418035860279908356e+00 6.077543831383459327e+00 3.230000000000000000e+02
-5.307081762925241364e+00 -5.612341273800775632e+00 3.240000000000000000e+02
-5.048985933685335326e+00 -4.221878565588518484e+00 3.240000000000000000e+02
-4.790890104445429287e+00 -2.831415857376260892e+00 3.240000000000000000e+02
-4.532794275205522361e+00 -1.440953149164003300e+00 3.240000000000000000e+02
-4.274698445965615434e+00 -5.049044095174587410e-02 3.240000000000000000e+02
-4.016602616725709396e+00 1.339972267260511440e+00 3.240000000000000000e+02
-3.758506787485803358e+00 2.730434975472768588e+00 3.240000000000000000e+02
-3.500410958245896431e+00 4.120897683685026180e+00 3.240000000000000000e+02
-3.242315129005989949e+00 5.511360391897283328e+00 3.240000000000000000e+02
-2.984219299766083910e+00 6.901823100109540476e+00 3.240000000000000000e+02
-5.307081762925241364e+00 -5.612341273800775632e+00 3.250000000000000000e+02
-5.048985933685335326e+00 -4.221878565588518484e+00 3.250000000000000000e+02
-4.790890104445429287e+00 -2.831415857376260892e+00 3.250000000000000000e+02
-4.532794275205522361e+00 -1.440953149164003300e+00 3.250000000000000000e+02
-4.274698445965615434e+00 -5.049044095174587410e-02 3.250000000000000000e+02
-4.016602616725709396e+00 1.339972267260511440e+00 3.250000000000000000e+02
-3.758506787485803358e+00 2.730434975472768588e+00 3.250000000000000000e+02
-3.500410958245896431e+00 4.120897683685026180e+00 3.250000000000000000e+02
-3.242315129005989949e+00 5.511360391897283328e+00 3.250000000000000000e+02
-2.984219299766083910e+00 6.901823100109540476e+00 3.250000000000000000e+02
-5.307081762925241364e+00 -5.612341273800775632e+00 3.260000000000000000e+02
-5.048985933685335326e+00 -4.221878565588518484e+00 3.260000000000000000e+02
-4.790890104445429287e+00 -2.831415857376260892e+00 3.260000000000000000e+02
-4.532794275205522361e+00 -1.440953149164003300e+00 3.260000000000000000e+02
-4.274698445965615434e+00 -5.049044095174587410e-02 3.260000000000000000e+02
-4.016602616725709396e+00 1.339972267260511440e+00 3.260000000000000000e+02
-3.758506787485803358e+00 2.730434975472768588e+00 3.260000000000000000e+02
-3.500410958245896431e+00 4.120897683685026180e+00 3.260000000000000000e+02
-3.242315129005989949e+00 5.511360391897283328e+00 3.260000000000000000e+02
-2.984219299766083910e+00 6.901823100109540476e+00 3.260000000000000000e+02
-5.307081762925241364e+00 -5.612341273800775632e+00 3.270000000000000000e+02
-5.048985933685335326e+00 -4.221878565588518484e+00 3.270000000000000000e+02
-4.790890104445429287e+00 -2.831415857376260892e+00 3.270000000000000000e+02
-4.532794275205522361e+00 -1.440953149164003300e+00 3.270000000000000000e+02
-4.274698445965615434e+00 -5.049044095174587410e-02 3.270000000000000000e+02
-4.016602616725709396e+00 1.339972267260511440e+00 3.270000000000000000e+02
-3.758506787485803358e+00 2.730434975472768588e+00 3.270000000000000000e+02
-3.500410958245896431e+00 4.120897683685026180e+00 3.270000000000000000e+02
-3.242315129005989949e+00 5.511360391897283328e+00 3.270000000000000000e+02
-2.984219299766083910e+00 6.901823100109540476e+00 3.270000000000000000e+02
-6.131361031651323401e+00 -6.178524713286951631e+00 3.280000000000000000e+02
-5.873265202411417363e+00 -4.788062005074693595e+00 3.280000000000000000e+02
-5.615169373171510436e+00 -3.397599296862436447e+00 3.280000000000000000e+02
-5.357073543931604398e+00 -2.007136588650178854e+00 3.280000000000000000e+02
-5.098977714691697471e+00 -6.166738804379212624e-01 3.280000000000000000e+02
-4.840881885451791433e+00 7.737888277743361076e-01 3.280000000000000000e+02
-4.582786056211885395e+00 2.164251535986593478e+00 3.280000000000000000e+02
-4.324690226971978468e+00 3.554714244198850626e+00 3.280000000000000000e+02
-4.066594397732071542e+00 4.945176952411108218e+00 3.280000000000000000e+02
-3.808498568492165504e+00 6.335639660623365366e+00 3.280000000000000000e+02
-3.550402739252259465e+00 7.726102368835622514e+00 3.280000000000000000e+02
-6.131361031651323401e+00 -6.178524713286951631e+00 3.290000000000000000e+02
-5.873265202411417363e+00 -4.788062005074693595e+00 3.290000000000000000e+02
-5.615169373171510436e+00 -3.397599296862436447e+00 3.290000000000000000e+02
-5.357073543931604398e+00 -2.007136588650178854e+00 3.290000000000000000e+02
-5.098977714691697471e+00 -6.166738804379212624e-01 3.290000000000000000e+02
-4.840881885451791433e+00 7.737888277743361076e-01 3.290000000000000000e+02
-4.582786056211885395e+00 2.164251535986593478e+00 3.290000000000000000e+02
-4.324690226971978468e+00 3.554714244198850626e+00 3.290000000000000000e+02
-4.066594397732071542e+00 4.945176952411108218e+00 3.290000000000000000e+02
-3.808498568492165504e+00 6.335639660623365366e+00 3.290000000000000000e+02
-3.550402739252259465e+00 7.726102368835622514e+00 3.290000000000000000e+02
-5.307081762925241364e+00 -5.612341273800775632e+00 3.300000000000000000e+02
-5.048985933685335326e+00 -4.221878565588518484e+00 3.300000000000000000e+02
-4.790890104445429287e+00 -2.831415857376260892e+00 3.300000000000000000e+02
-4.532794275205522361e+00 -1.440953149164003300e+00 3.300000000000000000e+02
-4.274698445965615434e+00 -5.049044095174587410e-02 3.300000000000000000e+02
-4.016602616725709396e+00 1.339972267260511440e+00 3.300000000000000000e+02
-3.758506787485803358e+00 2.730434975472768588e+00 3.300000000000000000e+02
-3.500410958245896431e+00 4.120897683685026180e+00 3.300000000000000000e+02
-3.242315129005989949e+00 5.511360391897283328e+00 3.300000000000000000e+02
-2.984219299766083910e+00 6.901823100109540476e+00 3.300000000000000000e+02
-5.307081762925241364e+00 -5.612341273800775632e+00 3.310000000000000000e+02
-5.048985933685335326e+00 -4.221878565588518484e+00 3.310000000000000000e+02
-4.790890104445429287e+00 -2.831415857376260892e+00 3.310000000000000000e+02
-4.532794275205522361e+00 -1.440953149164003300e+00 3.310000000000000000e+02
-4.274698445965615434e+00 -5.049044095174587410e-02 3.310000000000000000e+02
-4.016602616725709396e+00 1.339972267260511440e+00 3.310000000000000000e+02
-3.758506787485803358e+00 2.730434975472768588e+00 3.310000000000000000e+02
-3.500410958245896431e+00 4.120897683685026180e+00 3.310000000000000000e+02
-3.242315129005989949e+00 5.511360391897283328e+00 3.310000000000000000e+02
-2.984219299766083910e+00 6.901823100109540476e+00 3.310000000000000000e+02
-5.307081762925241364e+00 -5.612341273800775632e+00 3.320000000000000000e+02
-5.048985933685335326e+00 -4.221878565588518484e+00 3.320000000000000000e+02
-4.790890104445429287e+00 -2.831415857376260892e+00 3.320000000000000000e+02
-4.532794275205522361e+00 -1.440953149164003300e+00 3.320000000000000000e+02
-4.274698445965615434e+00 -5.049044095174587410e-02 3.320000000000000000e+02
-4.016602616725709396e+00 1.339972267260511440e+00 3.320000000000000000e+02
-3.758506787485803358e+00 2.730434975472768588e+00 3.320000000000000000e+02
-3.500410958245896431e+00 4.120897683685026180e+00 3.320000000000000000e+02
-3.242315129005989949e+00 5.511360391897283328e+00 3.320000000000000000e+02
-2.984219299766083910e+00 6.901823100109540476e+00 3.320000000000000000e+02
-5.307081762925241364e+00 -5.612341273800775632e+00 3.330000000000000000e+02
-5.048985933685335326e+00 -4.221878565588518484e+00 3.330000000000000000e+02
-4.790890104445429287e+00 -2.831415857376260892e+00 3.330000000000000000e+02
-4.532794275205522361e+00 -1.440953149164003300e+00 3.330000000000000000e+02
-4.274698445965615434e+00 -5.049044095174587410e-02 3.330000000000000000e+02
-4.016602616725709396e+00 1.339972267260511440e+00 3.330000000000000000e+02
-3.758506787485803358e+00 2.730434975472768588e+00 3.330000000000000000e+02
-3.500410958245896431e+00 4.120897683685026180e+00 3.330000000000000000e+02
-3.242315129005989949e+00 5.511360391897283328e+00 3.330000000000000000e+02
-2.984219299766083910e+00 6.901823100109540476e+00 3.330000000000000000e+02
-5.307081762925241364e+00 -5.612341273800775632e+00 3.340000000000000000e+02
-5.048985933685335326e+00 -4.221878565588518484e+00 3.340000000000000000e+02
-4.790890104445429287e+00 -2.831415857376260892e+00 3.340000000000000000e+02
-4.532794275205522361e+00 -1.440953149164003300e+00 3.340000000000000000e+02
-4.274698445965615434e+00 -5.049044095174587410e-02 3.340000000000000000e+02
-4.016602616725709396e+00 1.339972267260511440e+00 3.340000000000000000e+02
-3.758506787485803358e+00 2.730434975472768588e+00 3.340000000000000000e+02
-3.500410958245896431e+00 4.120897683685026180e+00 3.340000000000000000e+02
-3.242315129005989949e+00 5.511360391897283328e+00 3.340000000000000000e+02
-2.984219299766083910e+00 6.901823100109540476e+00 3.340000000000000000e+02
-5.307081762925241364e+00 -5.612341273800775632e+00 3.350000000000000000e+02
-5.048985933685335326e+00 -4.221878565588518484e+00 3.350000000000000000e+02
-4.790890104445429287e+00 -2.831415857376260892e+00 3.350000000000000000e+02
-4.532794275205522361e+00 -1.440953149164003300e+00 3.350000000000000000e+02
-4.274698445965615434e+00 -5.049044095174587410e-02 3.350000000000000000e+02
-4.016602616725709396e+00 1.339972267260511440e+00 3.350000000000000000e+02
-3.758506787485803358e+00 2.730434975472768588e+00 3.350000000000000000e+02
-3.500410958245896431e+00 4.120897683685026180e+00 3.350000000000000000e+02
-3.242315129005989949e+00 5.511360391897283328e+00 3.350000000000000000e+02
-2.984219299766083910e+00 6.901823100109540476e+00 3.350000000000000000e+02
-5.307081762925241364e+00 -5.612341273800775632e+00 3.360000000000000000e+02
-5.048985933685335326e+00 -4.221878565588518484e+00 3.360000000000000000e+02
-4.790890104445429287e+00 -2.831415857376260892e+00 3.360000000000000000e+02
-4.532794275205522361e+00 -1.440953149164003300e+00 3.360000000000000000e+02
-4.274698445965615434e+00 -5.049044095174587410e-02 3.360000000000000000e+02
-4.016602616725709396e+00 1.339972267260511440e+00 3.360000000000000000e+02
-3.758506787485803358e+00 2.730434975472768588e+00 3.360000000000000000e+02
-3.500410958245896431e+00 4.120897683685026180e+00 3.360000000000000000e+02
-3.242315129005989949e+00 5.511360391897283328e+00 3.360000000000000000e+02
-2.984219299766083910e+00 6.901823100109540476e+00 3.360000000000000000e+02
-5.307081762925241364e+00 -5.612341273800775632e+00 3.370000000000000000e+02
-5.048985933685335326e+00 -4.221878565588518484e+00 3.370000000000000000e+02
-4.790890104445429287e+00 -2.831415857376260892e+00 3.370000000000000000e+02
-4.532794275205522361e+00 -1.440953149164003300e+00 3.370000000000000000e+02
-4.274698445965615434e+00 -5.049044095174587410e-02 3.370000000000000000e+02
-4.016602616725709396e+00 1.339972267260511440e+00 3.370000000000000000e+02
-3.758506787485803358e+00 2.730434975472768588e+00 3.370000000000000000e+02
-3.500410958245896431e+00 4.120897683685026180e+00 3.370000000000000000e+02
-3.242315129005989949e+00 5.511360391897283328e+00 3.370000000000000000e+02
-2.984219299766083910e+00 6.901823100109540476e+00 3.370000000000000000e+02
-5.307081762925241364e+00 -5.612341273800775632e+00 3.380000000000000000e+02
-5.048985933685335326e+00 -4.221878565588518484e+00 3.380000000000000000e+02
-4.790890104445429287e+00 -2.831415857376260892e+00 3.380000000000000000e+02
-4.532794275205522361e+00 -1.440953149164003300e+00 3.380000000000000000e+02
-4.274698445965615434e+00 -5.049044095174587410e-02 3.380000000000000000e+02
-4.016602616725709396e+00 1.339972267260511440e+00 3.380000000000000000e+02
-3.758506787485803358e+00 2.730434975472768588e+00 3.380000000000000000e+02
-3.500410958245896431e+00 4.120897683685026180e+00 3.380000000000000000e+02
-3.242315129005989949e+00 5.511360391897283328e+00 3.380000000000000000e+02
-2.984219299766083910e+00 6.901823100109540476e+00 3.380000000000000000e+02
-5.307081762925241364e+00 -5.612341273800775632e+00 3.390000000000000000e+02
-5.048985933685335326e+00 -4.221878565588518484e+00 3.390000000000000000e+02
-4.790890104445429287e+00 -2.831415857376260892e+00 3.390000000000000000e+02
-4.532794275205522361e+00 -1.440953149164003300e+00 3.390000000000000000e+02
-4.274698445965615434e+00 -5.049044095174587410e-02 3.390000000000000000e+02
-4.016602616725709396e+00 1.339972267260511440e+00 3.390000000000000000e+02
-3.758506787485803358e+00 2.730434975472768588e+00 3.390000000000000000e+02
-3.500410958245896431e+00 4.120897683685026180e+00 3.390000000000000000e+02
-3.242315129005989949e+00 5.511360391897283328e+00 3.390000000000000000e+02
-2.984219299766083910e+00 6.901823100109540476e+00 3.390000000000000000e+02
-2.726123470526177428e+00 8.292285808321798513e+00 3.390000000000000000e+02
-5.307081762925241364e+00 -5.612341273800775632e+00 3.400000000000000000e+02
-5.048985933685335326e+00 -4.221878565588518484e+00 3.400000000000000000e+02
-4.790890104445429287e+00 -2.831415857376260892e+00 3.400000000000000000e+02
-4.532794275205522361e+00 -1.440953149164003300e+00 3.400000000000000000e+02
-4.274698445965615434e+00 -5.049044095174587410e-02 3.400000000000000000e+02
-4.016602616725709396e+00 1.339972267260511440e+00 3.400000000000000000e+02
-3.758506787485803358e+00 2.730434975472768588e+00 3.400000000000000000e+02
-3.500410958245896431e+00 4.120897683685026180e+00 3.400000000000000000e+02
-3.242315129005989949e+00 5.511360391897283328e+00 3.400000000000000000e+02
-2.984219299766083910e+00 6.901823100109540476e+00 3.400000000000000000e+02
-2.726123470526177428e+00 8.292285808321798513e+00 3.400000000000000000e+02
-5.307081762925241364e+00 -5.612341273800775632e+00 3.410000000000000000e+02
-5.048985933685335326e+00 -4.221878565588518484e+00 3.410000000000000000e+02
-4.790890104445429287e+00 -2.831415857376260892e+00 3.410000000000000000e+02
-4.532794275205522361e+00 -1.440953149164003300e+00 3.410000000000000000e+02
-4.274698445965615434e+00 -5.049044095174587410e-02 3.410000000000000000e+02
-4.016602616725709396e+00 1.339972267260511440e+00 3.410000000000000000e+02
-3.758506787485803358e+00 2.730434975472768588e+00 3.410000000000000000e+02
-3.500410958245896431e+00 4.120897683685026180e+00 3.410000000000000000e+02
-3.242315129005989949e+00 5.511360391897283328e+00 3.410000000000000000e+02
-2.984219299766083910e+00 6.901823100109540476e+00 3.410000000000000000e+02
-2.726123470526177428e+00 8.292285808321798513e+00 3.410000000000000000e+02
-5.307081762925241364e+00 -5.612341273800775632e+00 3.420000000000000000e+02
-5.048985933685335326e+00 -4.221878565588518484e+00 3.420000000000000000e+02
-4.790890104445429287e+00 -2.831415857376260892e+00 3.420000000000000000e+02
-4.532794275205522361e+00 -1.440953149164003300e+00 3.420000000000000000e+02
-4.274698445965615434e+00 -5.049044095174587410e-02 3.420000000000000000e+02
-4.016602616725709396e+00 1.339972267260511440e+00 3.420000000000000000e+02
-3.758506787485803358e+00 2.730434975472768588e+00 3.420000000000000000e+02
-3.500410958245896431e+00 4.120897683685026180e+00 3.420000000000000000e+02
-3.242315129005989949e+00 5.511360391897283328e+00 3.420000000000000000e+02
-2.984219299766083910e+00 6.901823100109540476e+00 3.420000000000000000e+02
-5.307081762925241364e+00 -5.612341273800775632e+00 3.430000000000000000e+02
-5.048985933685335326e+00 -4.221878565588518484e+00 3.430000000000000000e+02
-4.790890104445429287e+00 -2.831415857376260892e+00 3.430000000000000000e+02
-4.532794275205522361e+00 -1.440953149164003300e+00 3.430000000000000000e+02
-4.274698445965615434e+00 -5.049044095174587410e-02 3.430000000000000000e+02
-4.016602616725709396e+00 1.339972267260511440e+00 3.430000000000000000e+02
-3.758506787485803358e+00 2.730434975472768588e+00 3.430000000000000000e+02
-3.500410958245896431e+00 4.120897683685026180e+00 3.430000000000000000e+02
-3.242315129005989949e+00 5.511360391897283328e+00 3.430000000000000000e+02
-2.984219299766083910e+00 6.901823100109540476e+00 3.430000000000000000e+02
-5.307081762925241364e+00 -5.612341273800775632e+00 3.440000000000000000e+02
-5.048985933685335326e+00 -4.221878565588518484e+00 3.440000000000000000e+02
-4.790890104445429287e+00 -2.831415857376260892e+00 3.440000000000000000e+02
-4.532794275205522361e+00 -1.440953149164003300e+00 3.440000000000000000e+02
-4.274698445965615434e+00 -5.049044095174587410e-02 3.440000000000000000e+02
-4.016602616725709396e+00 1.339972267260511440e+00 3.440000000000000000e+02
-3.758506787485803358e+00 2.730434975472768588e+00 3.440000000000000000e+02
-3.500410958245896431e+00 4.120897683685026180e+00 3.440000000000000000e+02
-3.242315129005989949e+00 5.511360391897283328e+00 3.440000000000000000e+02
-2.984219299766083910e+00 6.901823100109540476e+00 3.440000000000000000e+02
-5.307081762925241364e+00 -5.612341273800775632e+00 3.450000000000000000e+02
-5.048985933685335326e+00 -4.221878565588518484e+00 3.450000000000000000e+02
-4.790890104445429287e+00 -2.831415857376260892e+00 3.450000000000000000e+02
-4.532794275205522361e+00 -1.440953149164003300e+00 3.450000000000000000e+02
-4.274698445965615434e+00 -5.049044095174587410e-02 3.450000000000000000e+02
-4.016602616725709396e+00 1.339972267260511440e+00 3.450000000000000000e+02
-3.758506787485803358e+00 2.730434975472768588e+00 3.450000000000000000e+02
-3.500410958245896431e+00 4.120897683685026180e+00 3.450000000000000000e+02
-3.242315129005989949e+00 5.511360391897283328e+00 3.450000000000000000e+02
-2.984219299766083910e+00 6.901823100109540476e+00 3.450000000000000000e+02
-5.307081762925241364e+00 -5.612341273800775632e+00 3.460000000000000000e+02
-5.048985933685335326e+00 -4.221878565588518484e+00 3.460000000000000000e+02
-4.790890104445429287e+00 -2.831415857376260892e+00 3.460000000000000000e+02
-4.532794275205522361e+00 -1.440953149164003300e+00 3.460000000000000000e+02
-4.274698445965615434e+00 -5.049044095174587410e-02 3.460000000000000000e+02
-4.016602616725709396e+00 1.339972267260511440e+00 3.460000000000000000e+02
-3.758506787485803358e+00 2.730434975472768588e+00 3.460000000000000000e+02
-3.500410958245896431e+00 4.120897683685026180e+00 3.460000000000000000e+02
-3.242315129005989949e+00 5.511360391897283328e+00 3.460000000000000000e+02
-2.984219299766083910e+00 6.901823100109540476e+00 3.460000000000000000e+02
-5.307081762925241364e+00 -5.612341273800775632e+00 3.470000000000000000e+02
-5.048985933685335326e+00 -4.221878565588518484e+00 3.470000000000000000e+02
-4.790890104445429287e+00 -2.831415857376260892e+00 3.470000000000000000e+02
-4.532794275205522361e+00 -1.440953149164003300e+00 3.470000000000000000e+02
-4.274698445965615434e+00 -5.049044095174587410e-02 3.470000000000000000e+02
-4.016602616725709396e+00 1.339972267260511440e+00 3.470000000000000000e+02
-3.758506787485803358e+00 2.730434975472768588e+00 3.470000000000000000e+02
-3.500410958245896431e+00 4.120897683685026180e+00 3.470000000000000000e+02
-3.242315129005989949e+00 5.511360391897283328e+00 3.470000000000000000e+02
-2.984219299766083910e+00 6.901823100109540476e+00 3.470000000000000000e+02
-5.307081762925241364e+00 -5.612341273800775632e+00 3.480000000000000000e+02
-5.048985933685335326e+00 -4.221878565588518484e+00 3.480000000000000000e+02
-4.790890104445429287e+00 -2.831415857376260892e+00 3.480000000000000000e+02
-4.532794275205522361e+00 -1.440953149164003300e+00 3.480000000000000000e+02
-4.274698445965615434e+00 -5.049044095174587410e-02 3.480000000000000000e+02
-4.016602616725709396e+00 1.339972267260511440e+00 3.480000000000000000e+02
-3.758506787485803358e+00 2.730434975472768588e+00 3.480000000000000000e+02
-3.500410958245896431e+00 4.120897683685026180e+00 3.480000000000000000e+02
-3.242315129005989949e+00 5.511360391897283328e+00 3.480000000000000000e+02
-2.984219299766083910e+00 6.901823100109540476e+00 3.480000000000000000e+02
-5.307081762925241364e+00 -5.612341273800775632e+00 3.490000000000000000e+02
-5.048985933685335326e+00 -4.221878565588518484e+00 3.490000000000000000e+02
-4.790890104445429287e+00 -2.831415857376260892e+00 3.490000000000000000e+02
-4.532794275205522361e+00 -1.440953149164003300e+00 3.490000000000000000e+02
-4.274698445965615434e+00 -5.049044095174587410e-02 3.490000000000000000e+02
-4.016602616725709396e+00 1.339972267260511440e+00 3.490000000000000000e+02
-3.758506787485803358e+00 2.730434975472768588e+00 3.490000000000000000e+02
-3.500410958245896431e+00 4.120897683685026180e+00 3.490000000000000000e+02
-3.242315129005989949e+00 5.511360391897283328e+00 3.490000000000000000e+02
-2.984219299766083910e+00 6.901823100109540476e+00 3.490000000000000000e+02
-5.307081762925241364e+00 -5.612341273800775632e+00 3.500000000000000000e+02
-5.048985933685335326e+00 -4.221878565588518484e+00 3.500000000000000000e+02
-4.790890104445429287e+00 -2.831415857376260892e+00 3.500000000000000000e+02
-4.532794275205522361e+00 -1.440953149164003300e+00 3.500000000000000000e+02
-4.274698445965615434e+00 -5.049044095174587410e-02 3.500000000000000000e+02
-4.016602616725709396e+00 1.339972267260511440e+00 3.500000000000000000e+02
-3.758506787485803358e+00 2.730434975472768588e+00 3.500000000000000000e+02
-3.500410958245896431e+00 4.120897683685026180e+00 3.500000000000000000e+02
-3.242315129005989949e+00 5.511360391897283328e+00 3.500000000000000000e+02
-2.984219299766083910e+00 6.901823100109540476e+00 3.500000000000000000e+02
-5.307081762925241364e+00 -5.612341273800775632e+00 3.510000000000000000e+02
-5.048985933685335326e+00 -4.221878565588518484e+00 3.510000000000000000e+02
-4.790890104445429287e+00 -2.831415857376260892e+00 3.510000000000000000e+02
-4.532794275205522361e+00 -1.440953149164003300e+00 3.510000000000000000e+02
-4.274698445965615434e+00 -5.049044095174587410e-02 3.510000000000000000e+02
-4.016602616725709396e+00 1.339972267260511440e+00 3.510000000000000000e+02
-3.758506787485803358e+00 2.730434975472768588e+00 3.510000000000000000e+02
-3.500410958245896431e+00 4.120897683685026180e+00 3.510000000000000000e+02
-3.242315129005989949e+00 5.511360391897283328e+00 3.510000000000000000e+02
-2.984219299766083910e+00 6.901823100109540476e+00 3.510000000000000000e+02
-5.307081762925241364e+00 -5.612341273800775632e+00 3.520000000000000000e+02
-5.048985933685335326e+00 -4.221878565588518484e+00 3.520000000000000000e+02
-4.790890104445429287e+00 -2.831415857376260892e+00 3.520000000000000000e+02
-4.532794275205522361e+00 -1.440953149164003300e+00 3.520000000000000000e+02
-4.274698445965615434e+00 -5.049044095174587410e-02 3.520000000000000000e+02
-4.016602616725709396e+00 1.339972267260511440e+00 3.520000000000000000e+02
-3.758506787485803358e+00 2.730434975472768588e+00 3.520000000000000000e+02
-3.500410958245896431e+00 4.120897683685026180e+00 3.520000000000000000e+02
-3.242315129005989949e+00 5.511360391897283328e+00 3.520000000000000000e+02
-2.984219299766083910e+00 6.901823100109540476e+00 3.520000000000000000e+02
-5.307081762925241364e+00 -5.612341273800775632e+00 3.530000000000000000e+02
-5.048985933685335326e+00 -4.221878565588518484e+00 3.530000000000000000e+02
-4.790890104445429287e+00 -2.831415857376260892e+00 3.530000000000000000e+02
-4.532794275205522361e+00 -1.440953149164003300e+00 3.530000000000000000e+02
-4.274698445965615434e+00 -5.049044095174587410e-02 3.530000000000000000e+02
-4.016602616725709396e+00 1.339972267260511440e+00 3.530000000000000000e+02
-3.758506787485803358e+00 2.730434975472768588e+00 3.530000000000000000e+02
-3.500410958245896431e+00 4.120897683685026180e+00 3.530000000000000000e+02
-3.242315129005989949e+00 5.511360391897283328e+00 3.530000000000000000e+02
-2.984219299766083910e+00 6.901823100109540476e+00 3.530000000000000000e+02
-5.307081762925241364e+00 -5.612341273800775632e+00 3.540000000000000000e+02
-5.048985933685335326e+00 -4.221878565588518484e+00 3.540000000000000000e+02
-4.790890104445429287e+00 -2.831415857376260892e+00 3.540000000000000000e+02
-4.532794275205522361e+00 -1.440953149164003300e+00 3.540000000000000000e+02
-4.274698445965615434e+00 -5.049044095174587410e-02 3.540000000000000000e+02
-4.016602616725709396e+00 1.339972267260511440e+00 3.540000000000000000e+02
-3.758506787485803358e+00 2.730434975472768588e+00 3.540000000000000000e+02
-3.500410958245896431e+00 4.120897683685026180e+00 3.540000000000000000e+02
-3.242315129005989949e+00 5.511360391897283328e+00 3.540000000000000000e+02
-2.984219299766083910e+00 6.901823100109540476e+00 3.540000000000000000e+02
-6.131361031651323401e+00 -6.178524713286951631e+00 3.550000000000000000e+02
-5.873265202411417363e+00 -4.788062005074693595e+00 3.550000000000000000e+02
-5.615169373171510436e+00 -3.397599296862436447e+00 3.550000000000000000e+02
-5.357073543931604398e+00 -2.007136588650178854e+00 3.550000000000000000e+02
-5.098977714691697471e+00 -6.166738804379212624e-01 3.550000000000000000e+02
-4.840881885451791433e+00 7.737888277743361076e-01 3.550000000000000000e+02
-4.582786056211885395e+00 2.164251535986593478e+00 3.550000000000000000e+02
-4.324690226971978468e+00 3.554714244198850626e+00 3.550000000000000000e+02
-4.066594397732071542e+00 4.945176952411108218e+00 3.550000000000000000e+02
-3.808498568492165504e+00 6.335639660623365366e+00 3.550000000000000000e+02
-3.550402739252259465e+00 7.726102368835622514e+00 3.550000000000000000e+02
-6.131361031651323401e+00 -6.178524713286951631e+00 3.560000000000000000e+02
-5.873265202411417363e+00 -4.788062005074693595e+00 3.560000000000000000e+02
-5.615169373171510436e+00 -3.397599296862436447e+00 3.560000000000000000e+02
-5.357073543931604398e+00 -2.007136588650178854e+00 3.560000000000000000e+02
-5.098977714691697471e+00 -6.166738804379212624e-01 3.560000000000000000e+02
-4.840881885451791433e+00 7.737888277743361076e-01 3.560000000000000000e+02
-4.582786056211885395e+00 2.164251535986593478e+00 3.560000000000000000e+02
-4.324690226971978468e+00 3.554714244198850626e+00 3.560000000000000000e+02
-4.066594397732071542e+00 4.945176952411108218e+00 3.560000000000000000e+02
-3.808498568492165504e+00 6.335639660623365366e+00 3.560000000000000000e+02
-3.550402739252259465e+00 7.726102368835622514e+00 3.560000000000000000e+02
-6.131361031651323401e+00 -6.178524713286951631e+00 3.570000000000000000e+02
-5.873265202411417363e+00 -4.788062005074693595e+00 3.570000000000000000e+02
-5.615169373171510436e+00 -3.397599296862436447e+00 3.570000000000000000e+02
-5.357073543931604398e+00 -2.007136588650178854e+00 3.570000000000000000e+02
-5.098977714691697471e+00 -6.166738804379212624e-01 3.570000000000000000e+02
-4.840881885451791433e+00 7.737888277743361076e-01 3.570000000000000000e+02
-4.582786056211885395e+00 2.164251535986593478e+00 3.570000000000000000e+02
-4.324690226971978468e+00 3.554714244198850626e+00 3.570000000000000000e+02
-4.066594397732071542e+00 4.945176952411108218e+00 3.570000000000000000e+02
-3.808498568492165504e+00 6.335639660623365366e+00 3.570000000000000000e+02
-3.550402739252259465e+00 7.726102368835622514e+00 3.570000000000000000e+02
-5.307081762925241364e+00 -5.612341273800775632e+00 3.580000000000000000e+02
-5.048985933685335326e+00 -4.221878565588518484e+00 3.580000000000000000e+02
-4.790890104445429287e+00 -2.831415857376260892e+00 3.580000000000000000e+02
-4.532794275205522361e+00 -1.440953149164003300e+00 3.580000000000000000e+02
-4.274698445965615434e+00 -5.049044095174587410e-02 3.580000000000000000e+02
-4.016602616725709396e+00 1.339972267260511440e+00 3.580000000000000000e+02
-3.758506787485803358e+00 2.730434975472768588e+00 3.580000000000000000e+02
-3.500410958245896431e+00 4.120897683685026180e+00 3.580000000000000000e+02
-3.242315129005989949e+00 5.511360391897283328e+00 3.580000000000000000e+02
-2.984219299766083910e+00 6.901823100109540476e+00 3.580000000000000000e+02
-5.307081762925241364e+00 -5.612341273800775632e+00 3.590000000000000000e+02
-5.048985933685335326e+00 -4.221878565588518484e+00 3.590000000000000000e+02
-4.790890104445429287e+00 -2.831415857376260892e+00 3.590000000000000000e+02
-4.532794275205522361e+00 -1.440953149164003300e+00 3.590000000000000000e+02
-4.274698445965615434e+00 -5.049044095174587410e-02 3.590000000000000000e+02
-4.016602616725709396e+00 1.339972267260511440e+00 3.590000000000000000e+02
-3.758506787485803358e+00 2.730434975472768588e+00 3.590000000000000000e+02
-3.500410958245896431e+00 4.120897683685026180e+00 3.590000000000000000e+02
-3.242315129005989949e+00 5.511360391897283328e+00 3.590000000000000000e+02
-2.984219299766083910e+00 6.901823100109540476e+00 3.590000000000000000e+02
-5.307081762925241364e+00 -5.612341273800775632e+00 3.600000000000000000e+02
-5.048985933685335326e+00 -4.221878565588518484e+00 3.600000000000000000e+02
-4.790890104445429287e+00 -2.831415857376260892e+00 3.600000000000000000e+02
-4.532794275205522361e+00 -1.440953149164003300e+00 3.600000000000000000e+02
-4.274698445965615434e+00 -5.049044095174587410e-02 3.600000000000000000e+02
-4.016602616725709396e+00 1.339972267260511440e+00 3.600000000000000000e+02
-3.758506787485803358e+00 2.730434975472768588e+00 3.600000000000000000e+02
-3.500410958245896431e+00 4.120897683685026180e+00 3.600000000000000000e+02
-3.242315129005989949e+00 5.511360391897283328e+00 3.600000000000000000e+02
-2.984219299766083910e+00 6.901823100109540476e+00 3.600000000000000000e+02
-5.307081762925241364e+00 -5.612341273800775632e+00 3.610000000000000000e+02
-5.048985933685335326e+00 -4.221878565588518484e+00 3.610000000000000000e+02
-4.790890104445429287e+00 -2.831415857376260892e+00 3.610000000000000000e+02
-4.532794275205522361e+00 -1.440953149164003300e+00 3.610000000000000000e+02
-4.274698445965615434e+00 -5.049044095174587410e-02 3.610000000000000000e+02
-4.016602616725709396e+00 1.339972267260511440e+00 3.610000000000000000e+02
-3.758506787485803358e+00 2.730434975472768588e+00 3.610000000000000000e+02
-3.500410958245896431e+00 4.120897683685026180e+00 3.610000000000000000e+02
-3.242315129005989949e+00 5.511360391897283328e+00 3.610000000000000000e+02
-2.984219299766083910e+00 6.901823100109540476e+00 3.610000000000000000e+02
-5.307081762925241364e+00 -5.612341273800775632e+00 3.620000000000000000e+02
-5.048985933685335326e+00 -4.221878565588518484e+00 3.620000000000000000e+02
-4.790890104445429287e+00 -2.831415857376260892e+00 3.620000000000000000e+02
-4.532794275205522361e+00 -1.440953149164003300e+00 3.620000000000000000e+02
-4.274698445965615434e+00 -5.049044095174587410e-02 3.620000000000000000e+02
-4.016602616725709396e+00 1.339972267260511440e+00 3.620000000000000000e+02
-3.758506787485803358e+00 2.730434975472768588e+00 3.620000000000000000e+02
-3.500410958245896431e+00 4.120897683685026180e+00 3.620000000000000000e+02
-3.242315129005989949e+00 5.511360391897283328e+00 3.620000000000000000e+02
-2.984219299766083910e+00 6.901823100109540476e+00 3.620000000000000000e+02
-5.307081762925241364e+00 -5.612341273800775632e+00 3.630000000000000000e+02
-5.048985933685335326e+00 -4.221878565588518484e+00 3.630000000000000000e+02
-4.790890104445429287e+00 -2.831415857376260892e+00 3.630000000000000000e+02
-4.532794275205522361e+00 -1.440953149164003300e+00 3.630000000000000000e+02
-4.274698445965615434e+00 -5.049044095174587410e-02 3.630000000000000000e+02
-4.016602616725709396e+00 1.339972267260511440e+00 3.630000000000000000e+02
-3.758506787485803358e+00 2.730434975472768588e+00 3.630000000000000000e+02
-3.500410958245896431e+00 4.120897683685026180e+00 3.630000000000000000e+02
-3.242315129005989949e+00 5.511360391897283328e+00 3.630000000000000000e+02
-2.984219299766083910e+00 6.901823100109540476e+00 3.630000000000000000e+02
-5.307081762925241364e+00 -5.612341273800775632e+00 3.640000000000000000e+02
-5.048985933685335326e+00 -4.221878565588518484e+00 3.640000000000000000e+02
-4.790890104445429287e+00 -2.831415857376260892e+00 3.640000000000000000e+02
-4.532794275205522361e+00 -1.440953149164003300e+00 3.640000000000000000e+02
-4.274698445965615434e+00 -5.049044095174587410e-02 3.640000000000000000e+02
-4.016602616725709396e+00 1.339972267260511440e+00 3.640000000000000000e+02
-3.758506787485803358e+00 2.730434975472768588e+00 3.640000000000000000e+02
-3.500410958245896431e+00 4.120897683685026180e+00 3.640000000000000000e+02
-3.242315129005989949e+00 5.511360391897283328e+00 3.640000000000000000e+02
-2.984219299766083910e+00 6.901823100109540476e+00 3.640000000000000000e+02
-5.307081762925241364e+00 -5.612341273800775632e+00 3.650000000000000000e+02
-5.048985933685335326e+00 -4.221878565588518484e+00 3.650000000000000000e+02
-4.790890104445429287e+00 -2.831415857376260892e+00 3.650000000000000000e+02
-4.532794275205522361e+00 -1.440953149164003300e+00 3.650000000000000000e+02
-4.274698445965615434e+00 -5.049044095174587410e-02 3.650000000000000000e+02
-4.016602616725709396e+00 1.339972267260511440e+00 3.650000000000000000e+02
-3.758506787485803358e+00 2.730434975472768588e+00 3.650000000000000000e+02
-3.500410958245896431e+00 4.120897683685026180e+00 3.650000000000000000e+02
-3.242315129005989949e+00 5.511360391897283328e+00 3.650000000000000000e+02
-2.984219299766083910e+00 6.901823100109540476e+00 3.650000000000000000e+02
-5.307081762925241364e+00 -5.612341273800775632e+00 3.660000000000000000e+02
-5.048985933685335326e+00 -4.221878565588518484e+00 3.660000000000000000e+02
-4.790890104445429287e+00 -2.831415857376260892e+00 3.660000000000000000e+02
-4.532794275205522361e+00 -1.440953149164003300e+00 3.660000000000000000e+02
-4.274698445965615434e+00 -5.049044095174587410e-02 3.660000000000000000e+02
-4.016602616725709396e+00 1.339972267260511440e+00 3.660000000000000000e+02
-3.758506787485803358e+00 2.730434975472768588e+00 3.660000000000000000e+02
-3.500410958245896431e+00 4.120897683685026180e+00 3.660000000000000000e+02
-3.242315129005989949e+00 5.511360391897283328e+00 3.660000000000000000e+02
-2.984219299766083910e+00 6.901823100109540476e+00 3.660000000000000000e+02
-5.307081762925241364e+00 -5.612341273800775632e+00 3.670000000000000000e+02
-5.048985933685335326e+00 -4.221878565588518484e+00 3.670000000000000000e+02
-4.790890104445429287e+00 -2.831415857376260892e+00 3.670000000000000000e+02
-4.532794275205522361e+00 -1.440953149164003300e+00 3.670000000000000000e+02
-4.274698445965615434e+00 -5.049044095174587410e-02 3.670000000000000000e+02
-4.016602616725709396e+00 1.339972267260511440e+00 3.670000000000000000e+02
-3.758506787485803358e+00 2.730434975472768588e+00 3.670000000000000000e+02
-3.500410958245896431e+00 4.120897683685026180e+00 3.670000000000000000e+02
-3.242315129005989949e+00 5.511360391897283328e+00 3.670000000000000000e+02
-2.984219299766083910e+00 6.901823100109540476e+00 3.670000000000000000e+02
-2.726123470526177428e+00 8.292285808321798513e+00 3.670000000000000000e+02
-6.131361031651323401e+00 -6.178524713286951631e+00 3.680000000000000000e+02
-5.873265202411417363e+00 -4.788062005074693595e+00 3.680000000000000000e+02
-5.615169373171510436e+00 -3.397599296862436447e+00 3.680000000000000000e+02
-5.357073543931604398e+00 -2.007136588650178854e+00 3.680000000000000000e+02
-5.098977714691697471e+00 -6.166738804379212624e-01 3.680000000000000000e+02
-4.840881885451791433e+00 7.737888277743361076e-01 3.680000000000000000e+02
-4.582786056211885395e+00 2.164251535986593478e+00 3.680000000000000000e+02
-4.324690226971978468e+00 3.554714244198850626e+00 3.680000000000000000e+02
-4.066594397732071542e+00 4.945176952411108218e+00 3.680000000000000000e+02
-3.808498568492165504e+00 6.335639660623365366e+00 3.680000000000000000e+02
-3.550402739252259465e+00 7.726102368835622514e+00 3.680000000000000000e+02
-6.131361031651323401e+00 -6.178524713286951631e+00 3.690000000000000000e+02
-5.873265202411417363e+00 -4.788062005074693595e+00 3.690000000000000000e+02
-5.615169373171510436e+00 -3.397599296862436447e+00 3.690000000000000000e+02
-5.357073543931604398e+00 -2.007136588650178854e+00 3.690000000000000000e+02
-5.098977714691697471e+00 -6.166738804379212624e-01 3.690000000000000000e+02
-4.840881885451791433e+00 7.737888277743361076e-01 3.690000000000000000e+02
-4.582786056211885395e+00 2.164251535986593478e+00 3.690000000000000000e+02
-4.324690226971978468e+00 3.554714244198850626e+00 3.690000000000000000e+02
-4.066594397732071542e+00 4.945176952411108218e+00 3.690000000000000000e+02
-3.808498568492165504e+00 6.335639660623365366e+00 3.690000000000000000e+02
-3.550402739252259465e+00 7.726102368835622514e+00 3.690000000000000000e+02
-6.131361031651323401e+00 -6.178524713286951631e+00 3.700000000000000000e+02
-5.873265202411417363e+00 -4.788062005074693595e+00 3.700000000000000000e+02
-5.615169373171510436e+00 -3.397599296862436447e+00 3.700000000000000000e+02
-5.357073543931604398e+00 -2.007136588650178854e+00 3.700000000000000000e+02
-5.098977714691697471e+00 -6.166738804379212624e-01 3.700000000000000000e+02
-4.840881885451791433e+00 7.737888277743361076e-01 3.700000000000000000e+02
-4.582786056211885395e+00 2.164251535986593478e+00 3.700000000000000000e+02
-4.324690226971978468e+00 3.554714244198850626e+00 3.700000000000000000e+02
-4.066594397732071542e+00 4.945176952411108218e+00 3.700000000000000000e+02
-3.808498568492165504e+00 6.335639660623365366e+00 3.700000000000000000e+02
-3.550402739252259465e+00 7.726102368835622514e+00 3.700000000000000000e+02
-6.131361031651323401e+00 -6.178524713286951631e+00 3.710000000000000000e+02
-5.873265202411417363e+00 -4.788062005074693595e+00 3.710000000000000000e+02
-5.615169373171510436e+00 -3.397599296862436447e+00 3.710000000000000000e+02
-5.357073543931604398e+00 -2.007136588650178854e+00 3.710000000000000000e+02
-5.098977714691697471e+00 -6.166738804379212624e-01 3.710000000000000000e+02
-4.840881885451791433e+00 7.737888277743361076e-01 3.710000000000000000e+02
-4.582786056211885395e+00 2.164251535986593478e+00 3.710000000000000000e+02
-4.324690226971978468e+00 3.554714244198850626e+00 3.710000000000000000e+02
-4.066594397732071542e+00 4.945176952411108218e+00 3.710000000000000000e+02
-3.808498568492165504e+00 6.335639660623365366e+00 3.710000000000000000e+02
-3.550402739252259465e+00 7.726102368835622514e+00 3.710000000000000000e+02
-6.131361031651323401e+00 -6.178524713286951631e+00 3.720000000000000000e+02
-5.873265202411417363e+00 -4.788062005074693595e+00 3.720000000000000000e+02
-5.615169373171510436e+00 -3.397599296862436447e+00 3.720000000000000000e+02
-5.357073543931604398e+00 -2.007136588650178854e+00 3.720000000000000000e+02
-5.098977714691697471e+00 -6.166738804379212624e-01 3.720000000000000000e+02
-4.840881885451791433e+00 7.737888277743361076e-01 3.720000000000000000e+02
-4.582786056211885395e+00 2.164251535986593478e+00 3.720000000000000000e+02
-4.324690226971978468e+00 3.554714244198850626e+00 3.720000000000000000e+02
