-3.215208606170171013e+00 -3.416220528061487016e+00 3.310000000000000000e+02
-2.075212754743784860e+00 -2.579315838905889002e+00 3.310000000000000000e+02
-9.352169033173987067e-01 -1.742411149750290544e+00 3.310000000000000000e+02
2.047789481089873909e-01 -9.055064605946921974e-01 3.310000000000000000e+02
1.344774799535373599e+00 -6.860177143909373942e-02 3.310000000000000000e+02
2.484770650961760197e+00 7.683029177165046075e-01 3.310000000000000000e+02
3.624766502388146350e+00 1.605207606872103065e+00 3.310000000000000000e+02
4.764762353814531615e+00 2.442112296027700857e+00 3.310000000000000000e+02
-3.366754187305565083e+00 -4.404670798352479544e+00 3.320000000000000000e+02
-2.226758335879178929e+00 -3.567766109196881530e+00 3.320000000000000000e+02
-1.086762484452792776e+00 -2.730861420041283072e+00 3.320000000000000000e+02
5.323336697359352943e-02 -1.893956730885684392e+00 3.320000000000000000e+02
1.193229218399979752e+00 -1.057052041730086156e+00 3.320000000000000000e+02
2.333225069826366127e+00 -2.201473525744876980e-01 3.320000000000000000e+02
3.473220921252752280e+00 6.167573365811107600e-01 3.320000000000000000e+02
4.613216772679137989e+00 1.453662025736708996e+00 3.320000000000000000e+02
-3.366754187305565083e+00 -4.404670798352479544e+00 3.330000000000000000e+02
-2.226758335879178929e+00 -3.567766109196881530e+00 3.330000000000000000e+02
-1.086762484452792776e+00 -2.730861420041283072e+00 3.330000000000000000e+02
5.323336697359352943e-02 -1.893956730885684392e+00 3.330000000000000000e+02
1.193229218399979752e+00 -1.057052041730086156e+00 3.330000000000000000e+02
2.333225069826366127e+00 -2.201473525744876980e-01 3.330000000000000000e+02
3.473220921252752280e+00 6.167573365811107600e-01 3.330000000000000000e+02
4.613216772679137989e+00 1.453662025736708996e+00 3.330000000000000000e+02
-4.355204457596557610e+00 -4.253125217217085918e+00 3.340000000000000000e+02
-3.215208606170171013e+00 -3.416220528061487016e+00 3.340000000000000000e+02
-2.075212754743784860e+00 -2.579315838905889002e+00 3.340000000000000000e+02
-9.352169033173987067e-01 -1.742411149750290544e+00 3.340000000000000000e+02
2.047789481089873909e-01 -9.055064605946921974e-01 3.340000000000000000e+02
1.344774799535373599e+00 -6.860177143909373942e-02 3.340000000000000000e+02
2.484770650961760197e+00 7.683029177165046075e-01 3.340000000000000000e+02
3.624766502388146350e+00 1.605207606872103065e+00 3.340000000000000000e+02
4.764762353814531615e+00 2.442112296027700857e+00 3.340000000000000000e+02
-4.355204457596557610e+00 -4.253125217217085918e+00 3.350000000000000000e+02
-3.215208606170171013e+00 -3.416220528061487016e+00 3.350000000000000000e+02
-2.075212754743784860e+00 -2.579315838905889002e+00 3.350000000000000000e+02
-9.352169033173987067e-01 -1.742411149750290544e+00 3.350000000000000000e+02
2.047789481089873909e-01 -9.055064605946921974e-01 3.350000000000000000e+02
1.344774799535373599e+00 -6.860177143909373942e-02 3.350000000000000000e+02
2.484770650961760197e+00 7.683029177165046075e-01 3.350000000000000000e+02
3.624766502388146350e+00 1.605207606872103065e+00 3.350000000000000000e+02
4.764762353814531615e+00 2.442112296027700857e+00 3.350000000000000000e+02
5.904758205240918656e+00 3.279016985183300648e+00 3.350000000000000000e+02
-4.355204457596557610e+00 -4.253125217217085918e+00 3.360000000000000000e+02
-3.215208606170171013e+00 -3.416220528061487016e+00 3.360000000000000000e+02
-2.075212754743784860e+00 -2.579315838905889002e+00 3.360000000000000000e+02
-9.352169033173987067e-01 -1.742411149750290544e+00 3.360000000000000000e+02
2.047789481089873909e-01 -9.055064605946921974e-01 3.360000000000000000e+02
1.344774799535373599e+00 -6.860177143909373942e-02 3.360000000000000000e+02
2.484770650961760197e+00 7.683029177165046075e-01 3.360000000000000000e+02
3.624766502388146350e+00 1.605207606872103065e+00 3.360000000000000000e+02
4.764762353814531615e+00 2.442112296027700857e+00 3.360000000000000000e+02
-4.355204457596557610e+00 -4.253125217217085918e+00 3.370000000000000000e+02
-3.215208606170171013e+00 -3.416220528061487016e+00 3.370000000000000000e+02
-2.075212754743784860e+00 -2.579315838905889002e+00 3.370000000000000000e+02
-9.352169033173987067e-01 -1.742411149750290544e+00 3.370000000000000000e+02
2.047789481089873909e-01 -9.055064605946921974e-01 3.370000000000000000e+02
1.344774799535373599e+00 -6.860177143909373942e-02 3.370000000000000000e+02
2.484770650961760197e+00 7.683029177165046075e-01 3.370000000000000000e+02
3.624766502388146350e+00 1.605207606872103065e+00 3.370000000000000000e+02
4.764762353814531615e+00 2.442112296027700857e+00 3.370000000000000000e+02
-4.355204457596557610e+00 -4.253125217217085918e+00 3.380000000000000000e+02
-3.215208606170171013e+00 -3.416220528061487016e+00 3.380000000000000000e+02
-2.075212754743784860e+00 -2.579315838905889002e+00 3.380000000000000000e+02
-9.352169033173987067e-01 -1.742411149750290544e+00 3.380000000000000000e+02
2.047789481089873909e-01 -9.055064605946921974e-01 3.380000000000000000e+02
1.344774799535373599e+00 -6.860177143909373942e-02 3.380000000000000000e+02
2.484770650961760197e+00 7.683029177165046075e-01 3.380000000000000000e+02
3.624766502388146350e+00 1.605207606872103065e+00 3.380000000000000000e+02
4.764762353814531615e+00 2.442112296027700857e+00 3.380000000000000000e+02
5.904758205240918656e+00 3.279016985183300648e+00 3.380000000000000000e+02
-4.355204457596557610e+00 -4.253125217217085918e+00 3.390000000000000000e+02
-3.215208606170171013e+00 -3.416220528061487016e+00 3.390000000000000000e+02
-2.075212754743784860e+00 -2.579315838905889002e+00 3.390000000000000000e+02
-9.352169033173987067e-01 -1.742411149750290544e+00 3.390000000000000000e+02
2.047789481089873909e-01 -9.055064605946921974e-01 3.390000000000000000e+02
1.344774799535373599e+00 -6.860177143909373942e-02 3.390000000000000000e+02
2.484770650961760197e+00 7.683029177165046075e-01 3.390000000000000000e+02
3.624766502388146350e+00 1.605207606872103065e+00 3.390000000000000000e+02
4.764762353814531615e+00 2.442112296027700857e+00 3.390000000000000000e+02
5.904758205240918656e+00 3.279016985183300648e+00 3.390000000000000000e+02
-3.366754187305565083e+00 -4.404670798352479544e+00 3.400000000000000000e+02
-2.226758335879178929e+00 -3.567766109196881530e+00 3.400000000000000000e+02
-1.086762484452792776e+00 -2.730861420041283072e+00 3.400000000000000000e+02
5.323336697359352943e-02 -1.893956730885684392e+00 3.400000000000000000e+02
1.193229218399979752e+00 -1.057052041730086156e+00 3.400000000000000000e+02
2.333225069826366127e+00 -2.201473525744876980e-01 3.400000000000000000e+02
3.473220921252752280e+00 6.167573365811107600e-01 3.400000000000000000e+02
4.613216772679137989e+00 1.453662025736708996e+00 3.400000000000000000e+02
5.753212624105524142e+00 2.290566714892307232e+00 3.400000000000000000e+02
-3.366754187305565083e+00 -4.404670798352479544e+00 3.410000000000000000e+02
-2.226758335879178929e+00 -3.567766109196881530e+00 3.410000000000000000e+02
-1.086762484452792776e+00 -2.730861420041283072e+00 3.410000000000000000e+02
5.323336697359352943e-02 -1.893956730885684392e+00 3.410000000000000000e+02
1.193229218399979752e+00 -1.057052041730086156e+00 3.410000000000000000e+02
2.333225069826366127e+00 -2.201473525744876980e-01 3.410000000000000000e+02
3.473220921252752280e+00 6.167573365811107600e-01 3.410000000000000000e+02
4.613216772679137989e+00 1.453662025736708996e+00 3.410000000000000000e+02
5.753212624105524142e+00 2.290566714892307232e+00 3.410000000000000000e+02
-3.366754187305565083e+00 -4.404670798352479544e+00 3.420000000000000000e+02
-2.226758335879178929e+00 -3.567766109196881530e+00 3.420000000000000000e+02
-1.086762484452792776e+00 -2.730861420041283072e+00 3.420000000000000000e+02
5.323336697359352943e-02 -1.893956730885684392e+00 3.420000000000000000e+02
1.193229218399979752e+00 -1.057052041730086156e+00 3.420000000000000000e+02
2.333225069826366127e+00 -2.201473525744876980e-01 3.420000000000000000e+02
3.473220921252752280e+00 6.167573365811107600e-01 3.420000000000000000e+02
4.613216772679137989e+00 1.453662025736708996e+00 3.420000000000000000e+02
5.753212624105524142e+00 2.290566714892307232e+00 3.420000000000000000e+02
-3.366754187305565083e+00 -4.404670798352479544e+00 3.430000000000000000e+02
-2.226758335879178929e+00 -3.567766109196881530e+00 3.430000000000000000e+02
-1.086762484452792776e+00 -2.730861420041283072e+00 3.430000000000000000e+02
5.323336697359352943e-02 -1.893956730885684392e+00 3.430000000000000000e+02
1.193229218399979752e+00 -1.057052041730086156e+00 3.430000000000000000e+02
2.333225069826366127e+00 -2.201473525744876980e-01 3.430000000000000000e+02
3.473220921252752280e+00 6.167573365811107600e-01 3.430000000000000000e+02
4.613216772679137989e+00 1.453662025736708996e+00 3.430000000000000000e+02
5.753212624105524142e+00 2.290566714892307232e+00 3.430000000000000000e+02
-3.366754187305565083e+00 -4.404670798352479544e+00 3.440000000000000000e+02
-2.226758335879178929e+00 -3.567766109196881530e+00 3.440000000000000000e+02
-1.086762484452792776e+00 -2.730861420041283072e+00 3.440000000000000000e+02
5.323336697359352943e-02 -1.893956730885684392e+00 3.440000000000000000e+02
1.193229218399979752e+00 -1.057052041730086156e+00 3.440000000000000000e+02
2.333225069826366127e+00 -2.201473525744876980e-01 3.440000000000000000e+02
3.473220921252752280e+00 6.167573365811107600e-01 3.440000000000000000e+02
4.613216772679137989e+00 1.453662025736708996e+00 3.440000000000000000e+02
5.753212624105524142e+00 2.290566714892307232e+00 3.440000000000000000e+02
-3.366754187305565083e+00 -4.404670798352479544e+00 3.450000000000000000e+02
-2.226758335879178929e+00 -3.567766109196881530e+00 3.450000000000000000e+02
-1.086762484452792776e+00 -2.730861420041283072e+00 3.450000000000000000e+02
5.323336697359352943e-02 -1.893956730885684392e+00 3.450000000000000000e+02
1.193229218399979752e+00 -1.057052041730086156e+00 3.450000000000000000e+02
2.333225069826366127e+00 -2.201473525744876980e-01 3.450000000000000000e+02
3.473220921252752280e+00 6.167573365811107600e-01 3.450000000000000000e+02
4.613216772679137989e+00 1.453662025736708996e+00 3.450000000000000000e+02
5.753212624105524142e+00 2.290566714892307232e+00 3.450000000000000000e+02
-3.366754187305565083e+00 -4.404670798352479544e+00 3.460000000000000000e+02
-2.226758335879178929e+00 -3.567766109196881530e+00 3.460000000000000000e+02
-1.086762484452792776e+00 -2.730861420041283072e+00 3.460000000000000000e+02
5.323336697359352943e-02 -1.893956730885684392e+00 3.460000000000000000e+02
1.193229218399979752e+00 -1.057052041730086156e+00 3.460000000000000000e+02
2.333225069826366127e+00 -2.201473525744876980e-01 3.460000000000000000e+02
3.473220921252752280e+00 6.167573365811107600e-01 3.460000000000000000e+02
4.613216772679137989e+00 1.453662025736708996e+00 3.460000000000000000e+02
5.753212624105524142e+00 2.290566714892307232e+00 3.460000000000000000e+02
-3.366754187305565083e+00 -4.404670798352479544e+00 3.470000000000000000e+02
-2.226758335879178929e+00 -3.567766109196881530e+00 3.470000000000000000e+02
-1.086762484452792776e+00 -2.730861420041283072e+00 3.470000000000000000e+02
5.323336697359352943e-02 -1.893956730885684392e+00 3.470000000000000000e+02
1.193229218399979752e+00 -1.057052041730086156e+00 3.470000000000000000e+02
2.333225069826366127e+00 -2.201473525744876980e-01 3.470000000000000000e+02
3.473220921252752280e+00 6.167573365811107600e-01 3.470000000000000000e+02
4.613216772679137989e+00 1.453662025736708996e+00 3.470000000000000000e+02
5.753212624105524142e+00 2.290566714892307232e+00 3.470000000000000000e+02
-3.366754187305565083e+00 -4.404670798352479544e+00 3.480000000000000000e+02
-2.226758335879178929e+00 -3.567766109196881530e+00 3.480000000000000000e+02
-1.086762484452792776e+00 -2.730861420041283072e+00 3.480000000000000000e+02
5.323336697359352943e-02 -1.893956730885684392e+00 3.480000000000000000e+02
1.193229218399979752e+00 -1.057052041730086156e+00 3.480000000000000000e+02
2.333225069826366127e+00 -2.201473525744876980e-01 3.480000000000000000e+02
3.473220921252752280e+00 6.167573365811107600e-01 3.480000000000000000e+02
4.613216772679137989e+00 1.453662025736708996e+00 3.480000000000000000e+02
5.753212624105524142e+00 2.290566714892307232e+00 3.480000000000000000e+02
-3.366754187305565083e+00 -4.404670798352479544e+00 3.490000000000000000e+02
-2.226758335879178929e+00 -3.567766109196881530e+00 3.490000000000000000e+02
-1.086762484452792776e+00 -2.730861420041283072e+00 3.490000000000000000e+02
5.323336697359352943e-02 -1.893956730885684392e+00 3.490000000000000000e+02
1.193229218399979752e+00 -1.057052041730086156e+00 3.490000000000000000e+02
2.333225069826366127e+00 -2.201473525744876980e-01 3.490000000000000000e+02
3.473220921252752280e+00 6.167573365811107600e-01 3.490000000000000000e+02
4.613216772679137989e+00 1.453662025736708996e+00 3.490000000000000000e+02
5.753212624105524142e+00 2.290566714892307232e+00 3.490000000000000000e+02
-3.366754187305565083e+00 -4.404670798352479544e+00 3.500000000000000000e+02
-2.226758335879178929e+00 -3.567766109196881530e+00 3.500000000000000000e+02
-1.086762484452792776e+00 -2.730861420041283072e+00 3.500000000000000000e+02
5.323336697359352943e-02 -1.893956730885684392e+00 3.500000000000000000e+02
1.193229218399979752e+00 -1.057052041730086156e+00 3.500000000000000000e+02
2.333225069826366127e+00 -2.201473525744876980e-01 3.500000000000000000e+02
3.473220921252752280e+00 6.167573365811107600e-01 3.500000000000000000e+02
4.613216772679137989e+00 1.453662025736708996e+00 3.500000000000000000e+02
5.753212624105524142e+00 2.290566714892307232e+00 3.500000000000000000e+02
-3.366754187305565083e+00 -4.404670798352479544e+00 3.510000000000000000e+02
-2.226758335879178929e+00 -3.567766109196881530e+00 3.510000000000000000e+02
-1.086762484452792776e+00 -2.730861420041283072e+00 3.510000000000000000e+02
5.323336697359352943e-02 -1.893956730885684392e+00 3.510000000000000000e+02
1.193229218399979752e+00 -1.057052041730086156e+00 3.510000000000000000e+02
2.333225069826366127e+00 -2.201473525744876980e-01 3.510000000000000000e+02
3.473220921252752280e+00 6.167573365811107600e-01 3.510000000000000000e+02
4.613216772679137989e+00 1.453662025736708996e+00 3.510000000000000000e+02
5.753212624105524142e+00 2.290566714892307232e+00 3.510000000000000000e+02
-3.366754187305565083e+00 -4.404670798352479544e+00 3.520000000000000000e+02
-2.226758335879178929e+00 -3.567766109196881530e+00 3.520000000000000000e+02
-1.086762484452792776e+00 -2.730861420041283072e+00 3.520000000000000000e+02
5.323336697359352943e-02 -1.893956730885684392e+00 3.520000000000000000e+02
1.193229218399979752e+00 -1.057052041730086156e+00 3.520000000000000000e+02
2.333225069826366127e+00 -2.201473525744876980e-01 3.520000000000000000e+02
3.473220921252752280e+00 6.167573365811107600e-01 3.520000000000000000e+02
4.613216772679137989e+00 1.453662025736708996e+00 3.520000000000000000e+02
5.753212624105524142e+00 2.290566714892307232e+00 3.520000000000000000e+02
-3.366754187305565083e+00 -4.404670798352479544e+00 3.530000000000000000e+02
-2.226758335879178929e+00 -3.567766109196881530e+00 3.530000000000000000e+02
-1.086762484452792776e+00 -2.730861420041283072e+00 3.530000000000000000e+02
5.323336697359352943e-02 -1.893956730885684392e+00 3.530000000000000000e+02
1.193229218399979752e+00 -1.057052041730086156e+00 3.530000000000000000e+02
2.333225069826366127e+00 -2.201473525744876980e-01 3.530000000000000000e+02
3.473220921252752280e+00 6.167573365811107600e-01 3.530000000000000000e+02
4.613216772679137989e+00 1.453662025736708996e+00 3.530000000000000000e+02
5.753212624105524142e+00 2.290566714892307232e+00 3.530000000000000000e+02
-4.355204457596557610e+00 -4.253125217217085918e+00 3.540000000000000000e+02
-3.215208606170171013e+00 -3.416220528061487016e+00 3.540000000000000000e+02
-2.075212754743784860e+00 -2.579315838905889002e+00 3.540000000000000000e+02
-9.352169033173987067e-01 -1.742411149750290544e+00 3.540000000000000000e+02
2.047789481089873909e-01 -9.055064605946921974e-01 3.540000000000000000e+02
1.344774799535373599e+00 -6.860177143909373942e-02 3.540000000000000000e+02
2.484770650961760197e+00 7.683029177165046075e-01 3.540000000000000000e+02
3.624766502388146350e+00 1.605207606872103065e+00 3.540000000000000000e+02
4.764762353814531615e+00 2.442112296027700857e+00 3.540000000000000000e+02
5.904758205240918656e+00 3.279016985183300648e+00 3.540000000000000000e+02
-4.355204457596557610e+00 -4.253125217217085918e+00 3.550000000000000000e+02
-3.215208606170171013e+00 -3.416220528061487016e+00 3.550000000000000000e+02
-2.075212754743784860e+00 -2.579315838905889002e+00 3.550000000000000000e+02
-9.352169033173987067e-01 -1.742411149750290544e+00 3.550000000000000000e+02
2.047789481089873909e-01 -9.055064605946921974e-01 3.550000000000000000e+02
1.344774799535373599e+00 -6.860177143909373942e-02 3.550000000000000000e+02
2.484770650961760197e+00 7.683029177165046075e-01 3.550000000000000000e+02
3.624766502388146350e+00 1.605207606872103065e+00 3.550000000000000000e+02
4.764762353814531615e+00 2.442112296027700857e+00 3.550000000000000000e+02
5.904758205240918656e+00 3.279016985183300648e+00 3.550000000000000000e+02
-3.366754187305565083e+00 -4.404670798352479544e+00 3.560000000000000000e+02
-2.226758335879178929e+00 -3.567766109196881530e+00 3.560000000000000000e+02
-1.086762484452792776e+00 -2.730861420041283072e+00 3.560000000000000000e+02
5.323336697359352943e-02 -1.893956730885684392e+00 3.560000000000000000e+02
1.193229218399979752e+00 -1.057052041730086156e+00 3.560000000000000000e+02
2.333225069826366127e+00 -2.201473525744876980e-01 3.560000000000000000e+02
3.473220921252752280e+00 6.167573365811107600e-01 3.560000000000000000e+02
4.613216772679137989e+00 1.453662025736708996e+00 3.560000000000000000e+02
5.753212624105524142e+00 2.290566714892307232e+00 3.560000000000000000e+02
-3.366754187305565083e+00 -4.404670798352479544e+00 3.570000000000000000e+02
-2.226758335879178929e+00 -3.567766109196881530e+00 3.570000000000000000e+02
-1.086762484452792776e+00 -2.730861420041283072e+00 3.570000000000000000e+02
5.323336697359352943e-02 -1.893956730885684392e+00 3.570000000000000000e+02
1.193229218399979752e+00 -1.057052041730086156e+00 3.570000000000000000e+02
2.333225069826366127e+00 -2.201473525744876980e-01 3.570000000000000000e+02
3.473220921252752280e+00 6.167573365811107600e-01 3.570000000000000000e+02
4.613216772679137989e+00 1.453662025736708996e+00 3.570000000000000000e+02
5.753212624105524142e+00 2.290566714892307232e+00 3.570000000000000000e+02
-3.366754187305565083e+00 -4.404670798352479544e+00 3.580000000000000000e+02
-2.226758335879178929e+00 -3.567766109196881530e+00 3.580000000000000000e+02
-1.086762484452792776e+00 -2.730861420041283072e+00 3.580000000000000000e+02
5.323336697359352943e-02 -1.893956730885684392e+00 3.580000000000000000e+02
1.193229218399979752e+00 -1.057052041730086156e+00 3.580000000000000000e+02
2.333225069826366127e+00 -2.201473525744876980e-01 3.580000000000000000e+02
3.473220921252752280e+00 6.167573365811107600e-01 3.580000000000000000e+02
4.613216772679137989e+00 1.453662025736708996e+00 3.580000000000000000e+02
5.753212624105524142e+00 2.290566714892307232e+00 3.580000000000000000e+02
-3.366754187305565083e+00 -4.404670798352479544e+00 3.590000000000000000e+02
-2.226758335879178929e+00 -3.567766109196881530e+00 3.590000000000000000e+02
-1.086762484452792776e+00 -2.730861420041283072e+00 3.590000000000000000e+02
5.323336697359352943e-02 -1.893956730885684392e+00 3.590000000000000000e+02
1.193229218399979752e+00 -1.057052041730086156e+00 3.590000000000000000e+02
2.333225069826366127e+00 -2.201473525744876980e-01 3.590000000000000000e+02
3.473220921252752280e+00 6.167573365811107600e-01 3.590000000000000000e+02
4.613216772679137989e+00 1.453662025736708996e+00 3.590000000000000000e+02
5.753212624105524142e+00 2.290566714892307232e+00 3.590000000000000000e+02
-3.366754187305565083e+00 -4.404670798352479544e+00 3.600000000000000000e+02
-2.226758335879178929e+00 -3.567766109196881530e+00 3.600000000000000000e+02
-1.086762484452792776e+00 -2.730861420041283072e+00 3.600000000000000000e+02
5.323336697359352943e-02 -1.893956730885684392e+00 3.600000000000000000e+02
1.193229218399979752e+00 -1.057052041730086156e+00 3.600000000000000000e+02
2.333225069826366127e+00 -2.201473525744876980e-01 3.600000000000000000e+02
3.473220921252752280e+00 6.167573365811107600e-01 3.600000000000000000e+02
4.613216772679137989e+00 1.453662025736708996e+00 3.600000000000000000e+02
5.753212624105524142e+00 2.290566714892307232e+00 3.600000000000000000e+02
-3.366754187305565083e+00 -4.404670798352479544e+00 3.610000000000000000e+02
-2.226758335879178929e+00 -3.567766109196881530e+00 3.610000000000000000e+02
-1.086762484452792776e+00 -2.730861420041283072e+00 3.610000000000000000e+02
5.323336697359352943e-02 -1.893956730885684392e+00 3.610000000000000000e+02
1.193229218399979752e+00 -1.057052041730086156e+00 3.610000000000000000e+02
2.333225069826366127e+00 -2.201473525744876980e-01 3.610000000000000000e+02
3.473220921252752280e+00 6.167573365811107600e-01 3.610000000000000000e+02
4.613216772679137989e+00 1.453662025736708996e+00 3.610000000000000000e+02
5.753212624105524142e+00 2.290566714892307232e+00 3.610000000000000000e+02
-3.366754187305565083e+00 -4.404670798352479544e+00 3.620000000000000000e+02
-2.226758335879178929e+00 -3.567766109196881530e+00 3.620000000000000000e+02
-1.086762484452792776e+00 -2.730861420041283072e+00 3.620000000000000000e+02
5.323336697359352943e-02 -1.893956730885684392e+00 3.620000000000000000e+02
1.193229218399979752e+00 -1.057052041730086156e+00 3.620000000000000000e+02
2.333225069826366127e+00 -2.201473525744876980e-01 3.620000000000000000e+02
3.473220921252752280e+00 6.167573365811107600e-01 3.620000000000000000e+02
4.613216772679137989e+00 1.453662025736708996e+00 3.620000000000000000e+02
5.753212624105524142e+00 2.290566714892307232e+00 3.620000000000000000e+02
-4.355204457596557610e+00 -4.253125217217085918e+00 3.630000000000000000e+02
-3.215208606170171013e+00 -3.416220528061487016e+00 3.630000000000000000e+02
-2.075212754743784860e+00 -2.579315838905889002e+00 3.630000000000000000e+02
-9.352169033173987067e-01 -1.742411149750290544e+00 3.630000000000000000e+02
2.047789481089873909e-01 -9.055064605946921974e-01 3.630000000000000000e+02
1.344774799535373599e+00 -6.860177143909373942e-02 3.630000000000000000e+02
2.484770650961760197e+00 7.683029177165046075e-01 3.630000000000000000e+02
3.624766502388146350e+00 1.605207606872103065e+00 3.630000000000000000e+02
4.764762353814531615e+00 2.442112296027700857e+00 3.630000000000000000e+02
5.904758205240918656e+00 3.279016985183300648e+00 3.630000000000000000e+02
-4.355204457596557610e+00 -4.253125217217085918e+00 3.640000000000000000e+02
-3.215208606170171013e+00 -3.416220528061487016e+00 3.640000000000000000e+02
-2.075212754743784860e+00 -2.579315838905889002e+00 3.640000000000000000e+02
-9.352169033173987067e-01 -1.742411149750290544e+00 3.640000000000000000e+02
2.047789481089873909e-01 -9.055064605946921974e-01 3.640000000000000000e+02
1.344774799535373599e+00 -6.860177143909373942e-02 3.640000000000000000e+02
2.484770650961760197e+00 7.683029177165046075e-01 3.640000000000000000e+02
3.624766502388146350e+00 1.605207606872103065e+00 3.640000000000000000e+02
4.764762353814531615e+00 2.442112296027700857e+00 3.640000000000000000e+02
5.904758205240918656e+00 3.279016985183300648e+00 3.640000000000000000e+02
-4.355204457596557610e+00 -4.253125217217085918e+00 3.650000000000000000e+02
-3.215208606170171013e+00 -3.416220528061487016e+00 3.650000000000000000e+02
-2.075212754743784860e+00 -2.579315838905889002e+00 3.650000000000000000e+02
-9.352169033173987067e-01 -1.742411149750290544e+00 3.650000000000000000e+02
2.047789481089873909e-01 -9.055064605946921974e-01 3.650000000000000000e+02
1.344774799535373599e+00 -6.860177143909373942e-02 3.650000000000000000e+02
2.484770650961760197e+00 7.683029177165046075e-01 3.650000000000000000e+02
3.624766502388146350e+00 1.605207606872103065e+00 3.650000000000000000e+02
4.764762353814531615e+00 2.442112296027700857e+00 3.650000000000000000e+02
5.904758205240918656e+00 3.279016985183300648e+00 3.650000000000000000e+02
-3.366754187305565083e+00 -4.404670798352479544e+00 3.660000000000000000e+02
-2.226758335879178929e+00 -3.567766109196881530e+00 3.660000000000000000e+02
-1.086762484452792776e+00 -2.730861420041283072e+00 3.660000000000000000e+02
5.323336697359352943e-02 -1.893956730885684392e+00 3.660000000000000000e+02
1.193229218399979752e+00 -1.057052041730086156e+00 3.660000000000000000e+02
2.333225069826366127e+00 -2.201473525744876980e-01 3.660000000000000000e+02
3.473220921252752280e+00 6.167573365811107600e-01 3.660000000000000000e+02
4.613216772679137989e+00 1.453662025736708996e+00 3.660000000000000000e+02
5.753212624105524142e+00 2.290566714892307232e+00 3.660000000000000000e+02
-3.366754187305565083e+00 -4.404670798352479544e+00 3.670000000000000000e+02
-2.226758335879178929e+00 -3.567766109196881530e+00 3.670000000000000000e+02
-1.086762484452792776e+00 -2.730861420041283072e+00 3.670000000000000000e+02
5.323336697359352943e-02 -1.893956730885684392e+00 3.670000000000000000e+02
1.193229218399979752e+00 -1.057052041730086156e+00 3.670000000000000000e+02
2.333225069826366127e+00 -2.201473525744876980e-01 3.670000000000000000e+02
3.473220921252752280e+00 6.167573365811107600e-01 3.670000000000000000e+02
4.613216772679137989e+00 1.453662025736708996e+00 3.670000000000000000e+02
5.753212624105524142e+00 2.290566714892307232e+00 3.670000000000000000e+02
-3.366754187305565083e+00 -4.404670798352479544e+00 3.680000000000000000e+02
-2.226758335879178929e+00 -3.567766109196881530e+00 3.680000000000000000e+02
-1.086762484452792776e+00 -2.730861420041283072e+00 3.680000000000000000e+02
5.323336697359352943e-02 -1.893956730885684392e+00 3.680000000000000000e+02
1.193229218399979752e+00 -1.057052041730086156e+00 3.680000000000000000e+02
2.333225069826366127e+00 -2.201473525744876980e-01 3.680000000000000000e+02
3.473220921252752280e+00 6.167573365811107600e-01 3.680000000000000000e+02
4.613216772679137989e+00 1.453662025736708996e+00 3.680000000000000000e+02
5.753212624105524142e+00 2.290566714892307232e+00 3.680000000000000000e+02
-3.366754187305565083e+00 -4.404670798352479544e+00 3.690000000000000000e+02
-2.226758335879178929e+00 -3.567766109196881530e+00 3.690000000000000000e+02
-1.086762484452792776e+00 -2.730861420041283072e+00 3.690000000000000000e+02
5.323336697359352943e-02 -1.893956730885684392e+00 3.690000000000000000e+02
1.193229218399979752e+00 -1.057052041730086156e+00 3.690000000000000000e+02
2.333225069826366127e+00 -2.201473525744876980e-01 3.690000000000000000e+02
3.473220921252752280e+00 6.167573365811107600e-01 3.690000000000000000e+02
4.613216772679137989e+00 1.453662025736708996e+00 3.690000000000000000e+02
5.753212624105524142e+00 2.290566714892307232e+00 3.690000000000000000e+02
-3.366754187305565083e+00 -4.404670798352479544e+00 3.700000000000000000e+02
-2.226758335879178929e+00 -3.567766109196881530e+00 3.700000000000000000e+02
-1.086762484452792776e+00 -2.730861420041283072e+00 3.700000000000000000e+02
5.323336697359352943e-02 -1.893956730885684392e+00 3.700000000000000000e+02
1.193229218399979752e+00 -1.057052041730086156e+00 3.700000000000000000e+02
2.333225069826366127e+00 -2.201473525744876980e-01 3.700000000000000000e+02
3.473220921252752280e+00 6.167573365811107600e-01 3.700000000000000000e+02
4.613216772679137989e+00 1.453662025736708996e+00 3.700000000000000000e+02
5.753212624105524142e+00 2.290566714892307232e+00 3.700000000000000000e+02
-3.366754187305565083e+00 -4.404670798352479544e+00 3.710000000000000000e+02
-2.226758335879178929e+00 -3.567766109196881530e+00 3.710000000000000000e+02
-1.086762484452792776e+00 -2.730861420041283072e+00 3.710000000000000000e+02
5.323336697359352943e-02 -1.893956730885684392e+00 3.710000000000000000e+02
1.193229218399979752e+00 -1.057052041730086156e+00 3.710000000000000000e+02
2.333225069826366127e+00 -2.201473525744876980e-01 3.710000000000000000e+02
3.473220921252752280e+00 6.167573365811107600e-01 3.710000000000000000e+02
4.613216772679137989e+00 1.453662025736708996e+00 3.710000000000000000e+02
5.753212624105524142e+00 2.290566714892307232e+00 3.710000000000000000e+02
-4.355204457596557610e+00 -4.253125217217085918e+00 3.720000000000000000e+02
-3.215208606170171013e+00 -3.416220528061487016e+00 3.720000000000000000e+02
-2.075212754743784860e+00 -2.579315838905889002e+00 3.720000000000000000e+02
-9.352169033173987067e-01 -1.742411149750290544e+00 3.720000000000000000e+02
2.047789481089873909e-01 -9.055064605946921974e-01 3.720000000000000000e+02
1.344774799535373599e+00 -6.860177143909373942e-02 3.720000000000000000e+02
2.484770650961760197e+00 7.683029177165046075e-01 3.720000000000000000e+02
3.624766502388146350e+00 1.605207606872103065e+00 3.720000000000000000e+02
4.764762353814531615e+00 2.442112296027700857e+00 3.720000000000000000e+02
5.904758205240918656e+00 3.279016985183300648e+00 3.720000000000000000e+02
-4.355204457596557610e+00 -4.253125217217085918e+00 3.730000000000000000e+02
-3.215208606170171013e+00 -3.416220528061487016e+00 3.730000000000000000e+02
-2.075212754743784860e+00 -2.579315838905889002e+00 3.730000000000000000e+02
-9.352169033173987067e-01 -1.742411149750290544e+00 3.730000000000000000e+02
2.047789481089873909e-01 -9.055064605946921974e-01 3.730000000000000000e+02
1.344774799535373599e+00 -6.860177143909373942e-02 3.730000000000000000e+02
2.484770650961760197e+00 7.683029177165046075e-01 3.730000000000000000e+02
3.624766502388146350e+00 1.605207606872103065e+00 3.730000000000000000e+02
4.764762353814531615e+00 2.442112296027700857e+00 3.730000000000000000e+02
5.904758205240918656e+00 3.279016985183300648e+00 3.730000000000000000e+02
-3.366754187305565083e+00 -4.404670798352479544e+00 3.740000000000000000e+02
-2.226758335879178929e+00 -3.567766109196881530e+00 3.740000000000000000e+02
-1.086762484452792776e+00 -2.730861420041283072e+00 3.740000000000000000e+02
5.323336697359352943e-02 -1.893956730885684392e+00 3.740000000000000000e+02
1.193229218399979752e+00 -1.057052041730086156e+00 3.740000000000000000e+02
2.333225069826366127e+00 -2.201473525744876980e-01 3.740000000000000000e+02
3.473220921252752280e+00 6.167573365811107600e-01 3.740000000000000000e+02
4.613216772679137989e+00 1.453662025736708996e+00 3.740000000000000000e+02
5.753212624105524142e+00 2.290566714892307232e+00 3.740000000000000000e+02
-3.366754187305565083e+00 -4.404670798352479544e+00 3.750000000000000000e+02
-2.226758335879178929e+00 -3.567766109196881530e+00 3.750000000000000000e+02
-1.086762484452792776e+00 -2.730861420041283072e+00 3.750000000000000000e+02
5.323336697359352943e-02 -1.893956730885684392e+00 3.750000000000000000e+02
1.193229218399979752e+00 -1.057052041730086156e+00 3.750000000000000000e+02
2.333225069826366127e+00 -2.201473525744876980e-01 3.750000000000000000e+02
3.473220921252752280e+00 6.167573365811107600e-01 3.750000000000000000e+02
4.613216772679137989e+00 1.453662025736708996e+00 3.750000000000000000e+02
5.753212624105524142e+00 2.290566714892307232e+00 3.750000000000000000e+02
-3.366754187305565083e+00 -4.404670798352479544e+00 3.760000000000000000e+02
-2.226758335879178929e+00 -3.567766109196881530e+00 3.760000000000000000e+02
-1.086762484452792776e+00 -2.730861420041283072e+00 3.760000000000000000e+02
5.323336697359352943e-02 -1.893956730885684392e+00 3.760000000000000000e+02
1.193229218399979752e+00 -1.057052041730086156e+00 3.760000000000000000e+02
2.333225069826366127e+00 -2.201473525744876980e-01 3.760000000000000000e+02
3.473220921252752280e+00 6.167573365811107600e-01 3.760000000000000000e+02
4.613216772679137989e+00 1.453662025736708996e+00 3.760000000000000000e+02
5.753212624105524142e+00 2.290566714892307232e+00 3.760000000000000000e+02
-3.366754187305565083e+00 -4.404670798352479544e+00 3.770000000000000000e+02
-2.226758335879178929e+00 -3.567766109196881530e+00 3.770000000000000000e+02
-1.086762484452792776e+00 -2.730861420041283072e+00 3.770000000000000000e+02
5.323336697359352943e-02 -1.893956730885684392e+00 3.770000000000000000e+02
1.193229218399979752e+00 -1.057052041730086156e+00 3.770000000000000000e+02
2.333225069826366127e+00 -2.201473525744876980e-01 3.770000000000000000e+02
3.473220921252752280e+00 6.167573365811107600e-01 3.770000000000000000e+02
4.613216772679137989e+00 1.453662025736708996e+00 3.770000000000000000e+02
5.753212624105524142e+00 2.290566714892307232e+00 3.770000000000000000e+02
-4.355204457596557610e+00 -4.253125217217085918e+00 3.780000000000000000e+02
-3.215208606170171013e+00 -3.416220528061487016e+00 3.780000000000000000e+02
-2.075212754743784860e+00 -2.579315838905889002e+00 3.780000000000000000e+02
-9.352169033173987067e-01 -1.742411149750290544e+00 3.780000000000000000e+02
2.047789481089873909e-01 -9.055064605946921974e-01 3.780000000000000000e+02
1.344774799535373599e+00 -6.860177143909373942e-02 3.780000000000000000e+02
2.484770650961760197e+00 7.683029177165046075e-01 3.780000000000000000e+02
3.624766502388146350e+00 1.605207606872103065e+00 3.780000000000000000e+02
4.764762353814531615e+00 2.442112296027700857e+00 3.780000000000000000e+02
5.904758205240918656e+00 3.279016985183300648e+00 3.780000000000000000e+02
-4.355204457596557610e+00 -4.253125217217085918e+00 3.790000000000000000e+02
-3.215208606170171013e+00 -3.416220528061487016e+00 3.790000000000000000e+02
-2.075212754743784860e+00 -2.579315838905889002e+00 3.790000000000000000e+02
-9.352169033173987067e-01 -1.742411149750290544e+00 3.790000000000000000e+02
2.047789481089873909e-01 -9.055064605946921974e-01 3.790000000000000000e+02
1.344774799535373599e+00 -6.860177143909373942e-02 3.790000000000000000e+02
2.484770650961760197e+00 7.683029177165046075e-01 3.790000000000000000e+02
3.624766502388146350e+00 1.605207606872103065e+00 3.790000000000000000e+02
4.764762353814531615e+00 2.442112296027700857e+00 3.790000000000000000e+02
5.904758205240918656e+00 3.279016985183300648e+00 3.790000000000000000e+02
-4.355204457596557610e+00 -4.253125217217085918e+00 3.800000000000000000e+02
-3.215208606170171013e+00 -3.416220528061487016e+00 3.800000000000000000e+02
-2.075212754743784860e+00 -2.579315838905889002e+00 3.800000000000000000e+02
-9.352169033173987067e-01 -1.742411149750290544e+00 3.800000000000000000e+02
2.047789481089873909e-01 -9.055064605946921974e-01 3.800000000000000000e+02
1.344774799535373599e+00 -6.860177143909373942e-02 3.800000000000000000e+02
2.484770650961760197e+00 7.683029177165046075e-01 3.800000000000000000e+02
3.624766502388146350e+00 1.605207606872103065e+00 3.800000000000000000e+02
4.764762353814531615e+00 2.442112296027700857e+00 3.800000000000000000e+02
5.904758205240918656e+00 3.279016985183300648e+00 3.800000000000000000e+02
-4.355204457596557610e+00 -4.253125217217085918e+00 3.810000000000000000e+02
-3.215208606170171013e+00 -3.416220528061487016e+00 3.810000000000000000e+02
-2.075212754743784860e+00 -2.579315838905889002e+00 3.810000000000000000e+02
-9.352169033173987067e-01 -1.742411149750290544e+00 3.810000000000000000e+02
2.047789481089873909e-01 -9.055064605946921974e-01 3.810000000000000000e+02
1.344774799535373599e+00 -6.860177143909373942e-02 3.810000000000000000e+02
2.484770650961760197e+00 7.683029177165046075e-01 3.810000000000000000e+02
3.624766502388146350e+00 1.605207606872103065e+00 3.810000000000000000e+02
4.764762353814531615e+00 2.442112296027700857e+00 3.810000000000000000e+02
-4.355204457596557610e+00 -4.253125217217085918e+00 3.820000000000000000e+02
-3.215208606170171013e+00 -3.416220528061487016e+00 3.820000000000000000e+02
-2.075212754743784860e+00 -2.579315838905889002e+00 3.820000000000000000e+02
-9.352169033173987067e-01 -1.742411149750290544e+00 3.820000000000000000e+02
2.047789481089873909e-01 -9.055064605946921974e-01 3.820000000000000000e+02
1.344774799535373599e+00 -6.860177143909373942e-02 3.820000000000000000e+02
2.484770650961760197e+00 7.683029177165046075e-01 3.820000000000000000e+02
3.624766502388146350e+00 1.605207606872103065e+00 3.820000000000000000e+02
4.764762353814531615e+00 2.442112296027700857e+00 3.820000000000000000e+02
-3.366754187305565083e+00 -4.404670798352479544e+00 3.830000000000000000e+02
-2.226758335879178929e+00 -3.567766109196881530e+00 3.830000000000000000e+02
-1.086762484452792776e+00 -2.730861420041283072e+00 3.830000000000000000e+02
5.323336697359352943e-02 -1.893956730885684392e+00 3.830000000000000000e+02
1.193229218399979752e+00 -1.057052041730086156e+00 3.830000000000000000e+02
2.333225069826366127e+00 -2.201473525744876980e-01 3.830000000000000000e+02
3.473220921252752280e+00 6.167573365811107600e-01 3.830000000000000000e+02
4.613216772679137989e+00 1.453662025736708996e+00 3.830000000000000000e+02
5.753212624105524142e+00 2.290566714892307232e+00 3.830000000000000000e+02
-3.366754187305565083e+00 -4.404670798352479544e+00 3.840000000000000000e+02
-2.226758335879178929e+00 -3.567766109196881530e+00 3.840000000000000000e+02
-1.086762484452792776e+00 -2.730861420041283072e+00 3.840000000000000000e+02
5.323336697359352943e-02 -1.893956730885684392e+00 3.840000000000000000e+02
1.193229218399979752e+00 -1.057052041730086156e+00 3.840000000000000000e+02
2.333225069826366127e+00 -2.201473525744876980e-01 3.840000000000000000e+02
3.473220921252752280e+00 6.167573365811107600e-01 3.840000000000000000e+02
4.613216772679137989e+00 1.453662025736708996e+00 3.840000000000000000e+02
5.753212624105524142e+00 2.290566714892307232e+00 3.840000000000000000e+02
-4.355204457596557610e+00 -4.253125217217085918e+00 3.850000000000000000e+02
-3.215208606170171013e+00 -3.416220528061487016e+00 3.850000000000000000e+02
-2.075212754743784860e+00 -2.579315838905889002e+00 3.850000000000000000e+02
-9.352169033173987067e-01 -1.742411149750290544e+00 3.850000000000000000e+02
2.047789481089873909e-01 -9.055064605946921974e-01 3.850000000000000000e+02
1.344774799535373599e+00 -6.860177143909373942e-02 3.850000000000000000e+02
2.484770650961760197e+00 7.683029177165046075e-01 3.850000000000000000e+02
3.624766502388146350e+00 1.605207606872103065e+00 3.850000000000000000e+02
4.764762353814531615e+00 2.442112296027700857e+00 3.850000000000000000e+02
5.904758205240918656e+00 3.279016985183300648e+00 3.850000000000000000e+02
-4.355204457596557610e+00 -4.253125217217085918e+00 3.860000000000000000e+02
-3.215208606170171013e+00 -3.416220528061487016e+00 3.860000000000000000e+02
-2.075212754743784860e+00 -2.579315838905889002e+00 3.860000000000000000e+02
-9.352169033173987067e-01 -1.742411149750290544e+00 3.860000000000000000e+02
2.047789481089873909e-01 -9.055064605946921974e-01 3.860000000000000000e+02
1.344774799535373599e+00 -6.860177143909373942e-02 3.860000000000000000e+02
2.484770650961760197e+00 7.683029177165046075e-01 3.860000000000000000e+02
3.624766502388146350e+00 1.605207606872103065e+00 3.860000000000000000e+02
4.764762353814531615e+00 2.442112296027700857e+00 3.860000000000000000e+02
-4.355204457596557610e+00 -4.253125217217085918e+00 3.870000000000000000e+02
-3.215208606170171013e+00 -3.416220528061487016e+00 3.870000000000000000e+02
-2.075212754743784860e+00 -2.579315838905889002e+00 3.870000000000000000e+02
-9.352169033173987067e-01 -1.742411149750290544e+00 3.870000000000000000e+02
2.047789481089873909e-01 -9.055064605946921974e-01 3.870000000000000000e+02
1.344774799535373599e+00 -6.860177143909373942e-02 3.870000000000000000e+02
2.484770650961760197e+00 7.683029177165046075e-01 3.870000000000000000e+02
3.624766502388146350e+00 1.605207606872103065e+00 3.870000000000000000e+02
4.764762353814531615e+00 2.442112296027700857e+00 3.870000000000000000e+02
-4.355204457596557610e+00 -4.253125217217085918e+00 3.880000000000000000e+02
-3.215208606170171013e+00 -3.416220528061487016e+00 3.880000000000000000e+02
-2.075212754743784860e+00 -2.579315838905889002e+00 3.880000000000000000e+02
-9.352169033173987067e-01 -1.742411149750290544e+00 3.880000000000000000e+02
2.047789481089873909e-01 -9.055064605946921974e-01 3.880000000000000000e+02
1.344774799535373599e+00 -6.860177143909373942e-02 3.880000000000000000e+02
2.484770650961760197e+00 7.683029177165046075e-01 3.880000000000000000e+02
3.624766502388146350e+00 1.605207606872103065e+00 3.880000000000000000e+02
4.764762353814531615e+00 2.442112296027700857e+00 3.880000000000000000e+02
5.904758205240918656e+00 3.279016985183300648e+00 3.880000000000000000e+02
-4.355204457596557610e+00 -4.253125217217085918e+00 3.890000000000000000e+02
-3.215208606170171013e+00 -3.416220528061487016e+00 3.890000000000000000e+02
-2.075212754743784860e+00 -2.579315838905889002e+00 3.890000000000000000e+02
-9.352169033173987067e-01 -1.742411149750290544e+00 3.890000000000000000e+02
2.047789481089873909e-01 -9.055064605946921974e-01 3.890000000000000000e+02
1.344774799535373599e+00 -6.860177143909373942e-02 3.890000000000000000e+02
2.484770650961760197e+00 7.683029177165046075e-01 3.890000000000000000e+02
3.624766502388146350e+00 1.605207606872103065e+00 3.890000000000000000e+02
4.764762353814531615e+00 2.442112296027700857e+00 3.890000000000000000e+02
5.904758205240918656e+00 3.279016985183300648e+00 3.890000000000000000e+02
-4.355204457596557610e+00 -4.253125217217085918e+00 3.900000000000000000e+02
-3.215208606170171013e+00 -3.416220528061487016e+00 3.900000000000000000e+02
-2.075212754743784860e+00 -2.579315838905889002e+00 3.900000000000000000e+02
-9.352169033173987067e-01 -1.742411149750290544e+00 3.900000000000000000e+02
2.047789481089873909e-01 -9.055064605946921974e-01 3.900000000000000000e+02
1.344774799535373599e+00 -6.860177143909373942e-02 3.900000000000000000e+02
2.484770650961760197e+00 7.683029177165046075e-01 3.900000000000000000e+02
3.624766502388146350e+00 1.605207606872103065e+00 3.900000000000000000e+02
4.764762353814531615e+00 2.442112296027700857e+00 3.900000000000000000e+02
-4.355204457596557610e+00 -4.253125217217085918e+00 3.910000000000000000e+02
-3.215208606170171013e+00 -3.416220528061487016e+00 3.910000000000000000e+02
-2.075212754743784860e+00 -2.579315838905889002e+00 3.910000000000000000e+02
-9.352169033173987067e-01 -1.742411149750290544e+00 3.910000000000000000e+02
2.047789481089873909e-01 -9.055064605946921974e-01 3.910000000000000000e+02
1.344774799535373599e+00 -6.860177143909373942e-02 3.910000000000000000e+02
2.484770650961760197e+00 7.683029177165046075e-01 3.910000000000000000e+02
3.624766502388146350e+00 1.605207606872103065e+00 3.910000000000000000e+02
4.764762353814531615e+00 2.442112296027700857e+00 3.910000000000000000e+02
-4.355204457596557610e+00 -4.253125217217085918e+00 3.920000000000000000e+02
-3.215208606170171013e+00 -3.416220528061487016e+00 3.920000000000000000e+02
-2.075212754743784860e+00 -2.579315838905889002e+00 3.920000000000000000e+02
-9.352169033173987067e-01 -1.742411149750290544e+00 3.920000000000000000e+02
2.047789481089873909e-01 -9.055064605946921974e-01 3.920000000000000000e+02
1.344774799535373599e+00 -6.860177143909373942e-02 3.920000000000000000e+02
2.484770650961760197e+00 7.683029177165046075e-01 3.920000000000000000e+02
3.624766502388146350e+00 1.605207606872103065e+00 3.920000000000000000e+02
4.764762353814531615e+00 2.442112296027700857e+00 3.920000000000000000e+02
-4.355204457596557610e+00 -4.253125217217085918e+00 3.930000000000000000e+02
-3.215208606170171013e+00 -3.416220528061487016e+00 3.930000000000000000e+02
-2.075212754743784860e+00 -2.579315838905889002e+00 3.930000000000000000e+02
-9.352169033173987067e-01 -1.742411149750290544e+00 3.930000000000000000e+02
2.047789481089873909e-01 -9.055064605946921974e-01 3.930000000000000000e+02
1.344774799535373599e+00 -6.860177143909373942e-02 3.930000000000000000e+02
2.484770650961760197e+00 7.683029177165046075e-01 3.930000000000000000e+02
3.624766502388146350e+00 1.605207606872103065e+00 3.930000000000000000e+02
4.764762353814531615e+00 2.442112296027700857e+00 3.930000000000000000e+02
-4.355204457596557610e+00 -4.253125217217085918e+00 3.940000000000000000e+02
-3.215208606170171013e+00 -3.416220528061487016e+00 3.940000000000000000e+02
-2.075212754743784860e+00 -2.579315838905889002e+00 3.940000000000000000e+02
-9.352169033173987067e-01 -1.742411149750290544e+00 3.940000000000000000e+02
2.047789481089873909e-01 -9.055064605946921974e-01 3.940000000000000000e+02
1.344774799535373599e+00 -6.860177143909373942e-02 3.940000000000000000e+02
2.484770650961760197e+00 7.683029177165046075e-01 3.940000000000000000e+02
3.624766502388146350e+00 1.605207606872103065e+00 3.940000000000000000e+02
4.764762353814531615e+00 2.442112296027700857e+00 3.940000000000000000e+02
-4.355204457596557610e+00 -4.253125217217085918e+00 3.950000000000000000e+02
-3.215208606170171013e+00 -3.416220528061487016e+00 3.950000000000000000e+02
-2.075212754743784860e+00 -2.579315838905889002e+00 3.950000000000000000e+02
-9.352169033173987067e-01 -1.742411149750290544e+00 3.950000000000000000e+02
2.047789481089873909e-01 -9.055064605946921974e-01 3.950000000000000000e+02
1.344774799535373599e+00 -6.860177143909373942e-02 3.950000000000000000e+02
2.484770650961760197e+00 7.683029177165046075e-01 3.950000000000000000e+02
3.624766502388146350e+00 1.605207606872103065e+00 3.950000000000000000e+02
4.764762353814531615e+00 2.442112296027700857e+00 3.950000000000000000e+02
-4.355204457596557610e+00 -4.253125217217085918e+00 3.960000000000000000e+02
-3.215208606170171013e+00 -3.416220528061487016e+00 3.960000000000000000e+02
-2.075212754743784860e+00 -2.579315838905889002e+00 3.960000000000000000e+02
-9.352169033173987067e-01 -1.742411149750290544e+00 3.960000000000000000e+02
2.047789481089873909e-01 -9.055064605946921974e-01 3.960000000000000000e+02
1.344774799535373599e+00 -6.860177143909373942e-02 3.960000000000000000e+02
2.484770650961760197e+00 7.683029177165046075e-01 3.960000000000000000e+02
3.624766502388146350e+00 1.605207606872103065e+00 3.960000000000000000e+02
4.764762353814531615e+00 2.442112296027700857e+00 3.960000000000000000e+02
-4.355204457596557610e+00 -4.253125217217085918e+00 3.970000000000000000e+02
-3.215208606170171013e+00 -3.416220528061487016e+00 3.970000000000000000e+02
-2.075212754743784860e+00 -2.579315838905889002e+00 3.970000000000000000e+02
-9.352169033173987067e-01 -1.742411149750290544e+00 3.970000000000000000e+02
2.047789481089873909e-01 -9.055064605946921974e-01 3.970000000000000000e+02
1.344774799535373599e+00 -6.860177143909373942e-02 3.970000000000000000e+02
2.484770650961760197e+00 7.683029177165046075e-01 3.970000000000000000e+02
3.624766502388146350e+00 1.605207606872103065e+00 3.970000000000000000e+02
4.764762353814531615e+00 2.442112296027700857e+00 3.970000000000000000e+02
-4.355204457596557610e+00 -4.253125217217085918e+00 3.980000000000000000e+02
-3.215208606170171013e+00 -3.416220528061487016e+00 3.980000000000000000e+02
-2.075212754743784860e+00 -2.579315838905889002e+00 3.980000000000000000e+02
-9.352169033173987067e-01 -1.742411149750290544e+00 3.980000000000000000e+02
2.047789481089873909e-01 -9.055064605946921974e-01 3.980000000000000000e+02
1.344774799535373599e+00 -6.860177143909373942e-02 3.980000000000000000e+02
2.484770650961760197e+00 7.683029177165046075e-01 3.980000000000000000e+02
3.624766502388146350e+00 1.605207606872103065e+00 3.980000000000000000e+02
4.764762353814531615e+00 2.442112296027700857e+00 3.980000000000000000e+02
-4.355204457596557610e+00 -4.253125217217085918e+00 3.990000000000000000e+02
-3.215208606170171013e+00 -3.416220528061487016e+00 3.990000000000000000e+02
-2.075212754743784860e+00 -2.579315838905889002e+00 3.990000000000000000e+02
-9.352169033173987067e-01 -1.742411149750290544e+00 3.990000000000000000e+02
2.047789481089873909e-01 -9.055064605946921974e-01 3.990000000000000000e+02
1.344774799535373599e+00 -6.860177143909373942e-02 3.990000000000000000e+02
