8.622202655023517792e+00 6.885218192583231200e+01 2.610000000000000000e+02
7.811047994723919530e+00 7.001064129804795755e+01 2.610000000000000000e+02
6.999893334424321267e+00 7.116910067026358888e+01 2.610000000000000000e+02
6.188738674124722117e+00 7.232756004247922021e+01 2.610000000000000000e+02
5.377584013825122966e+00 7.348601941469485155e+01 2.610000000000000000e+02
4.566429353525523815e+00 7.464447878691049709e+01 2.610000000000000000e+02
3.755274693225924665e+00 7.580293815912612843e+01 2.610000000000000000e+02
2.944120032926325958e+00 7.696139753134175976e+01 2.610000000000000000e+02
2.132965372626726808e+00 7.811985690355739109e+01 2.610000000000000000e+02
9.433357315323117831e+00 6.769372255361668067e+01 2.620000000000000000e+02
8.622202655023517792e+00 6.885218192583231200e+01 2.620000000000000000e+02
7.811047994723919530e+00 7.001064129804795755e+01 2.620000000000000000e+02
6.999893334424321267e+00 7.116910067026358888e+01 2.620000000000000000e+02
6.188738674124722117e+00 7.232756004247922021e+01 2.620000000000000000e+02
5.377584013825122966e+00 7.348601941469485155e+01 2.620000000000000000e+02
4.566429353525523815e+00 7.464447878691049709e+01 2.620000000000000000e+02
3.755274693225924665e+00 7.580293815912612843e+01 2.620000000000000000e+02
2.944120032926325958e+00 7.696139753134175976e+01 2.620000000000000000e+02
2.132965372626726808e+00 7.811985690355739109e+01 2.620000000000000000e+02
9.433357315323117831e+00 6.769372255361668067e+01 2.630000000000000000e+02
8.622202655023517792e+00 6.885218192583231200e+01 2.630000000000000000e+02
7.811047994723919530e+00 7.001064129804795755e+01 2.630000000000000000e+02
6.999893334424321267e+00 7.116910067026358888e+01 2.630000000000000000e+02
6.188738674124722117e+00 7.232756004247922021e+01 2.630000000000000000e+02
5.377584013825122966e+00 7.348601941469485155e+01 2.630000000000000000e+02
4.566429353525523815e+00 7.464447878691049709e+01 2.630000000000000000e+02
3.755274693225924665e+00 7.580293815912612843e+01 2.630000000000000000e+02
2.944120032926325958e+00 7.696139753134175976e+01 2.630000000000000000e+02
2.132965372626726808e+00 7.811985690355739109e+01 2.630000000000000000e+02
9.433357315323117831e+00 6.769372255361668067e+01 2.640000000000000000e+02
8.622202655023517792e+00 6.885218192583231200e+01 2.640000000000000000e+02
7.811047994723919530e+00 7.001064129804795755e+01 2.640000000000000000e+02
6.999893334424321267e+00 7.116910067026358888e+01 2.640000000000000000e+02
6.188738674124722117e+00 7.232756004247922021e+01 2.640000000000000000e+02
5.377584013825122966e+00 7.348601941469485155e+01 2.640000000000000000e+02
4.566429353525523815e+00 7.464447878691049709e+01 2.640000000000000000e+02
3.755274693225924665e+00 7.580293815912612843e+01 2.640000000000000000e+02
2.944120032926325958e+00 7.696139753134175976e+01 2.640000000000000000e+02
2.132965372626726808e+00 7.811985690355739109e+01 2.640000000000000000e+02
1.321810712327128101e+00 7.927831627577302243e+01 2.640000000000000000e+02
9.433357315323117831e+00 6.769372255361668067e+01 2.650000000000000000e+02
8.622202655023517792e+00 6.885218192583231200e+01 2.650000000000000000e+02
7.811047994723919530e+00 7.001064129804795755e+01 2.650000000000000000e+02
6.999893334424321267e+00 7.116910067026358888e+01 2.650000000000000000e+02
6.188738674124722117e+00 7.232756004247922021e+01 2.650000000000000000e+02
5.377584013825122966e+00 7.348601941469485155e+01 2.650000000000000000e+02
4.566429353525523815e+00 7.464447878691049709e+01 2.650000000000000000e+02
3.755274693225924665e+00 7.580293815912612843e+01 2.650000000000000000e+02
2.944120032926325958e+00 7.696139753134175976e+01 2.650000000000000000e+02
2.132965372626726808e+00 7.811985690355739109e+01 2.650000000000000000e+02
9.433357315323117831e+00 6.769372255361668067e+01 2.660000000000000000e+02
8.622202655023517792e+00 6.885218192583231200e+01 2.660000000000000000e+02
7.811047994723919530e+00 7.001064129804795755e+01 2.660000000000000000e+02
6.999893334424321267e+00 7.116910067026358888e+01 2.660000000000000000e+02
6.188738674124722117e+00 7.232756004247922021e+01 2.660000000000000000e+02
5.377584013825122966e+00 7.348601941469485155e+01 2.660000000000000000e+02
4.566429353525523815e+00 7.464447878691049709e+01 2.660000000000000000e+02
3.755274693225924665e+00 7.580293815912612843e+01 2.660000000000000000e+02
2.944120032926325958e+00 7.696139753134175976e+01 2.660000000000000000e+02
2.132965372626726808e+00 7.811985690355739109e+01 2.660000000000000000e+02
9.433357315323117831e+00 6.769372255361668067e+01 2.670000000000000000e+02
8.622202655023517792e+00 6.885218192583231200e+01 2.670000000000000000e+02
7.811047994723919530e+00 7.001064129804795755e+01 2.670000000000000000e+02
6.999893334424321267e+00 7.116910067026358888e+01 2.670000000000000000e+02
6.188738674124722117e+00 7.232756004247922021e+01 2.670000000000000000e+02
5.377584013825122966e+00 7.348601941469485155e+01 2.670000000000000000e+02
4.566429353525523815e+00 7.464447878691049709e+01 2.670000000000000000e+02
3.755274693225924665e+00 7.580293815912612843e+01 2.670000000000000000e+02
2.944120032926325958e+00 7.696139753134175976e+01 2.670000000000000000e+02
2.132965372626726808e+00 7.811985690355739109e+01 2.670000000000000000e+02
9.433357315323117831e+00 6.769372255361668067e+01 2.680000000000000000e+02
8.622202655023517792e+00 6.885218192583231200e+01 2.680000000000000000e+02
7.811047994723919530e+00 7.001064129804795755e+01 2.680000000000000000e+02
6.999893334424321267e+00 7.116910067026358888e+01 2.680000000000000000e+02
6.188738674124722117e+00 7.232756004247922021e+01 2.680000000000000000e+02
5.377584013825122966e+00 7.348601941469485155e+01 2.680000000000000000e+02
4.566429353525523815e+00 7.464447878691049709e+01 2.680000000000000000e+02
3.755274693225924665e+00 7.580293815912612843e+01 2.680000000000000000e+02
2.944120032926325958e+00 7.696139753134175976e+01 2.680000000000000000e+02
2.132965372626726808e+00 7.811985690355739109e+01 2.680000000000000000e+02
9.433357315323117831e+00 6.769372255361668067e+01 2.690000000000000000e+02
8.622202655023517792e+00 6.885218192583231200e+01 2.690000000000000000e+02
7.811047994723919530e+00 7.001064129804795755e+01 2.690000000000000000e+02
6.999893334424321267e+00 7.116910067026358888e+01 2.690000000000000000e+02
6.188738674124722117e+00 7.232756004247922021e+01 2.690000000000000000e+02
5.377584013825122966e+00 7.348601941469485155e+01 2.690000000000000000e+02
4.566429353525523815e+00 7.464447878691049709e+01 2.690000000000000000e+02
3.755274693225924665e+00 7.580293815912612843e+01 2.690000000000000000e+02
2.944120032926325958e+00 7.696139753134175976e+01 2.690000000000000000e+02
2.132965372626726808e+00 7.811985690355739109e+01 2.690000000000000000e+02
9.433357315323117831e+00 6.769372255361668067e+01 2.700000000000000000e+02
8.622202655023517792e+00 6.885218192583231200e+01 2.700000000000000000e+02
7.811047994723919530e+00 7.001064129804795755e+01 2.700000000000000000e+02
6.999893334424321267e+00 7.116910067026358888e+01 2.700000000000000000e+02
6.188738674124722117e+00 7.232756004247922021e+01 2.700000000000000000e+02
5.377584013825122966e+00 7.348601941469485155e+01 2.700000000000000000e+02
4.566429353525523815e+00 7.464447878691049709e+01 2.700000000000000000e+02
3.755274693225924665e+00 7.580293815912612843e+01 2.700000000000000000e+02
2.944120032926325958e+00 7.696139753134175976e+01 2.700000000000000000e+02
2.132965372626726808e+00 7.811985690355739109e+01 2.700000000000000000e+02
9.433357315323117831e+00 6.769372255361668067e+01 2.710000000000000000e+02
8.622202655023517792e+00 6.885218192583231200e+01 2.710000000000000000e+02
7.811047994723919530e+00 7.001064129804795755e+01 2.710000000000000000e+02
6.999893334424321267e+00 7.116910067026358888e+01 2.710000000000000000e+02
6.188738674124722117e+00 7.232756004247922021e+01 2.710000000000000000e+02
5.377584013825122966e+00 7.348601941469485155e+01 2.710000000000000000e+02
4.566429353525523815e+00 7.464447878691049709e+01 2.710000000000000000e+02
3.755274693225924665e+00 7.580293815912612843e+01 2.710000000000000000e+02
2.944120032926325958e+00 7.696139753134175976e+01 2.710000000000000000e+02
2.132965372626726808e+00 7.811985690355739109e+01 2.710000000000000000e+02
9.433357315323117831e+00 6.769372255361668067e+01 2.720000000000000000e+02
8.622202655023517792e+00 6.885218192583231200e+01 2.720000000000000000e+02
7.811047994723919530e+00 7.001064129804795755e+01 2.720000000000000000e+02
6.999893334424321267e+00 7.116910067026358888e+01 2.720000000000000000e+02
6.188738674124722117e+00 7.232756004247922021e+01 2.720000000000000000e+02
5.377584013825122966e+00 7.348601941469485155e+01 2.720000000000000000e+02
4.566429353525523815e+00 7.464447878691049709e+01 2.720000000000000000e+02
3.755274693225924665e+00 7.580293815912612843e+01 2.720000000000000000e+02
2.944120032926325958e+00 7.696139753134175976e+01 2.720000000000000000e+02
2.132965372626726808e+00 7.811985690355739109e+01 2.720000000000000000e+02
9.433357315323117831e+00 6.769372255361668067e+01 2.730000000000000000e+02
8.622202655023517792e+00 6.885218192583231200e+01 2.730000000000000000e+02
7.811047994723919530e+00 7.001064129804795755e+01 2.730000000000000000e+02
6.999893334424321267e+00 7.116910067026358888e+01 2.730000000000000000e+02
6.188738674124722117e+00 7.232756004247922021e+01 2.730000000000000000e+02
5.377584013825122966e+00 7.348601941469485155e+01 2.730000000000000000e+02
4.566429353525523815e+00 7.464447878691049709e+01 2.730000000000000000e+02
3.755274693225924665e+00 7.580293815912612843e+01 2.730000000000000000e+02
2.944120032926325958e+00 7.696139753134175976e+01 2.730000000000000000e+02
2.132965372626726808e+00 7.811985690355739109e+01 2.730000000000000000e+02
9.607009671281135255e+00 6.867852956987429991e+01 2.740000000000000000e+02
8.795855010981536992e+00 6.983698894208993124e+01 2.740000000000000000e+02
7.984700350681937842e+00 7.099544831430557679e+01 2.740000000000000000e+02
7.173545690382338691e+00 7.215390768652120812e+01 2.740000000000000000e+02
6.362391030082739540e+00 7.331236705873683945e+01 2.740000000000000000e+02
5.551236369783140390e+00 7.447082643095247079e+01 2.740000000000000000e+02
4.740081709483541239e+00 7.562928580316810212e+01 2.740000000000000000e+02
3.928927049183942533e+00 7.678774517538374766e+01 2.740000000000000000e+02
3.117772388884343826e+00 7.794620454759937900e+01 2.740000000000000000e+02
9.607009671281135255e+00 6.867852956987429991e+01 2.750000000000000000e+02
8.795855010981536992e+00 6.983698894208993124e+01 2.750000000000000000e+02
7.984700350681937842e+00 7.099544831430557679e+01 2.750000000000000000e+02
7.173545690382338691e+00 7.215390768652120812e+01 2.750000000000000000e+02
6.362391030082739540e+00 7.331236705873683945e+01 2.750000000000000000e+02
5.551236369783140390e+00 7.447082643095247079e+01 2.750000000000000000e+02
4.740081709483541239e+00 7.562928580316810212e+01 2.750000000000000000e+02
3.928927049183942533e+00 7.678774517538374766e+01 2.750000000000000000e+02
3.117772388884343826e+00 7.794620454759937900e+01 2.750000000000000000e+02
9.607009671281135255e+00 6.867852956987429991e+01 2.760000000000000000e+02
8.795855010981536992e+00 6.983698894208993124e+01 2.760000000000000000e+02
7.984700350681937842e+00 7.099544831430557679e+01 2.760000000000000000e+02
7.173545690382338691e+00 7.215390768652120812e+01 2.760000000000000000e+02
6.362391030082739540e+00 7.331236705873683945e+01 2.760000000000000000e+02
5.551236369783140390e+00 7.447082643095247079e+01 2.760000000000000000e+02
4.740081709483541239e+00 7.562928580316810212e+01 2.760000000000000000e+02
3.928927049183942533e+00 7.678774517538374766e+01 2.760000000000000000e+02
3.117772388884343826e+00 7.794620454759937900e+01 2.760000000000000000e+02
9.607009671281135255e+00 6.867852956987429991e+01 2.770000000000000000e+02
8.795855010981536992e+00 6.983698894208993124e+01 2.770000000000000000e+02
7.984700350681937842e+00 7.099544831430557679e+01 2.770000000000000000e+02
7.173545690382338691e+00 7.215390768652120812e+01 2.770000000000000000e+02
6.362391030082739540e+00 7.331236705873683945e+01 2.770000000000000000e+02
5.551236369783140390e+00 7.447082643095247079e+01 2.770000000000000000e+02
4.740081709483541239e+00 7.562928580316810212e+01 2.770000000000000000e+02
3.928927049183942533e+00 7.678774517538374766e+01 2.770000000000000000e+02
3.117772388884343826e+00 7.794620454759937900e+01 2.770000000000000000e+02
2.306617728584744675e+00 7.910466391981501033e+01 2.770000000000000000e+02
9.607009671281135255e+00 6.867852956987429991e+01 2.780000000000000000e+02
8.795855010981536992e+00 6.983698894208993124e+01 2.780000000000000000e+02
7.984700350681937842e+00 7.099544831430557679e+01 2.780000000000000000e+02
7.173545690382338691e+00 7.215390768652120812e+01 2.780000000000000000e+02
6.362391030082739540e+00 7.331236705873683945e+01 2.780000000000000000e+02
5.551236369783140390e+00 7.447082643095247079e+01 2.780000000000000000e+02
4.740081709483541239e+00 7.562928580316810212e+01 2.780000000000000000e+02
3.928927049183942533e+00 7.678774517538374766e+01 2.780000000000000000e+02
3.117772388884343826e+00 7.794620454759937900e+01 2.780000000000000000e+02
2.306617728584744675e+00 7.910466391981501033e+01 2.780000000000000000e+02
9.433357315323117831e+00 6.769372255361668067e+01 2.790000000000000000e+02
8.622202655023517792e+00 6.885218192583231200e+01 2.790000000000000000e+02
7.811047994723919530e+00 7.001064129804795755e+01 2.790000000000000000e+02
6.999893334424321267e+00 7.116910067026358888e+01 2.790000000000000000e+02
6.188738674124722117e+00 7.232756004247922021e+01 2.790000000000000000e+02
5.377584013825122966e+00 7.348601941469485155e+01 2.790000000000000000e+02
4.566429353525523815e+00 7.464447878691049709e+01 2.790000000000000000e+02
3.755274693225924665e+00 7.580293815912612843e+01 2.790000000000000000e+02
2.944120032926325958e+00 7.696139753134175976e+01 2.790000000000000000e+02
2.132965372626726808e+00 7.811985690355739109e+01 2.790000000000000000e+02
1.321810712327128101e+00 7.927831627577302243e+01 2.790000000000000000e+02
9.433357315323117831e+00 6.769372255361668067e+01 2.800000000000000000e+02
8.622202655023517792e+00 6.885218192583231200e+01 2.800000000000000000e+02
7.811047994723919530e+00 7.001064129804795755e+01 2.800000000000000000e+02
6.999893334424321267e+00 7.116910067026358888e+01 2.800000000000000000e+02
6.188738674124722117e+00 7.232756004247922021e+01 2.800000000000000000e+02
5.377584013825122966e+00 7.348601941469485155e+01 2.800000000000000000e+02
4.566429353525523815e+00 7.464447878691049709e+01 2.800000000000000000e+02
3.755274693225924665e+00 7.580293815912612843e+01 2.800000000000000000e+02
2.944120032926325958e+00 7.696139753134175976e+01 2.800000000000000000e+02
2.132965372626726808e+00 7.811985690355739109e+01 2.800000000000000000e+02
9.433357315323117831e+00 6.769372255361668067e+01 2.810000000000000000e+02
8.622202655023517792e+00 6.885218192583231200e+01 2.810000000000000000e+02
7.811047994723919530e+00 7.001064129804795755e+01 2.810000000000000000e+02
6.999893334424321267e+00 7.116910067026358888e+01 2.810000000000000000e+02
6.188738674124722117e+00 7.232756004247922021e+01 2.810000000000000000e+02
5.377584013825122966e+00 7.348601941469485155e+01 2.810000000000000000e+02
4.566429353525523815e+00 7.464447878691049709e+01 2.810000000000000000e+02
3.755274693225924665e+00 7.580293815912612843e+01 2.810000000000000000e+02
2.944120032926325958e+00 7.696139753134175976e+01 2.810000000000000000e+02
2.132965372626726808e+00 7.811985690355739109e+01 2.810000000000000000e+02
9.433357315323117831e+00 6.769372255361668067e+01 2.820000000000000000e+02
8.622202655023517792e+00 6.885218192583231200e+01 2.820000000000000000e+02
7.811047994723919530e+00 7.001064129804795755e+01 2.820000000000000000e+02
6.999893334424321267e+00 7.116910067026358888e+01 2.820000000000000000e+02
6.188738674124722117e+00 7.232756004247922021e+01 2.820000000000000000e+02
5.377584013825122966e+00 7.348601941469485155e+01 2.820000000000000000e+02
4.566429353525523815e+00 7.464447878691049709e+01 2.820000000000000000e+02
3.755274693225924665e+00 7.580293815912612843e+01 2.820000000000000000e+02
2.944120032926325958e+00 7.696139753134175976e+01 2.820000000000000000e+02
2.132965372626726808e+00 7.811985690355739109e+01 2.820000000000000000e+02
9.433357315323117831e+00 6.769372255361668067e+01 2.830000000000000000e+02
8.622202655023517792e+00 6.885218192583231200e+01 2.830000000000000000e+02
7.811047994723919530e+00 7.001064129804795755e+01 2.830000000000000000e+02
6.999893334424321267e+00 7.116910067026358888e+01 2.830000000000000000e+02
6.188738674124722117e+00 7.232756004247922021e+01 2.830000000000000000e+02
5.377584013825122966e+00 7.348601941469485155e+01 2.830000000000000000e+02
4.566429353525523815e+00 7.464447878691049709e+01 2.830000000000000000e+02
3.755274693225924665e+00 7.580293815912612843e+01 2.830000000000000000e+02
2.944120032926325958e+00 7.696139753134175976e+01 2.830000000000000000e+02
2.132965372626726808e+00 7.811985690355739109e+01 2.830000000000000000e+02
9.433357315323117831e+00 6.769372255361668067e+01 2.840000000000000000e+02
8.622202655023517792e+00 6.885218192583231200e+01 2.840000000000000000e+02
7.811047994723919530e+00 7.001064129804795755e+01 2.840000000000000000e+02
6.999893334424321267e+00 7.116910067026358888e+01 2.840000000000000000e+02
6.188738674124722117e+00 7.232756004247922021e+01 2.840000000000000000e+02
5.377584013825122966e+00 7.348601941469485155e+01 2.840000000000000000e+02
4.566429353525523815e+00 7.464447878691049709e+01 2.840000000000000000e+02
3.755274693225924665e+00 7.580293815912612843e+01 2.840000000000000000e+02
2.944120032926325958e+00 7.696139753134175976e+01 2.840000000000000000e+02
2.132965372626726808e+00 7.811985690355739109e+01 2.840000000000000000e+02
9.433357315323117831e+00 6.769372255361668067e+01 2.850000000000000000e+02
8.622202655023517792e+00 6.885218192583231200e+01 2.850000000000000000e+02
7.811047994723919530e+00 7.001064129804795755e+01 2.850000000000000000e+02
6.999893334424321267e+00 7.116910067026358888e+01 2.850000000000000000e+02
6.188738674124722117e+00 7.232756004247922021e+01 2.850000000000000000e+02
5.377584013825122966e+00 7.348601941469485155e+01 2.850000000000000000e+02
4.566429353525523815e+00 7.464447878691049709e+01 2.850000000000000000e+02
3.755274693225924665e+00 7.580293815912612843e+01 2.850000000000000000e+02
2.944120032926325958e+00 7.696139753134175976e+01 2.850000000000000000e+02
2.132965372626726808e+00 7.811985690355739109e+01 2.850000000000000000e+02
1.321810712327128101e+00 7.927831627577302243e+01 2.850000000000000000e+02
9.433357315323117831e+00 6.769372255361668067e+01 2.860000000000000000e+02
8.622202655023517792e+00 6.885218192583231200e+01 2.860000000000000000e+02
7.811047994723919530e+00 7.001064129804795755e+01 2.860000000000000000e+02
6.999893334424321267e+00 7.116910067026358888e+01 2.860000000000000000e+02
6.188738674124722117e+00 7.232756004247922021e+01 2.860000000000000000e+02
5.377584013825122966e+00 7.348601941469485155e+01 2.860000000000000000e+02
4.566429353525523815e+00 7.464447878691049709e+01 2.860000000000000000e+02
3.755274693225924665e+00 7.580293815912612843e+01 2.860000000000000000e+02
2.944120032926325958e+00 7.696139753134175976e+01 2.860000000000000000e+02
2.132965372626726808e+00 7.811985690355739109e+01 2.860000000000000000e+02
1.321810712327128101e+00 7.927831627577302243e+01 2.860000000000000000e+02
9.433357315323117831e+00 6.769372255361668067e+01 2.870000000000000000e+02
8.622202655023517792e+00 6.885218192583231200e+01 2.870000000000000000e+02
7.811047994723919530e+00 7.001064129804795755e+01 2.870000000000000000e+02
6.999893334424321267e+00 7.116910067026358888e+01 2.870000000000000000e+02
6.188738674124722117e+00 7.232756004247922021e+01 2.870000000000000000e+02
5.377584013825122966e+00 7.348601941469485155e+01 2.870000000000000000e+02
4.566429353525523815e+00 7.464447878691049709e+01 2.870000000000000000e+02
3.755274693225924665e+00 7.580293815912612843e+01 2.870000000000000000e+02
2.944120032926325958e+00 7.696139753134175976e+01 2.870000000000000000e+02
2.132965372626726808e+00 7.811985690355739109e+01 2.870000000000000000e+02
1.321810712327128101e+00 7.927831627577302243e+01 2.870000000000000000e+02
9.433357315323117831e+00 6.769372255361668067e+01 2.880000000000000000e+02
8.622202655023517792e+00 6.885218192583231200e+01 2.880000000000000000e+02
7.811047994723919530e+00 7.001064129804795755e+01 2.880000000000000000e+02
6.999893334424321267e+00 7.116910067026358888e+01 2.880000000000000000e+02
6.188738674124722117e+00 7.232756004247922021e+01 2.880000000000000000e+02
5.377584013825122966e+00 7.348601941469485155e+01 2.880000000000000000e+02
4.566429353525523815e+00 7.464447878691049709e+01 2.880000000000000000e+02
3.755274693225924665e+00 7.580293815912612843e+01 2.880000000000000000e+02
2.944120032926325958e+00 7.696139753134175976e+01 2.880000000000000000e+02
2.132965372626726808e+00 7.811985690355739109e+01 2.880000000000000000e+02
1.321810712327128101e+00 7.927831627577302243e+01 2.880000000000000000e+02
9.433357315323117831e+00 6.769372255361668067e+01 2.890000000000000000e+02
8.622202655023517792e+00 6.885218192583231200e+01 2.890000000000000000e+02
7.811047994723919530e+00 7.001064129804795755e+01 2.890000000000000000e+02
6.999893334424321267e+00 7.116910067026358888e+01 2.890000000000000000e+02
6.188738674124722117e+00 7.232756004247922021e+01 2.890000000000000000e+02
5.377584013825122966e+00 7.348601941469485155e+01 2.890000000000000000e+02
4.566429353525523815e+00 7.464447878691049709e+01 2.890000000000000000e+02
3.755274693225924665e+00 7.580293815912612843e+01 2.890000000000000000e+02
2.944120032926325958e+00 7.696139753134175976e+01 2.890000000000000000e+02
2.132965372626726808e+00 7.811985690355739109e+01 2.890000000000000000e+02
1.321810712327128101e+00 7.927831627577302243e+01 2.890000000000000000e+02
9.433357315323117831e+00 6.769372255361668067e+01 2.900000000000000000e+02
8.622202655023517792e+00 6.885218192583231200e+01 2.900000000000000000e+02
7.811047994723919530e+00 7.001064129804795755e+01 2.900000000000000000e+02
6.999893334424321267e+00 7.116910067026358888e+01 2.900000000000000000e+02
6.188738674124722117e+00 7.232756004247922021e+01 2.900000000000000000e+02
5.377584013825122966e+00 7.348601941469485155e+01 2.900000000000000000e+02
4.566429353525523815e+00 7.464447878691049709e+01 2.900000000000000000e+02
3.755274693225924665e+00 7.580293815912612843e+01 2.900000000000000000e+02
2.944120032926325958e+00 7.696139753134175976e+01 2.900000000000000000e+02
2.132965372626726808e+00 7.811985690355739109e+01 2.900000000000000000e+02
9.607009671281135255e+00 6.867852956987429991e+01 2.910000000000000000e+02
8.795855010981536992e+00 6.983698894208993124e+01 2.910000000000000000e+02
7.984700350681937842e+00 7.099544831430557679e+01 2.910000000000000000e+02
7.173545690382338691e+00 7.215390768652120812e+01 2.910000000000000000e+02
6.362391030082739540e+00 7.331236705873683945e+01 2.910000000000000000e+02
5.551236369783140390e+00 7.447082643095247079e+01 2.910000000000000000e+02
4.740081709483541239e+00 7.562928580316810212e+01 2.910000000000000000e+02
3.928927049183942533e+00 7.678774517538374766e+01 2.910000000000000000e+02
3.117772388884343826e+00 7.794620454759937900e+01 2.910000000000000000e+02
9.607009671281135255e+00 6.867852956987429991e+01 2.920000000000000000e+02
8.795855010981536992e+00 6.983698894208993124e+01 2.920000000000000000e+02
7.984700350681937842e+00 7.099544831430557679e+01 2.920000000000000000e+02
7.173545690382338691e+00 7.215390768652120812e+01 2.920000000000000000e+02
6.362391030082739540e+00 7.331236705873683945e+01 2.920000000000000000e+02
5.551236369783140390e+00 7.447082643095247079e+01 2.920000000000000000e+02
4.740081709483541239e+00 7.562928580316810212e+01 2.920000000000000000e+02
3.928927049183942533e+00 7.678774517538374766e+01 2.920000000000000000e+02
3.117772388884343826e+00 7.794620454759937900e+01 2.920000000000000000e+02
9.607009671281135255e+00 6.867852956987429991e+01 2.930000000000000000e+02
8.795855010981536992e+00 6.983698894208993124e+01 2.930000000000000000e+02
7.984700350681937842e+00 7.099544831430557679e+01 2.930000000000000000e+02
7.173545690382338691e+00 7.215390768652120812e+01 2.930000000000000000e+02
6.362391030082739540e+00 7.331236705873683945e+01 2.930000000000000000e+02
5.551236369783140390e+00 7.447082643095247079e+01 2.930000000000000000e+02
4.740081709483541239e+00 7.562928580316810212e+01 2.930000000000000000e+02
3.928927049183942533e+00 7.678774517538374766e+01 2.930000000000000000e+02
3.117772388884343826e+00 7.794620454759937900e+01 2.930000000000000000e+02
9.433357315323117831e+00 6.769372255361668067e+01 2.940000000000000000e+02
8.622202655023517792e+00 6.885218192583231200e+01 2.940000000000000000e+02
7.811047994723919530e+00 7.001064129804795755e+01 2.940000000000000000e+02
6.999893334424321267e+00 7.116910067026358888e+01 2.940000000000000000e+02
6.188738674124722117e+00 7.232756004247922021e+01 2.940000000000000000e+02
5.377584013825122966e+00 7.348601941469485155e+01 2.940000000000000000e+02
4.566429353525523815e+00 7.464447878691049709e+01 2.940000000000000000e+02
3.755274693225924665e+00 7.580293815912612843e+01 2.940000000000000000e+02
2.944120032926325958e+00 7.696139753134175976e+01 2.940000000000000000e+02
2.132965372626726808e+00 7.811985690355739109e+01 2.940000000000000000e+02
9.433357315323117831e+00 6.769372255361668067e+01 2.950000000000000000e+02
8.622202655023517792e+00 6.885218192583231200e+01 2.950000000000000000e+02
7.811047994723919530e+00 7.001064129804795755e+01 2.950000000000000000e+02
6.999893334424321267e+00 7.116910067026358888e+01 2.950000000000000000e+02
6.188738674124722117e+00 7.232756004247922021e+01 2.950000000000000000e+02
5.377584013825122966e+00 7.348601941469485155e+01 2.950000000000000000e+02
4.566429353525523815e+00 7.464447878691049709e+01 2.950000000000000000e+02
3.755274693225924665e+00 7.580293815912612843e+01 2.950000000000000000e+02
2.944120032926325958e+00 7.696139753134175976e+01 2.950000000000000000e+02
2.132965372626726808e+00 7.811985690355739109e+01 2.950000000000000000e+02
9.433357315323117831e+00 6.769372255361668067e+01 2.960000000000000000e+02
8.622202655023517792e+00 6.885218192583231200e+01 2.960000000000000000e+02
7.811047994723919530e+00 7.001064129804795755e+01 2.960000000000000000e+02
6.999893334424321267e+00 7.116910067026358888e+01 2.960000000000000000e+02
6.188738674124722117e+00 7.232756004247922021e+01 2.960000000000000000e+02
5.377584013825122966e+00 7.348601941469485155e+01 2.960000000000000000e+02
4.566429353525523815e+00 7.464447878691049709e+01 2.960000000000000000e+02
3.755274693225924665e+00 7.580293815912612843e+01 2.960000000000000000e+02
2.944120032926325958e+00 7.696139753134175976e+01 2.960000000000000000e+02
2.132965372626726808e+00 7.811985690355739109e+01 2.960000000000000000e+02
9.433357315323117831e+00 6.769372255361668067e+01 2.970000000000000000e+02
8.622202655023517792e+00 6.885218192583231200e+01 2.970000000000000000e+02
7.811047994723919530e+00 7.001064129804795755e+01 2.970000000000000000e+02
6.999893334424321267e+00 7.116910067026358888e+01 2.970000000000000000e+02
6.188738674124722117e+00 7.232756004247922021e+01 2.970000000000000000e+02
5.377584013825122966e+00 7.348601941469485155e+01 2.970000000000000000e+02
4.566429353525523815e+00 7.464447878691049709e+01 2.970000000000000000e+02
3.755274693225924665e+00 7.580293815912612843e+01 2.970000000000000000e+02
2.944120032926325958e+00 7.696139753134175976e+01 2.970000000000000000e+02
2.132965372626726808e+00 7.811985690355739109e+01 2.970000000000000000e+02
1.321810712327128101e+00 7.927831627577302243e+01 2.970000000000000000e+02
9.433357315323117831e+00 6.769372255361668067e+01 2.980000000000000000e+02
8.622202655023517792e+00 6.885218192583231200e+01 2.980000000000000000e+02
7.811047994723919530e+00 7.001064129804795755e+01 2.980000000000000000e+02
6.999893334424321267e+00 7.116910067026358888e+01 2.980000000000000000e+02
6.188738674124722117e+00 7.232756004247922021e+01 2.980000000000000000e+02
5.377584013825122966e+00 7.348601941469485155e+01 2.980000000000000000e+02
4.566429353525523815e+00 7.464447878691049709e+01 2.980000000000000000e+02
3.755274693225924665e+00 7.580293815912612843e+01 2.980000000000000000e+02
2.944120032926325958e+00 7.696139753134175976e+01 2.980000000000000000e+02
2.132965372626726808e+00 7.811985690355739109e+01 2.980000000000000000e+02
1.321810712327128101e+00 7.927831627577302243e+01 2.980000000000000000e+02
9.433357315323117831e+00 6.769372255361668067e+01 2.990000000000000000e+02
8.622202655023517792e+00 6.885218192583231200e+01 2.990000000000000000e+02
7.811047994723919530e+00 7.001064129804795755e+01 2.990000000000000000e+02
6.999893334424321267e+00 7.116910067026358888e+01 2.990000000000000000e+02
6.188738674124722117e+00 7.232756004247922021e+01 2.990000000000000000e+02
5.377584013825122966e+00 7.348601941469485155e+01 2.990000000000000000e+02
4.566429353525523815e+00 7.464447878691049709e+01 2.990000000000000000e+02
3.755274693225924665e+00 7.580293815912612843e+01 2.990000000000000000e+02
2.944120032926325958e+00 7.696139753134175976e+01 2.990000000000000000e+02
2.132965372626726808e+00 7.811985690355739109e+01 2.990000000000000000e+02
1.321810712327128101e+00 7.927831627577302243e+01 2.990000000000000000e+02
9.433357315323117831e+00 6.769372255361668067e+01 3.000000000000000000e+02
8.622202655023517792e+00 6.885218192583231200e+01 3.000000000000000000e+02
7.811047994723919530e+00 7.001064129804795755e+01 3.000000000000000000e+02
6.999893334424321267e+00 7.116910067026358888e+01 3.000000000000000000e+02
6.188738674124722117e+00 7.232756004247922021e+01 3.000000000000000000e+02
5.377584013825122966e+00 7.348601941469485155e+01 3.000000000000000000e+02
4.566429353525523815e+00 7.464447878691049709e+01 3.000000000000000000e+02
3.755274693225924665e+00 7.580293815912612843e+01 3.000000000000000000e+02
2.944120032926325958e+00 7.696139753134175976e+01 3.000000000000000000e+02
2.132965372626726808e+00 7.811985690355739109e+01 3.000000000000000000e+02
1.321810712327128101e+00 7.927831627577302243e+01 3.000000000000000000e+02
9.607009671281135255e+00 6.867852956987429991e+01 3.010000000000000000e+02
8.795855010981536992e+00 6.983698894208993124e+01 3.010000000000000000e+02
7.984700350681937842e+00 7.099544831430557679e+01 3.010000000000000000e+02
7.173545690382338691e+00 7.215390768652120812e+01 3.010000000000000000e+02
6.362391030082739540e+00 7.331236705873683945e+01 3.010000000000000000e+02
5.551236369783140390e+00 7.447082643095247079e+01 3.010000000000000000e+02
4.740081709483541239e+00 7.562928580316810212e+01 3.010000000000000000e+02
3.928927049183942533e+00 7.678774517538374766e+01 3.010000000000000000e+02
3.117772388884343826e+00 7.794620454759937900e+01 3.010000000000000000e+02
2.306617728584744675e+00 7.910466391981501033e+01 3.010000000000000000e+02
9.433357315323117831e+00 6.769372255361668067e+01 3.020000000000000000e+02
8.622202655023517792e+00 6.885218192583231200e+01 3.020000000000000000e+02
7.811047994723919530e+00 7.001064129804795755e+01 3.020000000000000000e+02
6.999893334424321267e+00 7.116910067026358888e+01 3.020000000000000000e+02
6.188738674124722117e+00 7.232756004247922021e+01 3.020000000000000000e+02
5.377584013825122966e+00 7.348601941469485155e+01 3.020000000000000000e+02
4.566429353525523815e+00 7.464447878691049709e+01 3.020000000000000000e+02
3.755274693225924665e+00 7.580293815912612843e+01 3.020000000000000000e+02
2.944120032926325958e+00 7.696139753134175976e+01 3.020000000000000000e+02
2.132965372626726808e+00 7.811985690355739109e+01 3.020000000000000000e+02
1.321810712327128101e+00 7.927831627577302243e+01 3.020000000000000000e+02
9.433357315323117831e+00 6.769372255361668067e+01 3.030000000000000000e+02
8.622202655023517792e+00 6.885218192583231200e+01 3.030000000000000000e+02
7.811047994723919530e+00 7.001064129804795755e+01 3.030000000000000000e+02
6.999893334424321267e+00 7.116910067026358888e+01 3.030000000000000000e+02
6.188738674124722117e+00 7.232756004247922021e+01 3.030000000000000000e+02
5.377584013825122966e+00 7.348601941469485155e+01 3.030000000000000000e+02
4.566429353525523815e+00 7.464447878691049709e+01 3.030000000000000000e+02
3.755274693225924665e+00 7.580293815912612843e+01 3.030000000000000000e+02
2.944120032926325958e+00 7.696139753134175976e+01 3.030000000000000000e+02
2.132965372626726808e+00 7.811985690355739109e+01 3.030000000000000000e+02
1.321810712327128101e+00 7.927831627577302243e+01 3.030000000000000000e+02
9.433357315323117831e+00 6.769372255361668067e+01 3.040000000000000000e+02
8.622202655023517792e+00 6.885218192583231200e+01 3.040000000000000000e+02
7.811047994723919530e+00 7.001064129804795755e+01 3.040000000000000000e+02
6.999893334424321267e+00 7.116910067026358888e+01 3.040000000000000000e+02
6.188738674124722117e+00 7.232756004247922021e+01 3.040000000000000000e+02
5.377584013825122966e+00 7.348601941469485155e+01 3.040000000000000000e+02
4.566429353525523815e+00 7.464447878691049709e+01 3.040000000000000000e+02
3.755274693225924665e+00 7.580293815912612843e+01 3.040000000000000000e+02
2.944120032926325958e+00 7.696139753134175976e+01 3.040000000000000000e+02
2.132965372626726808e+00 7.811985690355739109e+01 3.040000000000000000e+02
9.433357315323117831e+00 6.769372255361668067e+01 3.050000000000000000e+02
8.622202655023517792e+00 6.885218192583231200e+01 3.050000000000000000e+02
7.811047994723919530e+00 7.001064129804795755e+01 3.050000000000000000e+02
6.999893334424321267e+00 7.116910067026358888e+01 3.050000000000000000e+02
6.188738674124722117e+00 7.232756004247922021e+01 3.050000000000000000e+02
5.377584013825122966e+00 7.348601941469485155e+01 3.050000000000000000e+02
4.566429353525523815e+00 7.464447878691049709e+01 3.050000000000000000e+02
3.755274693225924665e+00 7.580293815912612843e+01 3.050000000000000000e+02
2.944120032926325958e+00 7.696139753134175976e+01 3.050000000000000000e+02
2.132965372626726808e+00 7.811985690355739109e+01 3.050000000000000000e+02
1.321810712327128101e+00 7.927831627577302243e+01 3.050000000000000000e+02
9.607009671281135255e+00 6.867852956987429991e+01 3.060000000000000000e+02
8.795855010981536992e+00 6.983698894208993124e+01 3.060000000000000000e+02
7.984700350681937842e+00 7.099544831430557679e+01 3.060000000000000000e+02
7.173545690382338691e+00 7.215390768652120812e+01 3.060000000000000000e+02
6.362391030082739540e+00 7.331236705873683945e+01 3.060000000000000000e+02
5.551236369783140390e+00 7.447082643095247079e+01 3.060000000000000000e+02
4.740081709483541239e+00 7.562928580316810212e+01 3.060000000000000000e+02
3.928927049183942533e+00 7.678774517538374766e+01 3.060000000000000000e+02
3.117772388884343826e+00 7.794620454759937900e+01 3.060000000000000000e+02
2.306617728584744675e+00 7.910466391981501033e+01 3.060000000000000000e+02
9.607009671281135255e+00 6.867852956987429991e+01 3.070000000000000000e+02
8.795855010981536992e+00 6.983698894208993124e+01 3.070000000000000000e+02
7.984700350681937842e+00 7.099544831430557679e+01 3.070000000000000000e+02
7.173545690382338691e+00 7.215390768652120812e+01 3.070000000000000000e+02
6.362391030082739540e+00 7.331236705873683945e+01 3.070000000000000000e+02
5.551236369783140390e+00 7.447082643095247079e+01 3.070000000000000000e+02
4.740081709483541239e+00 7.562928580316810212e+01 3.070000000000000000e+02
3.928927049183942533e+00 7.678774517538374766e+01 3.070000000000000000e+02
3.117772388884343826e+00 7.794620454759937900e+01 3.070000000000000000e+02
2.306617728584744675e+00 7.910466391981501033e+01 3.070000000000000000e+02
9.607009671281135255e+00 6.867852956987429991e+01 3.080000000000000000e+02
8.795855010981536992e+00 6.983698894208993124e+01 3.080000000000000000e+02
7.984700350681937842e+00 7.099544831430557679e+01 3.080000000000000000e+02
7.173545690382338691e+00 7.215390768652120812e+01 3.080000000000000000e+02
6.362391030082739540e+00 7.331236705873683945e+01 3.080000000000000000e+02
5.551236369783140390e+00 7.447082643095247079e+01 3.080000000000000000e+02
4.740081709483541239e+00 7.562928580316810212e+01 3.080000000000000000e+02
3.928927049183942533e+00 7.678774517538374766e+01 3.080000000000000000e+02
3.117772388884343826e+00 7.794620454759937900e+01 3.080000000000000000e+02
9.607009671281135255e+00 6.867852956987429991e+01 3.090000000000000000e+02
8.795855010981536992e+00 6.983698894208993124e+01 3.090000000000000000e+02
7.984700350681937842e+00 7.099544831430557679e+01 3.090000000000000000e+02
7.173545690382338691e+00 7.215390768652120812e+01 3.090000000000000000e+02
6.362391030082739540e+00 7.331236705873683945e+01 3.090000000000000000e+02
5.551236369783140390e+00 7.447082643095247079e+01 3.090000000000000000e+02
4.740081709483541239e+00 7.562928580316810212e+01 3.090000000000000000e+02
3.928927049183942533e+00 7.678774517538374766e+01 3.090000000000000000e+02
3.117772388884343826e+00 7.794620454759937900e+01 3.090000000000000000e+02
9.607009671281135255e+00 6.867852956987429991e+01 3.100000000000000000e+02
8.795855010981536992e+00 6.983698894208993124e+01 3.100000000000000000e+02
7.984700350681937842e+00 7.099544831430557679e+01 3.100000000000000000e+02
7.173545690382338691e+00 7.215390768652120812e+01 3.100000000000000000e+02
6.362391030082739540e+00 7.331236705873683945e+01 3.100000000000000000e+02
5.551236369783140390e+00 7.447082643095247079e+01 3.100000000000000000e+02
4.740081709483541239e+00 7.562928580316810212e+01 3.100000000000000000e+02
3.928927049183942533e+00 7.678774517538374766e+01 3.100000000000000000e+02
3.117772388884343826e+00 7.794620454759937900e+01 3.100000000000000000e+02
9.607009671281135255e+00 6.867852956987429991e+01 3.110000000000000000e+02
8.795855010981536992e+00 6.983698894208993124e+01 3.110000000000000000e+02
7.984700350681937842e+00 7.099544831430557679e+01 3.110000000000000000e+02
7.173545690382338691e+00 7.215390768652120812e+01 3.110000000000000000e+02
6.362391030082739540e+00 7.331236705873683945e+01 3.110000000000000000e+02
5.551236369783140390e+00 7.447082643095247079e+01 3.110000000000000000e+02
4.740081709483541239e+00 7.562928580316810212e+01 3.110000000000000000e+02
3.928927049183942533e+00 7.678774517538374766e+01 3.110000000000000000e+02
3.117772388884343826e+00 7.794620454759937900e+01 3.110000000000000000e+02
9.607009671281135255e+00 6.867852956987429991e+01 3.120000000000000000e+02
8.795855010981536992e+00 6.983698894208993124e+01 3.120000000000000000e+02
7.984700350681937842e+00 7.099544831430557679e+01 3.120000000000000000e+02
7.173545690382338691e+00 7.215390768652120812e+01 3.120000000000000000e+02
6.362391030082739540e+00 7.331236705873683945e+01 3.120000000000000000e+02
5.551236369783140390e+00 7.447082643095247079e+01 3.120000000000000000e+02
4.740081709483541239e+00 7.562928580316810212e+01 3.120000000000000000e+02
3.928927049183942533e+00 7.678774517538374766e+01 3.120000000000000000e+02
3.117772388884343826e+00 7.794620454759937900e+01 3.120000000000000000e+02
9.433357315323117831e+00 6.769372255361668067e+01 3.130000000000000000e+02
8.622202655023517792e+00 6.885218192583231200e+01 3.130000000000000000e+02
7.811047994723919530e+00 7.001064129804795755e+01 3.130000000000000000e+02
6.999893334424321267e+00 7.116910067026358888e+01 3.130000000000000000e+02
6.188738674124722117e+00 7.232756004247922021e+01 3.130000000000000000e+02
5.377584013825122966e+00 7.348601941469485155e+01 3.130000000000000000e+02
4.566429353525523815e+00 7.464447878691049709e+01 3.130000000000000000e+02
3.755274693225924665e+00 7.580293815912612843e+01 3.130000000000000000e+02
2.944120032926325958e+00 7.696139753134175976e+01 3.130000000000000000e+02
2.132965372626726808e+00 7.811985690355739109e+01 3.130000000000000000e+02
9.433357315323117831e+00 6.769372255361668067e+01 3.140000000000000000e+02
8.622202655023517792e+00 6.885218192583231200e+01 3.140000000000000000e+02
7.811047994723919530e+00 7.001064129804795755e+01 3.140000000000000000e+02
6.999893334424321267e+00 7.116910067026358888e+01 3.140000000000000000e+02
6.188738674124722117e+00 7.232756004247922021e+01 3.140000000000000000e+02
5.377584013825122966e+00 7.348601941469485155e+01 3.140000000000000000e+02
4.566429353525523815e+00 7.464447878691049709e+01 3.140000000000000000e+02
3.755274693225924665e+00 7.580293815912612843e+01 3.140000000000000000e+02
2.944120032926325958e+00 7.696139753134175976e+01 3.140000000000000000e+02
2.132965372626726808e+00 7.811985690355739109e+01 3.140000000000000000e+02
9.433357315323117831e+00 6.769372255361668067e+01 3.150000000000000000e+02
8.622202655023517792e+00 6.885218192583231200e+01 3.150000000000000000e+02
7.811047994723919530e+00 7.001064129804795755e+01 3.150000000000000000e+02
6.999893334424321267e+00 7.116910067026358888e+01 3.150000000000000000e+02
6.188738674124722117e+00 7.232756004247922021e+01 3.150000000000000000e+02
5.377584013825122966e+00 7.348601941469485155e+01 3.150000000000000000e+02
4.566429353525523815e+00 7.464447878691049709e+01 3.150000000000000000e+02
3.755274693225924665e+00 7.580293815912612843e+01 3.150000000000000000e+02
2.944120032926325958e+00 7.696139753134175976e+01 3.150000000000000000e+02
2.132965372626726808e+00 7.811985690355739109e+01 3.150000000000000000e+02
9.607009671281135255e+00 6.867852956987429991e+01 3.160000000000000000e+02
8.795855010981536992e+00 6.983698894208993124e+01 3.160000000000000000e+02
7.984700350681937842e+00 7.099544831430557679e+01 3.160000000000000000e+02
7.173545690382338691e+00 7.215390768652120812e+01 3.160000000000000000e+02
6.362391030082739540e+00 7.331236705873683945e+01 3.160000000000000000e+02
5.551236369783140390e+00 7.447082643095247079e+01 3.160000000000000000e+02
4.740081709483541239e+00 7.562928580316810212e+01 3.160000000000000000e+02
3.928927049183942533e+00 7.678774517538374766e+01 3.160000000000000000e+02
3.117772388884343826e+00 7.794620454759937900e+01 3.160000000000000000e+02
2.306617728584744675e+00 7.910466391981501033e+01 3.160000000000000000e+02
9.607009671281135255e+00 6.867852956987429991e+01 3.170000000000000000e+02
8.795855010981536992e+00 6.983698894208993124e+01 3.170000000000000000e+02
7.984700350681937842e+00 7.099544831430557679e+01 3.170000000000000000e+02
7.173545690382338691e+00 7.215390768652120812e+01 3.170000000000000000e+02
6.362391030082739540e+00 7.331236705873683945e+01 3.170000000000000000e+02
5.551236369783140390e+00 7.447082643095247079e+01 3.170000000000000000e+02
4.740081709483541239e+00 7.562928580316810212e+01 3.170000000000000000e+02
3.928927049183942533e+00 7.678774517538374766e+01 3.170000000000000000e+02
3.117772388884343826e+00 7.794620454759937900e+01 3.170000000000000000e+02
2.306617728584744675e+00 7.910466391981501033e+01 3.170000000000000000e+02
9.607009671281135255e+00 6.867852956987429991e+01 3.180000000000000000e+02
8.795855010981536992e+00 6.983698894208993124e+01 3.180000000000000000e+02
7.984700350681937842e+00 7.099544831430557679e+01 3.180000000000000000e+02
7.173545690382338691e+00 7.215390768652120812e+01 3.180000000000000000e+02
6.362391030082739540e+00 7.331236705873683945e+01 3.180000000000000000e+02
5.551236369783140390e+00 7.447082643095247079e+01 3.180000000000000000e+02
4.740081709483541239e+00 7.562928580316810212e+01 3.180000000000000000e+02
3.928927049183942533e+00 7.678774517538374766e+01 3.180000000000000000e+02
3.117772388884343826e+00 7.794620454759937900e+01 3.180000000000000000e+02
9.607009671281135255e+00 6.867852956987429991e+01 3.190000000000000000e+02
8.795855010981536992e+00 6.983698894208993124e+01 3.190000000000000000e+02
7.984700350681937842e+00 7.099544831430557679e+01 3.190000000000000000e+02
7.173545690382338691e+00 7.215390768652120812e+01 3.190000000000000000e+02
6.362391030082739540e+00 7.331236705873683945e+01 3.190000000000000000e+02
5.551236369783140390e+00 7.447082643095247079e+01 3.190000000000000000e+02
4.740081709483541239e+00 7.562928580316810212e+01 3.190000000000000000e+02
3.928927049183942533e+00 7.678774517538374766e+01 3.190000000000000000e+02
3.117772388884343826e+00 7.794620454759937900e+01 3.190000000000000000e+02
9.433357315323117831e+00 6.769372255361668067e+01 3.200000000000000000e+02
8.622202655023517792e+00 6.885218192583231200e+01 3.200000000000000000e+02
7.811047994723919530e+00 7.001064129804795755e+01 3.200000000000000000e+02
6.999893334424321267e+00 7.116910067026358888e+01 3.200000000000000000e+02
6.188738674124722117e+00 7.232756004247922021e+01 3.200000000000000000e+02
5.377584013825122966e+00 7.348601941469485155e+01 3.200000000000000000e+02
4.566429353525523815e+00 7.464447878691049709e+01 3.200000000000000000e+02
3.755274693225924665e+00 7.580293815912612843e+01 3.200000000000000000e+02
2.944120032926325958e+00 7.696139753134175976e+01 3.200000000000000000e+02
2.132965372626726808e+00 7.811985690355739109e+01 3.200000000000000000e+02
9.433357315323117831e+00 6.769372255361668067e+01 3.210000000000000000e+02
8.622202655023517792e+00 6.885218192583231200e+01 3.210000000000000000e+02
7.811047994723919530e+00 7.001064129804795755e+01 3.210000000000000000e+02
6.999893334424321267e+00 7.116910067026358888e+01 3.210000000000000000e+02
6.188738674124722117e+00 7.232756004247922021e+01 3.210000000000000000e+02
5.377584013825122966e+00 7.348601941469485155e+01 3.210000000000000000e+02
4.566429353525523815e+00 7.464447878691049709e+01 3.210000000000000000e+02
3.755274693225924665e+00 7.580293815912612843e+01 3.210000000000000000e+02
2.944120032926325958e+00 7.696139753134175976e+01 3.210000000000000000e+02
2.132965372626726808e+00 7.811985690355739109e+01 3.210000000000000000e+02
9.433357315323117831e+00 6.769372255361668067e+01 3.220000000000000000e+02
8.622202655023517792e+00 6.885218192583231200e+01 3.220000000000000000e+02
7.811047994723919530e+00 7.001064129804795755e+01 3.220000000000000000e+02
6.999893334424321267e+00 7.116910067026358888e+01 3.220000000000000000e+02
6.188738674124722117e+00 7.232756004247922021e+01 3.220000000000000000e+02
5.377584013825122966e+00 7.348601941469485155e+01 3.220000000000000000e+02
4.566429353525523815e+00 7.464447878691049709e+01 3.220000000000000000e+02
3.755274693225924665e+00 7.580293815912612843e+01 3.220000000000000000e+02
2.944120032926325958e+00 7.696139753134175976e+01 3.220000000000000000e+02
2.132965372626726808e+00 7.811985690355739109e+01 3.220000000000000000e+02
9.433357315323117831e+00 6.769372255361668067e+01 3.230000000000000000e+02
8.622202655023517792e+00 6.885218192583231200e+01 3.230000000000000000e+02
7.811047994723919530e+00 7.001064129804795755e+01 3.230000000000000000e+02
6.999893334424321267e+00 7.116910067026358888e+01 3.230000000000000000e+02
6.188738674124722117e+00 7.232756004247922021e+01 3.230000000000000000e+02
5.377584013825122966e+00 7.348601941469485155e+01 3.230000000000000000e+02
4.566429353525523815e+00 7.464447878691049709e+01 3.230000000000000000e+02
3.755274693225924665e+00 7.580293815912612843e+01 3.230000000000000000e+02
2.944120032926325958e+00 7.696139753134175976e+01 3.230000000000000000e+02
2.132965372626726808e+00 7.811985690355739109e+01 3.230000000000000000e+02
9.433357315323117831e+00 6.769372255361668067e+01 3.240000000000000000e+02
8.622202655023517792e+00 6.885218192583231200e+01 3.240000000000000000e+02
7.811047994723919530e+00 7.001064129804795755e+01 3.240000000000000000e+02
6.999893334424321267e+00 7.116910067026358888e+01 3.240000000000000000e+02
6.188738674124722117e+00 7.232756004247922021e+01 3.240000000000000000e+02
5.377584013825122966e+00 7.348601941469485155e+01 3.240000000000000000e+02
4.566429353525523815e+00 7.464447878691049709e+01 3.240000000000000000e+02
3.755274693225924665e+00 7.580293815912612843e+01 3.240000000000000000e+02
2.944120032926325958e+00 7.696139753134175976e+01 3.240000000000000000e+02
2.132965372626726808e+00 7.811985690355739109e+01 3.240000000000000000e+02
