1.161141740793707910e+01 7.782134688420383384e+01 2.280000000000000000e+02
1.216399275318919493e+01 7.651955562297203528e+01 2.280000000000000000e+02
1.271656809844131253e+01 7.521776436174022251e+01 2.280000000000000000e+02
1.326914344369343013e+01 7.391597310050840974e+01 2.280000000000000000e+02
1.382171878894554595e+01 7.261418183927659697e+01 2.280000000000000000e+02
1.437429413419766355e+01 7.131239057804479842e+01 2.280000000000000000e+02
8.848540681676496433e+00 8.433030319036288347e+01 2.290000000000000000e+02
9.401116026928612257e+00 8.302851192913107070e+01 2.290000000000000000e+02
9.953691372180729857e+00 8.172672066789925793e+01 2.290000000000000000e+02
1.050626671743284568e+01 8.042492940666745938e+01 2.290000000000000000e+02
1.105884206268496328e+01 7.912313814543564661e+01 2.290000000000000000e+02
1.161141740793707910e+01 7.782134688420383384e+01 2.290000000000000000e+02
1.216399275318919493e+01 7.651955562297203528e+01 2.290000000000000000e+02
1.271656809844131253e+01 7.521776436174022251e+01 2.290000000000000000e+02
1.326914344369343013e+01 7.391597310050840974e+01 2.290000000000000000e+02
1.382171878894554595e+01 7.261418183927659697e+01 2.290000000000000000e+02
1.437429413419766355e+01 7.131239057804479842e+01 2.290000000000000000e+02
8.848540681676496433e+00 8.433030319036288347e+01 2.300000000000000000e+02
9.401116026928612257e+00 8.302851192913107070e+01 2.300000000000000000e+02
9.953691372180729857e+00 8.172672066789925793e+01 2.300000000000000000e+02
1.050626671743284568e+01 8.042492940666745938e+01 2.300000000000000000e+02
1.105884206268496328e+01 7.912313814543564661e+01 2.300000000000000000e+02
1.161141740793707910e+01 7.782134688420383384e+01 2.300000000000000000e+02
1.216399275318919493e+01 7.651955562297203528e+01 2.300000000000000000e+02
1.271656809844131253e+01 7.521776436174022251e+01 2.300000000000000000e+02
1.326914344369343013e+01 7.391597310050840974e+01 2.300000000000000000e+02
1.382171878894554595e+01 7.261418183927659697e+01 2.300000000000000000e+02
1.437429413419766355e+01 7.131239057804479842e+01 2.300000000000000000e+02
8.473932723686649737e+00 8.340311988712092273e+01 2.310000000000000000e+02
9.026508068938767337e+00 8.210132862588910996e+01 2.310000000000000000e+02
9.579083414190883161e+00 8.079953736465731140e+01 2.310000000000000000e+02
1.013165875944299898e+01 7.949774610342549863e+01 2.310000000000000000e+02
1.068423410469511659e+01 7.819595484219368586e+01 2.310000000000000000e+02
1.123680944994723419e+01 7.689416358096187309e+01 2.310000000000000000e+02
1.178938479519935001e+01 7.559237231973006033e+01 2.310000000000000000e+02
1.234196014045146583e+01 7.429058105849826177e+01 2.310000000000000000e+02
1.289453548570358343e+01 7.298878979726644900e+01 2.310000000000000000e+02
8.099324765696803041e+00 8.247593658387896198e+01 2.320000000000000000e+02
8.651900110948920641e+00 8.117414532264714921e+01 2.320000000000000000e+02
9.204475456201036465e+00 7.987235406141533645e+01 2.320000000000000000e+02
9.757050801453154065e+00 7.857056280018352368e+01 2.320000000000000000e+02
1.030962614670526989e+01 7.726877153895172512e+01 2.320000000000000000e+02
1.086220149195738749e+01 7.596698027771991235e+01 2.320000000000000000e+02
1.141477683720950331e+01 7.466518901648809958e+01 2.320000000000000000e+02
1.749310563498278981e+01 6.034548514293820176e+01 2.320000000000000000e+02
1.804568098023490563e+01 5.904369388170639610e+01 2.320000000000000000e+02
8.099324765696803041e+00 8.247593658387896198e+01 2.330000000000000000e+02
8.651900110948920641e+00 8.117414532264714921e+01 2.330000000000000000e+02
9.204475456201036465e+00 7.987235406141533645e+01 2.330000000000000000e+02
9.757050801453154065e+00 7.857056280018352368e+01 2.330000000000000000e+02
1.030962614670526989e+01 7.726877153895172512e+01 2.330000000000000000e+02
1.086220149195738749e+01 7.596698027771991235e+01 2.330000000000000000e+02
1.638795494447855461e+01 6.294906766540182019e+01 2.330000000000000000e+02
1.694053028973067043e+01 6.164727640417001453e+01 2.330000000000000000e+02
1.749310563498278981e+01 6.034548514293820176e+01 2.330000000000000000e+02
1.804568098023490563e+01 5.904369388170639610e+01 2.330000000000000000e+02
1.859825632548702146e+01 5.774190262047459044e+01 2.330000000000000000e+02
1.915083167073913728e+01 5.644011135924277767e+01 2.330000000000000000e+02
6.975500891727264730e+00 7.969438667415306554e+01 2.340000000000000000e+02
1.360640503475266527e+01 6.407289153937135495e+01 2.340000000000000000e+02
1.415898038000478287e+01 6.277110027813954929e+01 2.340000000000000000e+02
1.471155572525689870e+01 6.146930901690774363e+01 2.340000000000000000e+02
1.526413107050901452e+01 6.016751775567593086e+01 2.340000000000000000e+02
1.581670641576113212e+01 5.886572649444412519e+01 2.340000000000000000e+02
1.636928176101324794e+01 5.756393523321231953e+01 2.340000000000000000e+02
1.692185710626536377e+01 5.626214397198050676e+01 2.340000000000000000e+02
2.480205395849111483e+00 6.856818703524950820e+01 2.350000000000000000e+02
3.032780741101228195e+00 6.726639577401770964e+01 2.350000000000000000e+02
3.585356086353344462e+00 6.596460451278589687e+01 2.350000000000000000e+02
4.137931431605461619e+00 6.466281325155408410e+01 2.350000000000000000e+02
4.690506776857578330e+00 6.336102199032227844e+01 2.350000000000000000e+02
5.243082122109695042e+00 6.205923072909047278e+01 2.350000000000000000e+02
5.795657467361811754e+00 6.075743946785866001e+01 2.350000000000000000e+02
6.348232812613928466e+00 5.945564820662685435e+01 2.350000000000000000e+02
2.480205395849111483e+00 6.856818703524950820e+01 2.360000000000000000e+02
3.032780741101228195e+00 6.726639577401770964e+01 2.360000000000000000e+02
3.585356086353344462e+00 6.596460451278589687e+01 2.360000000000000000e+02
4.137931431605461619e+00 6.466281325155408410e+01 2.360000000000000000e+02
4.690506776857578330e+00 6.336102199032227844e+01 2.360000000000000000e+02
5.243082122109695042e+00 6.205923072909047278e+01 2.360000000000000000e+02
5.795657467361811754e+00 6.075743946785866001e+01 2.360000000000000000e+02
6.348232812613928466e+00 5.945564820662685435e+01 2.360000000000000000e+02
6.900808157866045178e+00 5.815385694539504158e+01 2.360000000000000000e+02
2.480205395849111483e+00 6.856818703524950820e+01 2.370000000000000000e+02
3.032780741101228195e+00 6.726639577401770964e+01 2.370000000000000000e+02
3.585356086353344462e+00 6.596460451278589687e+01 2.370000000000000000e+02
4.137931431605461619e+00 6.466281325155408410e+01 2.370000000000000000e+02
4.690506776857578330e+00 6.336102199032227844e+01 2.370000000000000000e+02
5.243082122109695042e+00 6.205923072909047278e+01 2.370000000000000000e+02
5.795657467361811754e+00 6.075743946785866001e+01 2.370000000000000000e+02
6.348232812613928466e+00 5.945564820662685435e+01 2.370000000000000000e+02
6.900808157866045178e+00 5.815385694539504158e+01 2.370000000000000000e+02
7.453383503118161890e+00 5.685206568416323591e+01 2.370000000000000000e+02
2.480205395849111483e+00 6.856818703524950820e+01 2.380000000000000000e+02
3.032780741101228195e+00 6.726639577401770964e+01 2.380000000000000000e+02
3.585356086353344462e+00 6.596460451278589687e+01 2.380000000000000000e+02
4.137931431605461619e+00 6.466281325155408410e+01 2.380000000000000000e+02
4.690506776857578330e+00 6.336102199032227844e+01 2.380000000000000000e+02
5.243082122109695042e+00 6.205923072909047278e+01 2.380000000000000000e+02
5.795657467361811754e+00 6.075743946785866001e+01 2.380000000000000000e+02
6.348232812613928466e+00 5.945564820662685435e+01 2.380000000000000000e+02
6.900808157866045178e+00 5.815385694539504158e+01 2.380000000000000000e+02
7.453383503118161890e+00 5.685206568416323591e+01 2.380000000000000000e+02
2.480205395849111483e+00 6.856818703524950820e+01 2.390000000000000000e+02
3.032780741101228195e+00 6.726639577401770964e+01 2.390000000000000000e+02
3.585356086353344462e+00 6.596460451278589687e+01 2.390000000000000000e+02
4.137931431605461619e+00 6.466281325155408410e+01 2.390000000000000000e+02
4.690506776857578330e+00 6.336102199032227844e+01 2.390000000000000000e+02
5.243082122109695042e+00 6.205923072909047278e+01 2.390000000000000000e+02
5.795657467361811754e+00 6.075743946785866001e+01 2.390000000000000000e+02
6.348232812613928466e+00 5.945564820662685435e+01 2.390000000000000000e+02
6.900808157866045178e+00 5.815385694539504158e+01 2.390000000000000000e+02
7.453383503118161890e+00 5.685206568416323591e+01 2.390000000000000000e+02
2.480205395849111483e+00 6.856818703524950820e+01 2.400000000000000000e+02
3.032780741101228195e+00 6.726639577401770964e+01 2.400000000000000000e+02
3.585356086353344462e+00 6.596460451278589687e+01 2.400000000000000000e+02
4.137931431605461619e+00 6.466281325155408410e+01 2.400000000000000000e+02
4.690506776857578330e+00 6.336102199032227844e+01 2.400000000000000000e+02
5.243082122109695042e+00 6.205923072909047278e+01 2.400000000000000000e+02
5.795657467361811754e+00 6.075743946785866001e+01 2.400000000000000000e+02
6.348232812613928466e+00 5.945564820662685435e+01 2.400000000000000000e+02
6.900808157866045178e+00 5.815385694539504158e+01 2.400000000000000000e+02
7.453383503118161890e+00 5.685206568416323591e+01 2.400000000000000000e+02
2.480205395849111483e+00 6.856818703524950820e+01 2.410000000000000000e+02
3.032780741101228195e+00 6.726639577401770964e+01 2.410000000000000000e+02
3.585356086353344462e+00 6.596460451278589687e+01 2.410000000000000000e+02
4.137931431605461619e+00 6.466281325155408410e+01 2.410000000000000000e+02
4.690506776857578330e+00 6.336102199032227844e+01 2.410000000000000000e+02
5.243082122109695042e+00 6.205923072909047278e+01 2.410000000000000000e+02
5.795657467361811754e+00 6.075743946785866001e+01 2.410000000000000000e+02
6.348232812613928466e+00 5.945564820662685435e+01 2.410000000000000000e+02
6.900808157866045178e+00 5.815385694539504158e+01 2.410000000000000000e+02
7.453383503118161890e+00 5.685206568416323591e+01 2.410000000000000000e+02
2.480205395849111483e+00 6.856818703524950820e+01 2.420000000000000000e+02
3.032780741101228195e+00 6.726639577401770964e+01 2.420000000000000000e+02
3.585356086353344462e+00 6.596460451278589687e+01 2.420000000000000000e+02
4.137931431605461619e+00 6.466281325155408410e+01 2.420000000000000000e+02
4.690506776857578330e+00 6.336102199032227844e+01 2.420000000000000000e+02
5.243082122109695042e+00 6.205923072909047278e+01 2.420000000000000000e+02
5.795657467361811754e+00 6.075743946785866001e+01 2.420000000000000000e+02
6.348232812613928466e+00 5.945564820662685435e+01 2.420000000000000000e+02
6.900808157866045178e+00 5.815385694539504158e+01 2.420000000000000000e+02
7.453383503118161890e+00 5.685206568416323591e+01 2.420000000000000000e+02
2.480205395849111483e+00 6.856818703524950820e+01 2.430000000000000000e+02
3.032780741101228195e+00 6.726639577401770964e+01 2.430000000000000000e+02
3.585356086353344462e+00 6.596460451278589687e+01 2.430000000000000000e+02
4.137931431605461619e+00 6.466281325155408410e+01 2.430000000000000000e+02
4.690506776857578330e+00 6.336102199032227844e+01 2.430000000000000000e+02
5.243082122109695042e+00 6.205923072909047278e+01 2.430000000000000000e+02
5.795657467361811754e+00 6.075743946785866001e+01 2.430000000000000000e+02
6.348232812613928466e+00 5.945564820662685435e+01 2.430000000000000000e+02
6.900808157866045178e+00 5.815385694539504158e+01 2.430000000000000000e+02
7.453383503118161890e+00 5.685206568416323591e+01 2.430000000000000000e+02
2.480205395849111483e+00 6.856818703524950820e+01 2.440000000000000000e+02
3.032780741101228195e+00 6.726639577401770964e+01 2.440000000000000000e+02
3.585356086353344462e+00 6.596460451278589687e+01 2.440000000000000000e+02
4.137931431605461619e+00 6.466281325155408410e+01 2.440000000000000000e+02
4.690506776857578330e+00 6.336102199032227844e+01 2.440000000000000000e+02
5.243082122109695042e+00 6.205923072909047278e+01 2.440000000000000000e+02
5.795657467361811754e+00 6.075743946785866001e+01 2.440000000000000000e+02
6.348232812613928466e+00 5.945564820662685435e+01 2.440000000000000000e+02
6.900808157866045178e+00 5.815385694539504158e+01 2.440000000000000000e+02
7.453383503118161890e+00 5.685206568416323591e+01 2.440000000000000000e+02
8.005958848370278602e+00 5.555027442293142315e+01 2.440000000000000000e+02
2.480205395849111483e+00 6.856818703524950820e+01 2.450000000000000000e+02
3.032780741101228195e+00 6.726639577401770964e+01 2.450000000000000000e+02
3.585356086353344462e+00 6.596460451278589687e+01 2.450000000000000000e+02
4.137931431605461619e+00 6.466281325155408410e+01 2.450000000000000000e+02
4.690506776857578330e+00 6.336102199032227844e+01 2.450000000000000000e+02
5.243082122109695042e+00 6.205923072909047278e+01 2.450000000000000000e+02
5.795657467361811754e+00 6.075743946785866001e+01 2.450000000000000000e+02
6.348232812613928466e+00 5.945564820662685435e+01 2.450000000000000000e+02
6.900808157866045178e+00 5.815385694539504158e+01 2.450000000000000000e+02
7.453383503118161890e+00 5.685206568416323591e+01 2.450000000000000000e+02
8.005958848370278602e+00 5.555027442293142315e+01 2.450000000000000000e+02
2.480205395849111483e+00 6.856818703524950820e+01 2.460000000000000000e+02
3.032780741101228195e+00 6.726639577401770964e+01 2.460000000000000000e+02
3.585356086353344462e+00 6.596460451278589687e+01 2.460000000000000000e+02
4.137931431605461619e+00 6.466281325155408410e+01 2.460000000000000000e+02
4.690506776857578330e+00 6.336102199032227844e+01 2.460000000000000000e+02
5.243082122109695042e+00 6.205923072909047278e+01 2.460000000000000000e+02
5.795657467361811754e+00 6.075743946785866001e+01 2.460000000000000000e+02
6.348232812613928466e+00 5.945564820662685435e+01 2.460000000000000000e+02
6.900808157866045178e+00 5.815385694539504158e+01 2.460000000000000000e+02
7.453383503118161890e+00 5.685206568416323591e+01 2.460000000000000000e+02
8.005958848370278602e+00 5.555027442293142315e+01 2.460000000000000000e+02
2.480205395849111483e+00 6.856818703524950820e+01 2.470000000000000000e+02
3.032780741101228195e+00 6.726639577401770964e+01 2.470000000000000000e+02
3.585356086353344462e+00 6.596460451278589687e+01 2.470000000000000000e+02
4.137931431605461619e+00 6.466281325155408410e+01 2.470000000000000000e+02
4.690506776857578330e+00 6.336102199032227844e+01 2.470000000000000000e+02
5.243082122109695042e+00 6.205923072909047278e+01 2.470000000000000000e+02
5.795657467361811754e+00 6.075743946785866001e+01 2.470000000000000000e+02
6.348232812613928466e+00 5.945564820662685435e+01 2.470000000000000000e+02
6.900808157866045178e+00 5.815385694539504158e+01 2.470000000000000000e+02
7.453383503118161890e+00 5.685206568416323591e+01 2.470000000000000000e+02
8.005958848370278602e+00 5.555027442293142315e+01 2.470000000000000000e+02
2.480205395849111483e+00 6.856818703524950820e+01 2.480000000000000000e+02
3.032780741101228195e+00 6.726639577401770964e+01 2.480000000000000000e+02
3.585356086353344462e+00 6.596460451278589687e+01 2.480000000000000000e+02
4.137931431605461619e+00 6.466281325155408410e+01 2.480000000000000000e+02
4.690506776857578330e+00 6.336102199032227844e+01 2.480000000000000000e+02
5.243082122109695042e+00 6.205923072909047278e+01 2.480000000000000000e+02
5.795657467361811754e+00 6.075743946785866001e+01 2.480000000000000000e+02
6.348232812613928466e+00 5.945564820662685435e+01 2.480000000000000000e+02
6.900808157866045178e+00 5.815385694539504158e+01 2.480000000000000000e+02
7.453383503118161890e+00 5.685206568416323591e+01 2.480000000000000000e+02
8.005958848370278602e+00 5.555027442293142315e+01 2.480000000000000000e+02
2.480205395849111483e+00 6.856818703524950820e+01 2.490000000000000000e+02
3.032780741101228195e+00 6.726639577401770964e+01 2.490000000000000000e+02
3.585356086353344462e+00 6.596460451278589687e+01 2.490000000000000000e+02
4.137931431605461619e+00 6.466281325155408410e+01 2.490000000000000000e+02
4.690506776857578330e+00 6.336102199032227844e+01 2.490000000000000000e+02
5.243082122109695042e+00 6.205923072909047278e+01 2.490000000000000000e+02
5.795657467361811754e+00 6.075743946785866001e+01 2.490000000000000000e+02
6.348232812613928466e+00 5.945564820662685435e+01 2.490000000000000000e+02
6.900808157866045178e+00 5.815385694539504158e+01 2.490000000000000000e+02
7.453383503118161890e+00 5.685206568416323591e+01 2.490000000000000000e+02
8.005958848370278602e+00 5.555027442293142315e+01 2.490000000000000000e+02
2.480205395849111483e+00 6.856818703524950820e+01 2.500000000000000000e+02
3.032780741101228195e+00 6.726639577401770964e+01 2.500000000000000000e+02
3.585356086353344462e+00 6.596460451278589687e+01 2.500000000000000000e+02
4.137931431605461619e+00 6.466281325155408410e+01 2.500000000000000000e+02
4.690506776857578330e+00 6.336102199032227844e+01 2.500000000000000000e+02
5.243082122109695042e+00 6.205923072909047278e+01 2.500000000000000000e+02
5.795657467361811754e+00 6.075743946785866001e+01 2.500000000000000000e+02
6.348232812613928466e+00 5.945564820662685435e+01 2.500000000000000000e+02
6.900808157866045178e+00 5.815385694539504158e+01 2.500000000000000000e+02
7.453383503118161890e+00 5.685206568416323591e+01 2.500000000000000000e+02
8.005958848370278602e+00 5.555027442293142315e+01 2.500000000000000000e+02
2.105597437859265231e+00 6.764100373200754746e+01 2.510000000000000000e+02
2.658172783111381943e+00 6.633921247077574890e+01 2.510000000000000000e+02
3.210748128363498655e+00 6.503742120954393613e+01 2.510000000000000000e+02
3.763323473615615367e+00 6.373562994831212336e+01 2.510000000000000000e+02
4.315898818867731634e+00 6.243383868708031770e+01 2.510000000000000000e+02
4.868474164119849235e+00 6.113204742584850493e+01 2.510000000000000000e+02
5.421049509371965058e+00 5.983025616461669927e+01 2.510000000000000000e+02
5.973624854624082658e+00 5.852846490338488650e+01 2.510000000000000000e+02
6.526200199876198482e+00 5.722667364215308083e+01 2.510000000000000000e+02
7.078775545128316082e+00 5.592488238092127517e+01 2.510000000000000000e+02
2.105597437859265231e+00 6.764100373200754746e+01 2.520000000000000000e+02
2.658172783111381943e+00 6.633921247077574890e+01 2.520000000000000000e+02
3.210748128363498655e+00 6.503742120954393613e+01 2.520000000000000000e+02
3.763323473615615367e+00 6.373562994831212336e+01 2.520000000000000000e+02
4.315898818867731634e+00 6.243383868708031770e+01 2.520000000000000000e+02
4.868474164119849235e+00 6.113204742584850493e+01 2.520000000000000000e+02
5.421049509371965058e+00 5.983025616461669927e+01 2.520000000000000000e+02
5.973624854624082658e+00 5.852846490338488650e+01 2.520000000000000000e+02
6.526200199876198482e+00 5.722667364215308083e+01 2.520000000000000000e+02
7.078775545128316082e+00 5.592488238092127517e+01 2.520000000000000000e+02
2.105597437859265231e+00 6.764100373200754746e+01 2.530000000000000000e+02
2.658172783111381943e+00 6.633921247077574890e+01 2.530000000000000000e+02
3.210748128363498655e+00 6.503742120954393613e+01 2.530000000000000000e+02
3.763323473615615367e+00 6.373562994831212336e+01 2.530000000000000000e+02
4.315898818867731634e+00 6.243383868708031770e+01 2.530000000000000000e+02
4.868474164119849235e+00 6.113204742584850493e+01 2.530000000000000000e+02
5.421049509371965058e+00 5.983025616461669927e+01 2.530000000000000000e+02
5.973624854624082658e+00 5.852846490338488650e+01 2.530000000000000000e+02
6.526200199876198482e+00 5.722667364215308083e+01 2.530000000000000000e+02
2.105597437859265231e+00 6.764100373200754746e+01 2.540000000000000000e+02
2.658172783111381943e+00 6.633921247077574890e+01 2.540000000000000000e+02
3.210748128363498655e+00 6.503742120954393613e+01 2.540000000000000000e+02
3.763323473615615367e+00 6.373562994831212336e+01 2.540000000000000000e+02
4.315898818867731634e+00 6.243383868708031770e+01 2.540000000000000000e+02
4.868474164119849235e+00 6.113204742584850493e+01 2.540000000000000000e+02
5.421049509371965058e+00 5.983025616461669927e+01 2.540000000000000000e+02
5.973624854624082658e+00 5.852846490338488650e+01 2.540000000000000000e+02
6.526200199876198482e+00 5.722667364215308083e+01 2.540000000000000000e+02
2.105597437859265231e+00 6.764100373200754746e+01 2.550000000000000000e+02
2.658172783111381943e+00 6.633921247077574890e+01 2.550000000000000000e+02
3.210748128363498655e+00 6.503742120954393613e+01 2.550000000000000000e+02
3.763323473615615367e+00 6.373562994831212336e+01 2.550000000000000000e+02
4.315898818867731634e+00 6.243383868708031770e+01 2.550000000000000000e+02
4.868474164119849235e+00 6.113204742584850493e+01 2.550000000000000000e+02
5.421049509371965058e+00 5.983025616461669927e+01 2.550000000000000000e+02
5.973624854624082658e+00 5.852846490338488650e+01 2.550000000000000000e+02
6.526200199876198482e+00 5.722667364215308083e+01 2.550000000000000000e+02
7.078775545128316082e+00 5.592488238092127517e+01 2.550000000000000000e+02
2.105597437859265231e+00 6.764100373200754746e+01 2.560000000000000000e+02
2.658172783111381943e+00 6.633921247077574890e+01 2.560000000000000000e+02
3.210748128363498655e+00 6.503742120954393613e+01 2.560000000000000000e+02
3.763323473615615367e+00 6.373562994831212336e+01 2.560000000000000000e+02
4.315898818867731634e+00 6.243383868708031770e+01 2.560000000000000000e+02
4.868474164119849235e+00 6.113204742584850493e+01 2.560000000000000000e+02
5.421049509371965058e+00 5.983025616461669927e+01 2.560000000000000000e+02
5.973624854624082658e+00 5.852846490338488650e+01 2.560000000000000000e+02
6.526200199876198482e+00 5.722667364215308083e+01 2.560000000000000000e+02
7.078775545128316082e+00 5.592488238092127517e+01 2.560000000000000000e+02
2.105597437859265231e+00 6.764100373200754746e+01 2.570000000000000000e+02
2.658172783111381943e+00 6.633921247077574890e+01 2.570000000000000000e+02
3.210748128363498655e+00 6.503742120954393613e+01 2.570000000000000000e+02
3.763323473615615367e+00 6.373562994831212336e+01 2.570000000000000000e+02
4.315898818867731634e+00 6.243383868708031770e+01 2.570000000000000000e+02
4.868474164119849235e+00 6.113204742584850493e+01 2.570000000000000000e+02
5.421049509371965058e+00 5.983025616461669927e+01 2.570000000000000000e+02
5.973624854624082658e+00 5.852846490338488650e+01 2.570000000000000000e+02
6.526200199876198482e+00 5.722667364215308083e+01 2.570000000000000000e+02
7.078775545128316082e+00 5.592488238092127517e+01 2.570000000000000000e+02
2.105597437859265231e+00 6.764100373200754746e+01 2.580000000000000000e+02
2.658172783111381943e+00 6.633921247077574890e+01 2.580000000000000000e+02
3.210748128363498655e+00 6.503742120954393613e+01 2.580000000000000000e+02
3.763323473615615367e+00 6.373562994831212336e+01 2.580000000000000000e+02
4.315898818867731634e+00 6.243383868708031770e+01 2.580000000000000000e+02
4.868474164119849235e+00 6.113204742584850493e+01 2.580000000000000000e+02
5.421049509371965058e+00 5.983025616461669927e+01 2.580000000000000000e+02
5.973624854624082658e+00 5.852846490338488650e+01 2.580000000000000000e+02
6.526200199876198482e+00 5.722667364215308083e+01 2.580000000000000000e+02
7.078775545128316082e+00 5.592488238092127517e+01 2.580000000000000000e+02
2.480205395849111483e+00 6.856818703524950820e+01 2.590000000000000000e+02
3.032780741101228195e+00 6.726639577401770964e+01 2.590000000000000000e+02
3.585356086353344462e+00 6.596460451278589687e+01 2.590000000000000000e+02
4.137931431605461619e+00 6.466281325155408410e+01 2.590000000000000000e+02
4.690506776857578330e+00 6.336102199032227844e+01 2.590000000000000000e+02
5.243082122109695042e+00 6.205923072909047278e+01 2.590000000000000000e+02
5.795657467361811754e+00 6.075743946785866001e+01 2.590000000000000000e+02
6.348232812613928466e+00 5.945564820662685435e+01 2.590000000000000000e+02
6.900808157866045178e+00 5.815385694539504158e+01 2.590000000000000000e+02
7.453383503118161890e+00 5.685206568416323591e+01 2.590000000000000000e+02
8.005958848370278602e+00 5.555027442293142315e+01 2.590000000000000000e+02
2.480205395849111483e+00 6.856818703524950820e+01 2.600000000000000000e+02
3.032780741101228195e+00 6.726639577401770964e+01 2.600000000000000000e+02
3.585356086353344462e+00 6.596460451278589687e+01 2.600000000000000000e+02
4.137931431605461619e+00 6.466281325155408410e+01 2.600000000000000000e+02
4.690506776857578330e+00 6.336102199032227844e+01 2.600000000000000000e+02
5.243082122109695042e+00 6.205923072909047278e+01 2.600000000000000000e+02
5.795657467361811754e+00 6.075743946785866001e+01 2.600000000000000000e+02
6.348232812613928466e+00 5.945564820662685435e+01 2.600000000000000000e+02
6.900808157866045178e+00 5.815385694539504158e+01 2.600000000000000000e+02
7.453383503118161890e+00 5.685206568416323591e+01 2.600000000000000000e+02
8.005958848370278602e+00 5.555027442293142315e+01 2.600000000000000000e+02
2.480205395849111483e+00 6.856818703524950820e+01 2.610000000000000000e+02
3.032780741101228195e+00 6.726639577401770964e+01 2.610000000000000000e+02
3.585356086353344462e+00 6.596460451278589687e+01 2.610000000000000000e+02
4.137931431605461619e+00 6.466281325155408410e+01 2.610000000000000000e+02
4.690506776857578330e+00 6.336102199032227844e+01 2.610000000000000000e+02
5.243082122109695042e+00 6.205923072909047278e+01 2.610000000000000000e+02
5.795657467361811754e+00 6.075743946785866001e+01 2.610000000000000000e+02
6.348232812613928466e+00 5.945564820662685435e+01 2.610000000000000000e+02
6.900808157866045178e+00 5.815385694539504158e+01 2.610000000000000000e+02
7.453383503118161890e+00 5.685206568416323591e+01 2.610000000000000000e+02
8.005958848370278602e+00 5.555027442293142315e+01 2.610000000000000000e+02
2.105597437859265231e+00 6.764100373200754746e+01 2.620000000000000000e+02
2.658172783111381943e+00 6.633921247077574890e+01 2.620000000000000000e+02
3.210748128363498655e+00 6.503742120954393613e+01 2.620000000000000000e+02
3.763323473615615367e+00 6.373562994831212336e+01 2.620000000000000000e+02
4.315898818867731634e+00 6.243383868708031770e+01 2.620000000000000000e+02
4.868474164119849235e+00 6.113204742584850493e+01 2.620000000000000000e+02
5.421049509371965058e+00 5.983025616461669927e+01 2.620000000000000000e+02
5.973624854624082658e+00 5.852846490338488650e+01 2.620000000000000000e+02
6.526200199876198482e+00 5.722667364215308083e+01 2.620000000000000000e+02
7.078775545128316082e+00 5.592488238092127517e+01 2.620000000000000000e+02
2.105597437859265231e+00 6.764100373200754746e+01 2.630000000000000000e+02
2.658172783111381943e+00 6.633921247077574890e+01 2.630000000000000000e+02
3.210748128363498655e+00 6.503742120954393613e+01 2.630000000000000000e+02
3.763323473615615367e+00 6.373562994831212336e+01 2.630000000000000000e+02
4.315898818867731634e+00 6.243383868708031770e+01 2.630000000000000000e+02
4.868474164119849235e+00 6.113204742584850493e+01 2.630000000000000000e+02
5.421049509371965058e+00 5.983025616461669927e+01 2.630000000000000000e+02
5.973624854624082658e+00 5.852846490338488650e+01 2.630000000000000000e+02
6.526200199876198482e+00 5.722667364215308083e+01 2.630000000000000000e+02
7.078775545128316082e+00 5.592488238092127517e+01 2.630000000000000000e+02
2.105597437859265231e+00 6.764100373200754746e+01 2.640000000000000000e+02
2.658172783111381943e+00 6.633921247077574890e+01 2.640000000000000000e+02
3.210748128363498655e+00 6.503742120954393613e+01 2.640000000000000000e+02
3.763323473615615367e+00 6.373562994831212336e+01 2.640000000000000000e+02
4.315898818867731634e+00 6.243383868708031770e+01 2.640000000000000000e+02
4.868474164119849235e+00 6.113204742584850493e+01 2.640000000000000000e+02
5.421049509371965058e+00 5.983025616461669927e+01 2.640000000000000000e+02
5.973624854624082658e+00 5.852846490338488650e+01 2.640000000000000000e+02
6.526200199876198482e+00 5.722667364215308083e+01 2.640000000000000000e+02
7.078775545128316082e+00 5.592488238092127517e+01 2.640000000000000000e+02
2.105597437859265231e+00 6.764100373200754746e+01 2.650000000000000000e+02
2.658172783111381943e+00 6.633921247077574890e+01 2.650000000000000000e+02
3.210748128363498655e+00 6.503742120954393613e+01 2.650000000000000000e+02
3.763323473615615367e+00 6.373562994831212336e+01 2.650000000000000000e+02
4.315898818867731634e+00 6.243383868708031770e+01 2.650000000000000000e+02
4.868474164119849235e+00 6.113204742584850493e+01 2.650000000000000000e+02
5.421049509371965058e+00 5.983025616461669927e+01 2.650000000000000000e+02
5.973624854624082658e+00 5.852846490338488650e+01 2.650000000000000000e+02
6.526200199876198482e+00 5.722667364215308083e+01 2.650000000000000000e+02
7.078775545128316082e+00 5.592488238092127517e+01 2.650000000000000000e+02
2.105597437859265231e+00 6.764100373200754746e+01 2.660000000000000000e+02
2.658172783111381943e+00 6.633921247077574890e+01 2.660000000000000000e+02
3.210748128363498655e+00 6.503742120954393613e+01 2.660000000000000000e+02
3.763323473615615367e+00 6.373562994831212336e+01 2.660000000000000000e+02
4.315898818867731634e+00 6.243383868708031770e+01 2.660000000000000000e+02
4.868474164119849235e+00 6.113204742584850493e+01 2.660000000000000000e+02
5.421049509371965058e+00 5.983025616461669927e+01 2.660000000000000000e+02
5.973624854624082658e+00 5.852846490338488650e+01 2.660000000000000000e+02
6.526200199876198482e+00 5.722667364215308083e+01 2.660000000000000000e+02
7.078775545128316082e+00 5.592488238092127517e+01 2.660000000000000000e+02
2.480205395849111483e+00 6.856818703524950820e+01 2.670000000000000000e+02
3.032780741101228195e+00 6.726639577401770964e+01 2.670000000000000000e+02
3.585356086353344462e+00 6.596460451278589687e+01 2.670000000000000000e+02
4.137931431605461619e+00 6.466281325155408410e+01 2.670000000000000000e+02
4.690506776857578330e+00 6.336102199032227844e+01 2.670000000000000000e+02
5.243082122109695042e+00 6.205923072909047278e+01 2.670000000000000000e+02
5.795657467361811754e+00 6.075743946785866001e+01 2.670000000000000000e+02
6.348232812613928466e+00 5.945564820662685435e+01 2.670000000000000000e+02
6.900808157866045178e+00 5.815385694539504158e+01 2.670000000000000000e+02
7.453383503118161890e+00 5.685206568416323591e+01 2.670000000000000000e+02
2.480205395849111483e+00 6.856818703524950820e+01 2.680000000000000000e+02
3.032780741101228195e+00 6.726639577401770964e+01 2.680000000000000000e+02
3.585356086353344462e+00 6.596460451278589687e+01 2.680000000000000000e+02
4.137931431605461619e+00 6.466281325155408410e+01 2.680000000000000000e+02
4.690506776857578330e+00 6.336102199032227844e+01 2.680000000000000000e+02
5.243082122109695042e+00 6.205923072909047278e+01 2.680000000000000000e+02
5.795657467361811754e+00 6.075743946785866001e+01 2.680000000000000000e+02
6.348232812613928466e+00 5.945564820662685435e+01 2.680000000000000000e+02
6.900808157866045178e+00 5.815385694539504158e+01 2.680000000000000000e+02
7.453383503118161890e+00 5.685206568416323591e+01 2.680000000000000000e+02
2.480205395849111483e+00 6.856818703524950820e+01 2.690000000000000000e+02
3.032780741101228195e+00 6.726639577401770964e+01 2.690000000000000000e+02
3.585356086353344462e+00 6.596460451278589687e+01 2.690000000000000000e+02
4.137931431605461619e+00 6.466281325155408410e+01 2.690000000000000000e+02
4.690506776857578330e+00 6.336102199032227844e+01 2.690000000000000000e+02
5.243082122109695042e+00 6.205923072909047278e+01 2.690000000000000000e+02
5.795657467361811754e+00 6.075743946785866001e+01 2.690000000000000000e+02
6.348232812613928466e+00 5.945564820662685435e+01 2.690000000000000000e+02
6.900808157866045178e+00 5.815385694539504158e+01 2.690000000000000000e+02
7.453383503118161890e+00 5.685206568416323591e+01 2.690000000000000000e+02
2.480205395849111483e+00 6.856818703524950820e+01 2.700000000000000000e+02
3.032780741101228195e+00 6.726639577401770964e+01 2.700000000000000000e+02
3.585356086353344462e+00 6.596460451278589687e+01 2.700000000000000000e+02
4.137931431605461619e+00 6.466281325155408410e+01 2.700000000000000000e+02
4.690506776857578330e+00 6.336102199032227844e+01 2.700000000000000000e+02
5.243082122109695042e+00 6.205923072909047278e+01 2.700000000000000000e+02
5.795657467361811754e+00 6.075743946785866001e+01 2.700000000000000000e+02
6.348232812613928466e+00 5.945564820662685435e+01 2.700000000000000000e+02
6.900808157866045178e+00 5.815385694539504158e+01 2.700000000000000000e+02
7.453383503118161890e+00 5.685206568416323591e+01 2.700000000000000000e+02
2.105597437859265231e+00 6.764100373200754746e+01 2.710000000000000000e+02
2.658172783111381943e+00 6.633921247077574890e+01 2.710000000000000000e+02
3.210748128363498655e+00 6.503742120954393613e+01 2.710000000000000000e+02
3.763323473615615367e+00 6.373562994831212336e+01 2.710000000000000000e+02
4.315898818867731634e+00 6.243383868708031770e+01 2.710000000000000000e+02
4.868474164119849235e+00 6.113204742584850493e+01 2.710000000000000000e+02
5.421049509371965058e+00 5.983025616461669927e+01 2.710000000000000000e+02
5.973624854624082658e+00 5.852846490338488650e+01 2.710000000000000000e+02
6.526200199876198482e+00 5.722667364215308083e+01 2.710000000000000000e+02
2.105597437859265231e+00 6.764100373200754746e+01 2.720000000000000000e+02
2.658172783111381943e+00 6.633921247077574890e+01 2.720000000000000000e+02
3.210748128363498655e+00 6.503742120954393613e+01 2.720000000000000000e+02
3.763323473615615367e+00 6.373562994831212336e+01 2.720000000000000000e+02
4.315898818867731634e+00 6.243383868708031770e+01 2.720000000000000000e+02
4.868474164119849235e+00 6.113204742584850493e+01 2.720000000000000000e+02
5.421049509371965058e+00 5.983025616461669927e+01 2.720000000000000000e+02
5.973624854624082658e+00 5.852846490338488650e+01 2.720000000000000000e+02
6.526200199876198482e+00 5.722667364215308083e+01 2.720000000000000000e+02
2.105597437859265231e+00 6.764100373200754746e+01 2.730000000000000000e+02
2.658172783111381943e+00 6.633921247077574890e+01 2.730000000000000000e+02
3.210748128363498655e+00 6.503742120954393613e+01 2.730000000000000000e+02
3.763323473615615367e+00 6.373562994831212336e+01 2.730000000000000000e+02
4.315898818867731634e+00 6.243383868708031770e+01 2.730000000000000000e+02
4.868474164119849235e+00 6.113204742584850493e+01 2.730000000000000000e+02
5.421049509371965058e+00 5.983025616461669927e+01 2.730000000000000000e+02
5.973624854624082658e+00 5.852846490338488650e+01 2.730000000000000000e+02
6.526200199876198482e+00 5.722667364215308083e+01 2.730000000000000000e+02
7.078775545128316082e+00 5.592488238092127517e+01 2.730000000000000000e+02
2.105597437859265231e+00 6.764100373200754746e+01 2.740000000000000000e+02
2.658172783111381943e+00 6.633921247077574890e+01 2.740000000000000000e+02
3.210748128363498655e+00 6.503742120954393613e+01 2.740000000000000000e+02
3.763323473615615367e+00 6.373562994831212336e+01 2.740000000000000000e+02
4.315898818867731634e+00 6.243383868708031770e+01 2.740000000000000000e+02
4.868474164119849235e+00 6.113204742584850493e+01 2.740000000000000000e+02
5.421049509371965058e+00 5.983025616461669927e+01 2.740000000000000000e+02
5.973624854624082658e+00 5.852846490338488650e+01 2.740000000000000000e+02
6.526200199876198482e+00 5.722667364215308083e+01 2.740000000000000000e+02
7.078775545128316082e+00 5.592488238092127517e+01 2.740000000000000000e+02
2.480205395849111483e+00 6.856818703524950820e+01 2.750000000000000000e+02
3.032780741101228195e+00 6.726639577401770964e+01 2.750000000000000000e+02
3.585356086353344462e+00 6.596460451278589687e+01 2.750000000000000000e+02
4.137931431605461619e+00 6.466281325155408410e+01 2.750000000000000000e+02
4.690506776857578330e+00 6.336102199032227844e+01 2.750000000000000000e+02
5.243082122109695042e+00 6.205923072909047278e+01 2.750000000000000000e+02
5.795657467361811754e+00 6.075743946785866001e+01 2.750000000000000000e+02
6.348232812613928466e+00 5.945564820662685435e+01 2.750000000000000000e+02
6.900808157866045178e+00 5.815385694539504158e+01 2.750000000000000000e+02
7.453383503118161890e+00 5.685206568416323591e+01 2.750000000000000000e+02
8.005958848370278602e+00 5.555027442293142315e+01 2.750000000000000000e+02
2.480205395849111483e+00 6.856818703524950820e+01 2.760000000000000000e+02
3.032780741101228195e+00 6.726639577401770964e+01 2.760000000000000000e+02
3.585356086353344462e+00 6.596460451278589687e+01 2.760000000000000000e+02
4.137931431605461619e+00 6.466281325155408410e+01 2.760000000000000000e+02
4.690506776857578330e+00 6.336102199032227844e+01 2.760000000000000000e+02
5.243082122109695042e+00 6.205923072909047278e+01 2.760000000000000000e+02
5.795657467361811754e+00 6.075743946785866001e+01 2.760000000000000000e+02
6.348232812613928466e+00 5.945564820662685435e+01 2.760000000000000000e+02
6.900808157866045178e+00 5.815385694539504158e+01 2.760000000000000000e+02
7.453383503118161890e+00 5.685206568416323591e+01 2.760000000000000000e+02
8.005958848370278602e+00 5.555027442293142315e+01 2.760000000000000000e+02
2.480205395849111483e+00 6.856818703524950820e+01 2.770000000000000000e+02
3.032780741101228195e+00 6.726639577401770964e+01 2.770000000000000000e+02
3.585356086353344462e+00 6.596460451278589687e+01 2.770000000000000000e+02
4.137931431605461619e+00 6.466281325155408410e+01 2.770000000000000000e+02
4.690506776857578330e+00 6.336102199032227844e+01 2.770000000000000000e+02
5.243082122109695042e+00 6.205923072909047278e+01 2.770000000000000000e+02
5.795657467361811754e+00 6.075743946785866001e+01 2.770000000000000000e+02
6.348232812613928466e+00 5.945564820662685435e+01 2.770000000000000000e+02
6.900808157866045178e+00 5.815385694539504158e+01 2.770000000000000000e+02
7.453383503118161890e+00 5.685206568416323591e+01 2.770000000000000000e+02
8.005958848370278602e+00 5.555027442293142315e+01 2.770000000000000000e+02
2.480205395849111483e+00 6.856818703524950820e+01 2.780000000000000000e+02
3.032780741101228195e+00 6.726639577401770964e+01 2.780000000000000000e+02
3.585356086353344462e+00 6.596460451278589687e+01 2.780000000000000000e+02
4.137931431605461619e+00 6.466281325155408410e+01 2.780000000000000000e+02
4.690506776857578330e+00 6.336102199032227844e+01 2.780000000000000000e+02
5.243082122109695042e+00 6.205923072909047278e+01 2.780000000000000000e+02
5.795657467361811754e+00 6.075743946785866001e+01 2.780000000000000000e+02
6.348232812613928466e+00 5.945564820662685435e+01 2.780000000000000000e+02
6.900808157866045178e+00 5.815385694539504158e+01 2.780000000000000000e+02
7.453383503118161890e+00 5.685206568416323591e+01 2.780000000000000000e+02
8.005958848370278602e+00 5.555027442293142315e+01 2.780000000000000000e+02
2.480205395849111483e+00 6.856818703524950820e+01 2.790000000000000000e+02
3.032780741101228195e+00 6.726639577401770964e+01 2.790000000000000000e+02
3.585356086353344462e+00 6.596460451278589687e+01 2.790000000000000000e+02
4.137931431605461619e+00 6.466281325155408410e+01 2.790000000000000000e+02
4.690506776857578330e+00 6.336102199032227844e+01 2.790000000000000000e+02
5.243082122109695042e+00 6.205923072909047278e+01 2.790000000000000000e+02
5.795657467361811754e+00 6.075743946785866001e+01 2.790000000000000000e+02
6.348232812613928466e+00 5.945564820662685435e+01 2.790000000000000000e+02
6.900808157866045178e+00 5.815385694539504158e+01 2.790000000000000000e+02
7.453383503118161890e+00 5.685206568416323591e+01 2.790000000000000000e+02
8.005958848370278602e+00 5.555027442293142315e+01 2.790000000000000000e+02
2.480205395849111483e+00 6.856818703524950820e+01 2.800000000000000000e+02
3.032780741101228195e+00 6.726639577401770964e+01 2.800000000000000000e+02
3.585356086353344462e+00 6.596460451278589687e+01 2.800000000000000000e+02
4.137931431605461619e+00 6.466281325155408410e+01 2.800000000000000000e+02
4.690506776857578330e+00 6.336102199032227844e+01 2.800000000000000000e+02
5.243082122109695042e+00 6.205923072909047278e+01 2.800000000000000000e+02
5.795657467361811754e+00 6.075743946785866001e+01 2.800000000000000000e+02
6.348232812613928466e+00 5.945564820662685435e+01 2.800000000000000000e+02
6.900808157866045178e+00 5.815385694539504158e+01 2.800000000000000000e+02
7.453383503118161890e+00 5.685206568416323591e+01 2.800000000000000000e+02
8.005958848370278602e+00 5.555027442293142315e+01 2.800000000000000000e+02
2.480205395849111483e+00 6.856818703524950820e+01 2.810000000000000000e+02
3.032780741101228195e+00 6.726639577401770964e+01 2.810000000000000000e+02
3.585356086353344462e+00 6.596460451278589687e+01 2.810000000000000000e+02
4.137931431605461619e+00 6.466281325155408410e+01 2.810000000000000000e+02
4.690506776857578330e+00 6.336102199032227844e+01 2.810000000000000000e+02
5.243082122109695042e+00 6.205923072909047278e+01 2.810000000000000000e+02
5.795657467361811754e+00 6.075743946785866001e+01 2.810000000000000000e+02
6.348232812613928466e+00 5.945564820662685435e+01 2.810000000000000000e+02
6.900808157866045178e+00 5.815385694539504158e+01 2.810000000000000000e+02
7.453383503118161890e+00 5.685206568416323591e+01 2.810000000000000000e+02
8.005958848370278602e+00 5.555027442293142315e+01 2.810000000000000000e+02
2.480205395849111483e+00 6.856818703524950820e+01 2.820000000000000000e+02
3.032780741101228195e+00 6.726639577401770964e+01 2.820000000000000000e+02
3.585356086353344462e+00 6.596460451278589687e+01 2.820000000000000000e+02
4.137931431605461619e+00 6.466281325155408410e+01 2.820000000000000000e+02
4.690506776857578330e+00 6.336102199032227844e+01 2.820000000000000000e+02
5.243082122109695042e+00 6.205923072909047278e+01 2.820000000000000000e+02
5.795657467361811754e+00 6.075743946785866001e+01 2.820000000000000000e+02
6.348232812613928466e+00 5.945564820662685435e+01 2.820000000000000000e+02
6.900808157866045178e+00 5.815385694539504158e+01 2.820000000000000000e+02
7.453383503118161890e+00 5.685206568416323591e+01 2.820000000000000000e+02
8.005958848370278602e+00 5.555027442293142315e+01 2.820000000000000000e+02
2.480205395849111483e+00 6.856818703524950820e+01 2.830000000000000000e+02
3.032780741101228195e+00 6.726639577401770964e+01 2.830000000000000000e+02
3.585356086353344462e+00 6.596460451278589687e+01 2.830000000000000000e+02
4.137931431605461619e+00 6.466281325155408410e+01 2.830000000000000000e+02
4.690506776857578330e+00 6.336102199032227844e+01 2.830000000000000000e+02
5.243082122109695042e+00 6.205923072909047278e+01 2.830000000000000000e+02
5.795657467361811754e+00 6.075743946785866001e+01 2.830000000000000000e+02
6.348232812613928466e+00 5.945564820662685435e+01 2.830000000000000000e+02
6.900808157866045178e+00 5.815385694539504158e+01 2.830000000000000000e+02
7.453383503118161890e+00 5.685206568416323591e+01 2.830000000000000000e+02
8.005958848370278602e+00 5.555027442293142315e+01 2.830000000000000000e+02
2.480205395849111483e+00 6.856818703524950820e+01 2.840000000000000000e+02
3.032780741101228195e+00 6.726639577401770964e+01 2.840000000000000000e+02
3.585356086353344462e+00 6.596460451278589687e+01 2.840000000000000000e+02
4.137931431605461619e+00 6.466281325155408410e+01 2.840000000000000000e+02
4.690506776857578330e+00 6.336102199032227844e+01 2.840000000000000000e+02
5.243082122109695042e+00 6.205923072909047278e+01 2.840000000000000000e+02
5.795657467361811754e+00 6.075743946785866001e+01 2.840000000000000000e+02
6.348232812613928466e+00 5.945564820662685435e+01 2.840000000000000000e+02
6.900808157866045178e+00 5.815385694539504158e+01 2.840000000000000000e+02
7.453383503118161890e+00 5.685206568416323591e+01 2.840000000000000000e+02
8.005958848370278602e+00 5.555027442293142315e+01 2.840000000000000000e+02
2.480205395849111483e+00 6.856818703524950820e+01 2.850000000000000000e+02
3.032780741101228195e+00 6.726639577401770964e+01 2.850000000000000000e+02
3.585356086353344462e+00 6.596460451278589687e+01 2.850000000000000000e+02
4.137931431605461619e+00 6.466281325155408410e+01 2.850000000000000000e+02
4.690506776857578330e+00 6.336102199032227844e+01 2.850000000000000000e+02
5.243082122109695042e+00 6.205923072909047278e+01 2.850000000000000000e+02
5.795657467361811754e+00 6.075743946785866001e+01 2.850000000000000000e+02
6.348232812613928466e+00 5.945564820662685435e+01 2.850000000000000000e+02
6.900808157866045178e+00 5.815385694539504158e+01 2.850000000000000000e+02
7.453383503118161890e+00 5.685206568416323591e+01 2.850000000000000000e+02
8.005958848370278602e+00 5.555027442293142315e+01 2.850000000000000000e+02
2.480205395849111483e+00 6.856818703524950820e+01 2.860000000000000000e+02
3.032780741101228195e+00 6.726639577401770964e+01 2.860000000000000000e+02
3.585356086353344462e+00 6.596460451278589687e+01 2.860000000000000000e+02
4.137931431605461619e+00 6.466281325155408410e+01 2.860000000000000000e+02
4.690506776857578330e+00 6.336102199032227844e+01 2.860000000000000000e+02
5.243082122109695042e+00 6.205923072909047278e+01 2.860000000000000000e+02
5.795657467361811754e+00 6.075743946785866001e+01 2.860000000000000000e+02
6.348232812613928466e+00 5.945564820662685435e+01 2.860000000000000000e+02
6.900808157866045178e+00 5.815385694539504158e+01 2.860000000000000000e+02
7.453383503118161890e+00 5.685206568416323591e+01 2.860000000000000000e+02
2.480205395849111483e+00 6.856818703524950820e+01 2.870000000000000000e+02
3.032780741101228195e+00 6.726639577401770964e+01 2.870000000000000000e+02
3.585356086353344462e+00 6.596460451278589687e+01 2.870000000000000000e+02
4.137931431605461619e+00 6.466281325155408410e+01 2.870000000000000000e+02
4.690506776857578330e+00 6.336102199032227844e+01 2.870000000000000000e+02
5.243082122109695042e+00 6.205923072909047278e+01 2.870000000000000000e+02
5.795657467361811754e+00 6.075743946785866001e+01 2.870000000000000000e+02
6.348232812613928466e+00 5.945564820662685435e+01 2.870000000000000000e+02
6.900808157866045178e+00 5.815385694539504158e+01 2.870000000000000000e+02
7.453383503118161890e+00 5.685206568416323591e+01 2.870000000000000000e+02
8.005958848370278602e+00 5.555027442293142315e+01 2.870000000000000000e+02
2.480205395849111483e+00 6.856818703524950820e+01 2.880000000000000000e+02
3.032780741101228195e+00 6.726639577401770964e+01 2.880000000000000000e+02
3.585356086353344462e+00 6.596460451278589687e+01 2.880000000000000000e+02
4.137931431605461619e+00 6.466281325155408410e+01 2.880000000000000000e+02
4.690506776857578330e+00 6.336102199032227844e+01 2.880000000000000000e+02
5.243082122109695042e+00 6.205923072909047278e+01 2.880000000000000000e+02
5.795657467361811754e+00 6.075743946785866001e+01 2.880000000000000000e+02
6.348232812613928466e+00 5.945564820662685435e+01 2.880000000000000000e+02
6.900808157866045178e+00 5.815385694539504158e+01 2.880000000000000000e+02
7.453383503118161890e+00 5.685206568416323591e+01 2.880000000000000000e+02
8.005958848370278602e+00 5.555027442293142315e+01 2.880000000000000000e+02
2.480205395849111483e+00 6.856818703524950820e+01 2.890000000000000000e+02
3.032780741101228195e+00 6.726639577401770964e+01 2.890000000000000000e+02
3.585356086353344462e+00 6.596460451278589687e+01 2.890000000000000000e+02
4.137931431605461619e+00 6.466281325155408410e+01 2.890000000000000000e+02
4.690506776857578330e+00 6.336102199032227844e+01 2.890000000000000000e+02
5.243082122109695042e+00 6.205923072909047278e+01 2.890000000000000000e+02
5.795657467361811754e+00 6.075743946785866001e+01 2.890000000000000000e+02
6.348232812613928466e+00 5.945564820662685435e+01 2.890000000000000000e+02
6.900808157866045178e+00 5.815385694539504158e+01 2.890000000000000000e+02
7.453383503118161890e+00 5.685206568416323591e+01 2.890000000000000000e+02
8.005958848370278602e+00 5.555027442293142315e+01 2.890000000000000000e+02
2.480205395849111483e+00 6.856818703524950820e+01 2.900000000000000000e+02
3.032780741101228195e+00 6.726639577401770964e+01 2.900000000000000000e+02
3.585356086353344462e+00 6.596460451278589687e+01 2.900000000000000000e+02
4.137931431605461619e+00 6.466281325155408410e+01 2.900000000000000000e+02
4.690506776857578330e+00 6.336102199032227844e+01 2.900000000000000000e+02
5.243082122109695042e+00 6.205923072909047278e+01 2.900000000000000000e+02
5.795657467361811754e+00 6.075743946785866001e+01 2.900000000000000000e+02
