4.190593233946942053e-01 -3.242576757653305108e+00 2.480000000000000000e+02
-8.256234456330011628e-01 -3.913966960505229409e+00 2.480000000000000000e+02
-2.070306214660696753e+00 -4.585357163357153709e+00 2.480000000000000000e+02
4.153107630477780532e+00 -1.228406149097531319e+00 2.490000000000000000e+02
2.908424861450085608e+00 -1.899796351949455619e+00 2.490000000000000000e+02
1.663742092422389796e+00 -2.571186554801380364e+00 2.490000000000000000e+02
4.190593233946942053e-01 -3.242576757653305108e+00 2.490000000000000000e+02
-8.256234456330011628e-01 -3.913966960505229409e+00 2.490000000000000000e+02
-2.070306214660696753e+00 -4.585357163357153709e+00 2.490000000000000000e+02
-3.314988983688392565e+00 -5.256747366209078898e+00 2.490000000000000000e+02
4.153107630477780532e+00 -1.228406149097531319e+00 2.500000000000000000e+02
2.908424861450085608e+00 -1.899796351949455619e+00 2.500000000000000000e+02
1.663742092422389796e+00 -2.571186554801380364e+00 2.500000000000000000e+02
4.190593233946942053e-01 -3.242576757653305108e+00 2.500000000000000000e+02
-8.256234456330011628e-01 -3.913966960505229409e+00 2.500000000000000000e+02
-2.070306214660696753e+00 -4.585357163357153709e+00 2.500000000000000000e+02
-3.314988983688392565e+00 -5.256747366209078898e+00 2.500000000000000000e+02
5.111144116417590588e+00 -1.515052432185416631e+00 2.510000000000000000e+02
3.866461347389894776e+00 -2.186442635037341375e+00 2.510000000000000000e+02
2.621778578362199852e+00 -2.857832837889265676e+00 2.510000000000000000e+02
1.377095809334504262e+00 -3.529223040741190420e+00 2.510000000000000000e+02
1.324130403068086714e-01 -4.200613243593115165e+00 2.510000000000000000e+02
-1.112269728720886919e+00 -4.872003446445039465e+00 2.510000000000000000e+02
-2.356952497748582509e+00 -5.543393649296964654e+00 2.510000000000000000e+02
-3.601635266776278321e+00 -6.214783852148888954e+00 2.510000000000000000e+02
5.111144116417590588e+00 -1.515052432185416631e+00 2.520000000000000000e+02
3.866461347389894776e+00 -2.186442635037341375e+00 2.520000000000000000e+02
2.621778578362199852e+00 -2.857832837889265676e+00 2.520000000000000000e+02
1.377095809334504262e+00 -3.529223040741190420e+00 2.520000000000000000e+02
1.324130403068086714e-01 -4.200613243593115165e+00 2.520000000000000000e+02
-1.112269728720886919e+00 -4.872003446445039465e+00 2.520000000000000000e+02
-2.356952497748582509e+00 -5.543393649296964654e+00 2.520000000000000000e+02
-3.601635266776278321e+00 -6.214783852148888954e+00 2.520000000000000000e+02
5.111144116417590588e+00 -1.515052432185416631e+00 2.530000000000000000e+02
3.866461347389894776e+00 -2.186442635037341375e+00 2.530000000000000000e+02
2.621778578362199852e+00 -2.857832837889265676e+00 2.530000000000000000e+02
1.377095809334504262e+00 -3.529223040741190420e+00 2.530000000000000000e+02
1.324130403068086714e-01 -4.200613243593115165e+00 2.530000000000000000e+02
-1.112269728720886919e+00 -4.872003446445039465e+00 2.530000000000000000e+02
-2.356952497748582509e+00 -5.543393649296964654e+00 2.530000000000000000e+02
-3.601635266776278321e+00 -6.214783852148888954e+00 2.530000000000000000e+02
5.111144116417590588e+00 -1.515052432185416631e+00 2.540000000000000000e+02
3.866461347389894776e+00 -2.186442635037341375e+00 2.540000000000000000e+02
2.621778578362199852e+00 -2.857832837889265676e+00 2.540000000000000000e+02
1.377095809334504262e+00 -3.529223040741190420e+00 2.540000000000000000e+02
1.324130403068086714e-01 -4.200613243593115165e+00 2.540000000000000000e+02
-1.112269728720886919e+00 -4.872003446445039465e+00 2.540000000000000000e+02
-2.356952497748582509e+00 -5.543393649296964654e+00 2.540000000000000000e+02
-3.601635266776278321e+00 -6.214783852148888954e+00 2.540000000000000000e+02
5.111144116417590588e+00 -1.515052432185416631e+00 2.550000000000000000e+02
3.866461347389894776e+00 -2.186442635037341375e+00 2.550000000000000000e+02
2.621778578362199852e+00 -2.857832837889265676e+00 2.550000000000000000e+02
1.377095809334504262e+00 -3.529223040741190420e+00 2.550000000000000000e+02
1.324130403068086714e-01 -4.200613243593115165e+00 2.550000000000000000e+02
-1.112269728720886919e+00 -4.872003446445039465e+00 2.550000000000000000e+02
-2.356952497748582509e+00 -5.543393649296964654e+00 2.550000000000000000e+02
-3.601635266776278321e+00 -6.214783852148888954e+00 2.550000000000000000e+02
4.153107630477780532e+00 -1.228406149097531319e+00 2.560000000000000000e+02
2.908424861450085608e+00 -1.899796351949455619e+00 2.560000000000000000e+02
1.663742092422389796e+00 -2.571186554801380364e+00 2.560000000000000000e+02
4.190593233946942053e-01 -3.242576757653305108e+00 2.560000000000000000e+02
-8.256234456330011628e-01 -3.913966960505229409e+00 2.560000000000000000e+02
-2.070306214660696753e+00 -4.585357163357153709e+00 2.560000000000000000e+02
-3.314988983688392565e+00 -5.256747366209078898e+00 2.560000000000000000e+02
4.153107630477780532e+00 -1.228406149097531319e+00 2.570000000000000000e+02
2.908424861450085608e+00 -1.899796351949455619e+00 2.570000000000000000e+02
1.663742092422389796e+00 -2.571186554801380364e+00 2.570000000000000000e+02
4.190593233946942053e-01 -3.242576757653305108e+00 2.570000000000000000e+02
-8.256234456330011628e-01 -3.913966960505229409e+00 2.570000000000000000e+02
-2.070306214660696753e+00 -4.585357163357153709e+00 2.570000000000000000e+02
4.153107630477780532e+00 -1.228406149097531319e+00 2.580000000000000000e+02
2.908424861450085608e+00 -1.899796351949455619e+00 2.580000000000000000e+02
1.663742092422389796e+00 -2.571186554801380364e+00 2.580000000000000000e+02
4.190593233946942053e-01 -3.242576757653305108e+00 2.580000000000000000e+02
-8.256234456330011628e-01 -3.913966960505229409e+00 2.580000000000000000e+02
-2.070306214660696753e+00 -4.585357163357153709e+00 2.580000000000000000e+02
4.153107630477780532e+00 -1.228406149097531319e+00 2.590000000000000000e+02
2.908424861450085608e+00 -1.899796351949455619e+00 2.590000000000000000e+02
1.663742092422389796e+00 -2.571186554801380364e+00 2.590000000000000000e+02
4.190593233946942053e-01 -3.242576757653305108e+00 2.590000000000000000e+02
-8.256234456330011628e-01 -3.913966960505229409e+00 2.590000000000000000e+02
-2.070306214660696753e+00 -4.585357163357153709e+00 2.590000000000000000e+02
4.153107630477780532e+00 -1.228406149097531319e+00 2.600000000000000000e+02
2.908424861450085608e+00 -1.899796351949455619e+00 2.600000000000000000e+02
1.663742092422389796e+00 -2.571186554801380364e+00 2.600000000000000000e+02
4.190593233946942053e-01 -3.242576757653305108e+00 2.600000000000000000e+02
-8.256234456330011628e-01 -3.913966960505229409e+00 2.600000000000000000e+02
-2.070306214660696753e+00 -4.585357163357153709e+00 2.600000000000000000e+02
4.153107630477780532e+00 -1.228406149097531319e+00 2.610000000000000000e+02
2.908424861450085608e+00 -1.899796351949455619e+00 2.610000000000000000e+02
1.663742092422389796e+00 -2.571186554801380364e+00 2.610000000000000000e+02
4.190593233946942053e-01 -3.242576757653305108e+00 2.610000000000000000e+02
-8.256234456330011628e-01 -3.913966960505229409e+00 2.610000000000000000e+02
-2.070306214660696753e+00 -4.585357163357153709e+00 2.610000000000000000e+02
4.153107630477780532e+00 -1.228406149097531319e+00 2.620000000000000000e+02
2.908424861450085608e+00 -1.899796351949455619e+00 2.620000000000000000e+02
1.663742092422389796e+00 -2.571186554801380364e+00 2.620000000000000000e+02
4.190593233946942053e-01 -3.242576757653305108e+00 2.620000000000000000e+02
-8.256234456330011628e-01 -3.913966960505229409e+00 2.620000000000000000e+02
-2.070306214660696753e+00 -4.585357163357153709e+00 2.620000000000000000e+02
4.153107630477780532e+00 -1.228406149097531319e+00 2.630000000000000000e+02
2.908424861450085608e+00 -1.899796351949455619e+00 2.630000000000000000e+02
1.663742092422389796e+00 -2.571186554801380364e+00 2.630000000000000000e+02
4.190593233946942053e-01 -3.242576757653305108e+00 2.630000000000000000e+02
-8.256234456330011628e-01 -3.913966960505229409e+00 2.630000000000000000e+02
-2.070306214660696753e+00 -4.585357163357153709e+00 2.630000000000000000e+02
4.153107630477780532e+00 -1.228406149097531319e+00 2.640000000000000000e+02
2.908424861450085608e+00 -1.899796351949455619e+00 2.640000000000000000e+02
1.663742092422389796e+00 -2.571186554801380364e+00 2.640000000000000000e+02
4.190593233946942053e-01 -3.242576757653305108e+00 2.640000000000000000e+02
-8.256234456330011628e-01 -3.913966960505229409e+00 2.640000000000000000e+02
-2.070306214660696753e+00 -4.585357163357153709e+00 2.640000000000000000e+02
4.153107630477780532e+00 -1.228406149097531319e+00 2.650000000000000000e+02
2.908424861450085608e+00 -1.899796351949455619e+00 2.650000000000000000e+02
1.663742092422389796e+00 -2.571186554801380364e+00 2.650000000000000000e+02
4.190593233946942053e-01 -3.242576757653305108e+00 2.650000000000000000e+02
-8.256234456330011628e-01 -3.913966960505229409e+00 2.650000000000000000e+02
-2.070306214660696753e+00 -4.585357163357153709e+00 2.650000000000000000e+02
4.153107630477780532e+00 -1.228406149097531319e+00 2.660000000000000000e+02
2.908424861450085608e+00 -1.899796351949455619e+00 2.660000000000000000e+02
1.663742092422389796e+00 -2.571186554801380364e+00 2.660000000000000000e+02
4.190593233946942053e-01 -3.242576757653305108e+00 2.660000000000000000e+02
-8.256234456330011628e-01 -3.913966960505229409e+00 2.660000000000000000e+02
-2.070306214660696753e+00 -4.585357163357153709e+00 2.660000000000000000e+02
4.153107630477780532e+00 -1.228406149097531319e+00 2.670000000000000000e+02
2.908424861450085608e+00 -1.899796351949455619e+00 2.670000000000000000e+02
1.663742092422389796e+00 -2.571186554801380364e+00 2.670000000000000000e+02
4.190593233946942053e-01 -3.242576757653305108e+00 2.670000000000000000e+02
-8.256234456330011628e-01 -3.913966960505229409e+00 2.670000000000000000e+02
-2.070306214660696753e+00 -4.585357163357153709e+00 2.670000000000000000e+02
4.153107630477780532e+00 -1.228406149097531319e+00 2.680000000000000000e+02
2.908424861450085608e+00 -1.899796351949455619e+00 2.680000000000000000e+02
1.663742092422389796e+00 -2.571186554801380364e+00 2.680000000000000000e+02
4.190593233946942053e-01 -3.242576757653305108e+00 2.680000000000000000e+02
-8.256234456330011628e-01 -3.913966960505229409e+00 2.680000000000000000e+02
-2.070306214660696753e+00 -4.585357163357153709e+00 2.680000000000000000e+02
4.153107630477780532e+00 -1.228406149097531319e+00 2.690000000000000000e+02
2.908424861450085608e+00 -1.899796351949455619e+00 2.690000000000000000e+02
1.663742092422389796e+00 -2.571186554801380364e+00 2.690000000000000000e+02
4.190593233946942053e-01 -3.242576757653305108e+00 2.690000000000000000e+02
-8.256234456330011628e-01 -3.913966960505229409e+00 2.690000000000000000e+02
-2.070306214660696753e+00 -4.585357163357153709e+00 2.690000000000000000e+02
4.153107630477780532e+00 -1.228406149097531319e+00 2.700000000000000000e+02
2.908424861450085608e+00 -1.899796351949455619e+00 2.700000000000000000e+02
1.663742092422389796e+00 -2.571186554801380364e+00 2.700000000000000000e+02
4.190593233946942053e-01 -3.242576757653305108e+00 2.700000000000000000e+02
-8.256234456330011628e-01 -3.913966960505229409e+00 2.700000000000000000e+02
-2.070306214660696753e+00 -4.585357163357153709e+00 2.700000000000000000e+02
4.153107630477780532e+00 -1.228406149097531319e+00 2.710000000000000000e+02
2.908424861450085608e+00 -1.899796351949455619e+00 2.710000000000000000e+02
1.663742092422389796e+00 -2.571186554801380364e+00 2.710000000000000000e+02
4.190593233946942053e-01 -3.242576757653305108e+00 2.710000000000000000e+02
-8.256234456330011628e-01 -3.913966960505229409e+00 2.710000000000000000e+02
-2.070306214660696753e+00 -4.585357163357153709e+00 2.710000000000000000e+02
4.153107630477780532e+00 -1.228406149097531319e+00 2.720000000000000000e+02
2.908424861450085608e+00 -1.899796351949455619e+00 2.720000000000000000e+02
1.663742092422389796e+00 -2.571186554801380364e+00 2.720000000000000000e+02
4.190593233946942053e-01 -3.242576757653305108e+00 2.720000000000000000e+02
-8.256234456330011628e-01 -3.913966960505229409e+00 2.720000000000000000e+02
-2.070306214660696753e+00 -4.585357163357153709e+00 2.720000000000000000e+02
4.153107630477780532e+00 -1.228406149097531319e+00 2.730000000000000000e+02
2.908424861450085608e+00 -1.899796351949455619e+00 2.730000000000000000e+02
1.663742092422389796e+00 -2.571186554801380364e+00 2.730000000000000000e+02
4.190593233946942053e-01 -3.242576757653305108e+00 2.730000000000000000e+02
-8.256234456330011628e-01 -3.913966960505229409e+00 2.730000000000000000e+02
-2.070306214660696753e+00 -4.585357163357153709e+00 2.730000000000000000e+02
-3.314988983688392565e+00 -5.256747366209078898e+00 2.730000000000000000e+02
5.111144116417590588e+00 -1.515052432185416631e+00 2.740000000000000000e+02
3.866461347389894776e+00 -2.186442635037341375e+00 2.740000000000000000e+02
2.621778578362199852e+00 -2.857832837889265676e+00 2.740000000000000000e+02
1.377095809334504262e+00 -3.529223040741190420e+00 2.740000000000000000e+02
1.324130403068086714e-01 -4.200613243593115165e+00 2.740000000000000000e+02
-1.112269728720886919e+00 -4.872003446445039465e+00 2.740000000000000000e+02
-2.356952497748582509e+00 -5.543393649296964654e+00 2.740000000000000000e+02
-3.601635266776278321e+00 -6.214783852148888954e+00 2.740000000000000000e+02
5.111144116417590588e+00 -1.515052432185416631e+00 2.750000000000000000e+02
3.866461347389894776e+00 -2.186442635037341375e+00 2.750000000000000000e+02
2.621778578362199852e+00 -2.857832837889265676e+00 2.750000000000000000e+02
1.377095809334504262e+00 -3.529223040741190420e+00 2.750000000000000000e+02
1.324130403068086714e-01 -4.200613243593115165e+00 2.750000000000000000e+02
-1.112269728720886919e+00 -4.872003446445039465e+00 2.750000000000000000e+02
-2.356952497748582509e+00 -5.543393649296964654e+00 2.750000000000000000e+02
-3.601635266776278321e+00 -6.214783852148888954e+00 2.750000000000000000e+02
5.111144116417590588e+00 -1.515052432185416631e+00 2.760000000000000000e+02
3.866461347389894776e+00 -2.186442635037341375e+00 2.760000000000000000e+02
2.621778578362199852e+00 -2.857832837889265676e+00 2.760000000000000000e+02
1.377095809334504262e+00 -3.529223040741190420e+00 2.760000000000000000e+02
1.324130403068086714e-01 -4.200613243593115165e+00 2.760000000000000000e+02
-1.112269728720886919e+00 -4.872003446445039465e+00 2.760000000000000000e+02
-2.356952497748582509e+00 -5.543393649296964654e+00 2.760000000000000000e+02
-3.601635266776278321e+00 -6.214783852148888954e+00 2.760000000000000000e+02
5.111144116417590588e+00 -1.515052432185416631e+00 2.770000000000000000e+02
3.866461347389894776e+00 -2.186442635037341375e+00 2.770000000000000000e+02
2.621778578362199852e+00 -2.857832837889265676e+00 2.770000000000000000e+02
1.377095809334504262e+00 -3.529223040741190420e+00 2.770000000000000000e+02
1.324130403068086714e-01 -4.200613243593115165e+00 2.770000000000000000e+02
-1.112269728720886919e+00 -4.872003446445039465e+00 2.770000000000000000e+02
-2.356952497748582509e+00 -5.543393649296964654e+00 2.770000000000000000e+02
-3.601635266776278321e+00 -6.214783852148888954e+00 2.770000000000000000e+02
4.153107630477780532e+00 -1.228406149097531319e+00 2.780000000000000000e+02
2.908424861450085608e+00 -1.899796351949455619e+00 2.780000000000000000e+02
1.663742092422389796e+00 -2.571186554801380364e+00 2.780000000000000000e+02
4.190593233946942053e-01 -3.242576757653305108e+00 2.780000000000000000e+02
-8.256234456330011628e-01 -3.913966960505229409e+00 2.780000000000000000e+02
-2.070306214660696753e+00 -4.585357163357153709e+00 2.780000000000000000e+02
4.153107630477780532e+00 -1.228406149097531319e+00 2.790000000000000000e+02
2.908424861450085608e+00 -1.899796351949455619e+00 2.790000000000000000e+02
1.663742092422389796e+00 -2.571186554801380364e+00 2.790000000000000000e+02
4.190593233946942053e-01 -3.242576757653305108e+00 2.790000000000000000e+02
-8.256234456330011628e-01 -3.913966960505229409e+00 2.790000000000000000e+02
-2.070306214660696753e+00 -4.585357163357153709e+00 2.790000000000000000e+02
4.153107630477780532e+00 -1.228406149097531319e+00 2.800000000000000000e+02
2.908424861450085608e+00 -1.899796351949455619e+00 2.800000000000000000e+02
1.663742092422389796e+00 -2.571186554801380364e+00 2.800000000000000000e+02
4.190593233946942053e-01 -3.242576757653305108e+00 2.800000000000000000e+02
-8.256234456330011628e-01 -3.913966960505229409e+00 2.800000000000000000e+02
-2.070306214660696753e+00 -4.585357163357153709e+00 2.800000000000000000e+02
3.195071144537970476e+00 -9.417598660096455632e-01 2.810000000000000000e+02
1.950388375510275329e+00 -1.613150068861570086e+00 2.810000000000000000e+02
7.057056064825797392e-01 -2.284540271713495052e+00 2.810000000000000000e+02
-5.389771625451158510e-01 -2.955930474565419352e+00 2.810000000000000000e+02
-1.783659931572811663e+00 -3.627320677417344097e+00 2.810000000000000000e+02
3.195071144537970476e+00 -9.417598660096455632e-01 2.820000000000000000e+02
1.950388375510275329e+00 -1.613150068861570086e+00 2.820000000000000000e+02
7.057056064825797392e-01 -2.284540271713495052e+00 2.820000000000000000e+02
-5.389771625451158510e-01 -2.955930474565419352e+00 2.820000000000000000e+02
-1.783659931572811663e+00 -3.627320677417344097e+00 2.820000000000000000e+02
4.153107630477780532e+00 -1.228406149097531319e+00 2.830000000000000000e+02
2.908424861450085608e+00 -1.899796351949455619e+00 2.830000000000000000e+02
1.663742092422389796e+00 -2.571186554801380364e+00 2.830000000000000000e+02
4.190593233946942053e-01 -3.242576757653305108e+00 2.830000000000000000e+02
-8.256234456330011628e-01 -3.913966960505229409e+00 2.830000000000000000e+02
-2.070306214660696753e+00 -4.585357163357153709e+00 2.830000000000000000e+02
4.153107630477780532e+00 -1.228406149097531319e+00 2.840000000000000000e+02
2.908424861450085608e+00 -1.899796351949455619e+00 2.840000000000000000e+02
1.663742092422389796e+00 -2.571186554801380364e+00 2.840000000000000000e+02
4.190593233946942053e-01 -3.242576757653305108e+00 2.840000000000000000e+02
-8.256234456330011628e-01 -3.913966960505229409e+00 2.840000000000000000e+02
-2.070306214660696753e+00 -4.585357163357153709e+00 2.840000000000000000e+02
4.153107630477780532e+00 -1.228406149097531319e+00 2.850000000000000000e+02
2.908424861450085608e+00 -1.899796351949455619e+00 2.850000000000000000e+02
1.663742092422389796e+00 -2.571186554801380364e+00 2.850000000000000000e+02
4.190593233946942053e-01 -3.242576757653305108e+00 2.850000000000000000e+02
-8.256234456330011628e-01 -3.913966960505229409e+00 2.850000000000000000e+02
-2.070306214660696753e+00 -4.585357163357153709e+00 2.850000000000000000e+02
4.153107630477780532e+00 -1.228406149097531319e+00 2.860000000000000000e+02
2.908424861450085608e+00 -1.899796351949455619e+00 2.860000000000000000e+02
1.663742092422389796e+00 -2.571186554801380364e+00 2.860000000000000000e+02
4.190593233946942053e-01 -3.242576757653305108e+00 2.860000000000000000e+02
-8.256234456330011628e-01 -3.913966960505229409e+00 2.860000000000000000e+02
-2.070306214660696753e+00 -4.585357163357153709e+00 2.860000000000000000e+02
4.153107630477780532e+00 -1.228406149097531319e+00 2.870000000000000000e+02
2.908424861450085608e+00 -1.899796351949455619e+00 2.870000000000000000e+02
1.663742092422389796e+00 -2.571186554801380364e+00 2.870000000000000000e+02
4.190593233946942053e-01 -3.242576757653305108e+00 2.870000000000000000e+02
-8.256234456330011628e-01 -3.913966960505229409e+00 2.870000000000000000e+02
-2.070306214660696753e+00 -4.585357163357153709e+00 2.870000000000000000e+02
4.153107630477780532e+00 -1.228406149097531319e+00 2.880000000000000000e+02
2.908424861450085608e+00 -1.899796351949455619e+00 2.880000000000000000e+02
1.663742092422389796e+00 -2.571186554801380364e+00 2.880000000000000000e+02
4.190593233946942053e-01 -3.242576757653305108e+00 2.880000000000000000e+02
-8.256234456330011628e-01 -3.913966960505229409e+00 2.880000000000000000e+02
-2.070306214660696753e+00 -4.585357163357153709e+00 2.880000000000000000e+02
4.153107630477780532e+00 -1.228406149097531319e+00 2.890000000000000000e+02
2.908424861450085608e+00 -1.899796351949455619e+00 2.890000000000000000e+02
1.663742092422389796e+00 -2.571186554801380364e+00 2.890000000000000000e+02
4.190593233946942053e-01 -3.242576757653305108e+00 2.890000000000000000e+02
-8.256234456330011628e-01 -3.913966960505229409e+00 2.890000000000000000e+02
-2.070306214660696753e+00 -4.585357163357153709e+00 2.890000000000000000e+02
4.153107630477780532e+00 -1.228406149097531319e+00 2.900000000000000000e+02
2.908424861450085608e+00 -1.899796351949455619e+00 2.900000000000000000e+02
1.663742092422389796e+00 -2.571186554801380364e+00 2.900000000000000000e+02
4.190593233946942053e-01 -3.242576757653305108e+00 2.900000000000000000e+02
-8.256234456330011628e-01 -3.913966960505229409e+00 2.900000000000000000e+02
-2.070306214660696753e+00 -4.585357163357153709e+00 2.900000000000000000e+02
4.153107630477780532e+00 -1.228406149097531319e+00 2.910000000000000000e+02
2.908424861450085608e+00 -1.899796351949455619e+00 2.910000000000000000e+02
1.663742092422389796e+00 -2.571186554801380364e+00 2.910000000000000000e+02
4.190593233946942053e-01 -3.242576757653305108e+00 2.910000000000000000e+02
-8.256234456330011628e-01 -3.913966960505229409e+00 2.910000000000000000e+02
-2.070306214660696753e+00 -4.585357163357153709e+00 2.910000000000000000e+02
4.153107630477780532e+00 -1.228406149097531319e+00 2.920000000000000000e+02
2.908424861450085608e+00 -1.899796351949455619e+00 2.920000000000000000e+02
1.663742092422389796e+00 -2.571186554801380364e+00 2.920000000000000000e+02
4.190593233946942053e-01 -3.242576757653305108e+00 2.920000000000000000e+02
-8.256234456330011628e-01 -3.913966960505229409e+00 2.920000000000000000e+02
-2.070306214660696753e+00 -4.585357163357153709e+00 2.920000000000000000e+02
4.153107630477780532e+00 -1.228406149097531319e+00 2.930000000000000000e+02
2.908424861450085608e+00 -1.899796351949455619e+00 2.930000000000000000e+02
1.663742092422389796e+00 -2.571186554801380364e+00 2.930000000000000000e+02
4.190593233946942053e-01 -3.242576757653305108e+00 2.930000000000000000e+02
-8.256234456330011628e-01 -3.913966960505229409e+00 2.930000000000000000e+02
-2.070306214660696753e+00 -4.585357163357153709e+00 2.930000000000000000e+02
4.153107630477780532e+00 -1.228406149097531319e+00 2.940000000000000000e+02
2.908424861450085608e+00 -1.899796351949455619e+00 2.940000000000000000e+02
1.663742092422389796e+00 -2.571186554801380364e+00 2.940000000000000000e+02
4.190593233946942053e-01 -3.242576757653305108e+00 2.940000000000000000e+02
-8.256234456330011628e-01 -3.913966960505229409e+00 2.940000000000000000e+02
-2.070306214660696753e+00 -4.585357163357153709e+00 2.940000000000000000e+02
5.111144116417590588e+00 -1.515052432185416631e+00 2.950000000000000000e+02
3.866461347389894776e+00 -2.186442635037341375e+00 2.950000000000000000e+02
2.621778578362199852e+00 -2.857832837889265676e+00 2.950000000000000000e+02
1.377095809334504262e+00 -3.529223040741190420e+00 2.950000000000000000e+02
1.324130403068086714e-01 -4.200613243593115165e+00 2.950000000000000000e+02
-1.112269728720886919e+00 -4.872003446445039465e+00 2.950000000000000000e+02
-2.356952497748582509e+00 -5.543393649296964654e+00 2.950000000000000000e+02
5.111144116417590588e+00 -1.515052432185416631e+00 2.960000000000000000e+02
3.866461347389894776e+00 -2.186442635037341375e+00 2.960000000000000000e+02
2.621778578362199852e+00 -2.857832837889265676e+00 2.960000000000000000e+02
1.377095809334504262e+00 -3.529223040741190420e+00 2.960000000000000000e+02
1.324130403068086714e-01 -4.200613243593115165e+00 2.960000000000000000e+02
-1.112269728720886919e+00 -4.872003446445039465e+00 2.960000000000000000e+02
-2.356952497748582509e+00 -5.543393649296964654e+00 2.960000000000000000e+02
5.111144116417590588e+00 -1.515052432185416631e+00 2.970000000000000000e+02
3.866461347389894776e+00 -2.186442635037341375e+00 2.970000000000000000e+02
2.621778578362199852e+00 -2.857832837889265676e+00 2.970000000000000000e+02
1.377095809334504262e+00 -3.529223040741190420e+00 2.970000000000000000e+02
1.324130403068086714e-01 -4.200613243593115165e+00 2.970000000000000000e+02
-1.112269728720886919e+00 -4.872003446445039465e+00 2.970000000000000000e+02
-2.356952497748582509e+00 -5.543393649296964654e+00 2.970000000000000000e+02
4.153107630477780532e+00 -1.228406149097531319e+00 2.980000000000000000e+02
2.908424861450085608e+00 -1.899796351949455619e+00 2.980000000000000000e+02
1.663742092422389796e+00 -2.571186554801380364e+00 2.980000000000000000e+02
4.190593233946942053e-01 -3.242576757653305108e+00 2.980000000000000000e+02
-8.256234456330011628e-01 -3.913966960505229409e+00 2.980000000000000000e+02
-2.070306214660696753e+00 -4.585357163357153709e+00 2.980000000000000000e+02
4.153107630477780532e+00 -1.228406149097531319e+00 2.990000000000000000e+02
2.908424861450085608e+00 -1.899796351949455619e+00 2.990000000000000000e+02
1.663742092422389796e+00 -2.571186554801380364e+00 2.990000000000000000e+02
4.190593233946942053e-01 -3.242576757653305108e+00 2.990000000000000000e+02
-8.256234456330011628e-01 -3.913966960505229409e+00 2.990000000000000000e+02
-2.070306214660696753e+00 -4.585357163357153709e+00 2.990000000000000000e+02
4.153107630477780532e+00 -1.228406149097531319e+00 3.000000000000000000e+02
2.908424861450085608e+00 -1.899796351949455619e+00 3.000000000000000000e+02
1.663742092422389796e+00 -2.571186554801380364e+00 3.000000000000000000e+02
4.190593233946942053e-01 -3.242576757653305108e+00 3.000000000000000000e+02
-8.256234456330011628e-01 -3.913966960505229409e+00 3.000000000000000000e+02
-2.070306214660696753e+00 -4.585357163357153709e+00 3.000000000000000000e+02
4.153107630477780532e+00 -1.228406149097531319e+00 3.010000000000000000e+02
2.908424861450085608e+00 -1.899796351949455619e+00 3.010000000000000000e+02
1.663742092422389796e+00 -2.571186554801380364e+00 3.010000000000000000e+02
4.190593233946942053e-01 -3.242576757653305108e+00 3.010000000000000000e+02
-8.256234456330011628e-01 -3.913966960505229409e+00 3.010000000000000000e+02
-2.070306214660696753e+00 -4.585357163357153709e+00 3.010000000000000000e+02
4.153107630477780532e+00 -1.228406149097531319e+00 3.020000000000000000e+02
2.908424861450085608e+00 -1.899796351949455619e+00 3.020000000000000000e+02
1.663742092422389796e+00 -2.571186554801380364e+00 3.020000000000000000e+02
4.190593233946942053e-01 -3.242576757653305108e+00 3.020000000000000000e+02
-8.256234456330011628e-01 -3.913966960505229409e+00 3.020000000000000000e+02
-2.070306214660696753e+00 -4.585357163357153709e+00 3.020000000000000000e+02
4.153107630477780532e+00 -1.228406149097531319e+00 3.030000000000000000e+02
2.908424861450085608e+00 -1.899796351949455619e+00 3.030000000000000000e+02
1.663742092422389796e+00 -2.571186554801380364e+00 3.030000000000000000e+02
4.190593233946942053e-01 -3.242576757653305108e+00 3.030000000000000000e+02
-8.256234456330011628e-01 -3.913966960505229409e+00 3.030000000000000000e+02
-2.070306214660696753e+00 -4.585357163357153709e+00 3.030000000000000000e+02
5.111144116417590588e+00 -1.515052432185416631e+00 3.040000000000000000e+02
3.866461347389894776e+00 -2.186442635037341375e+00 3.040000000000000000e+02
2.621778578362199852e+00 -2.857832837889265676e+00 3.040000000000000000e+02
1.377095809334504262e+00 -3.529223040741190420e+00 3.040000000000000000e+02
1.324130403068086714e-01 -4.200613243593115165e+00 3.040000000000000000e+02
-1.112269728720886919e+00 -4.872003446445039465e+00 3.040000000000000000e+02
-2.356952497748582509e+00 -5.543393649296964654e+00 3.040000000000000000e+02
4.153107630477780532e+00 -1.228406149097531319e+00 3.050000000000000000e+02
2.908424861450085608e+00 -1.899796351949455619e+00 3.050000000000000000e+02
1.663742092422389796e+00 -2.571186554801380364e+00 3.050000000000000000e+02
4.190593233946942053e-01 -3.242576757653305108e+00 3.050000000000000000e+02
-8.256234456330011628e-01 -3.913966960505229409e+00 3.050000000000000000e+02
-2.070306214660696753e+00 -4.585357163357153709e+00 3.050000000000000000e+02
4.153107630477780532e+00 -1.228406149097531319e+00 3.060000000000000000e+02
2.908424861450085608e+00 -1.899796351949455619e+00 3.060000000000000000e+02
1.663742092422389796e+00 -2.571186554801380364e+00 3.060000000000000000e+02
4.190593233946942053e-01 -3.242576757653305108e+00 3.060000000000000000e+02
-8.256234456330011628e-01 -3.913966960505229409e+00 3.060000000000000000e+02
-2.070306214660696753e+00 -4.585357163357153709e+00 3.060000000000000000e+02
4.153107630477780532e+00 -1.228406149097531319e+00 3.070000000000000000e+02
2.908424861450085608e+00 -1.899796351949455619e+00 3.070000000000000000e+02
1.663742092422389796e+00 -2.571186554801380364e+00 3.070000000000000000e+02
4.190593233946942053e-01 -3.242576757653305108e+00 3.070000000000000000e+02
-8.256234456330011628e-01 -3.913966960505229409e+00 3.070000000000000000e+02
-2.070306214660696753e+00 -4.585357163357153709e+00 3.070000000000000000e+02
4.153107630477780532e+00 -1.228406149097531319e+00 3.080000000000000000e+02
2.908424861450085608e+00 -1.899796351949455619e+00 3.080000000000000000e+02
1.663742092422389796e+00 -2.571186554801380364e+00 3.080000000000000000e+02
4.190593233946942053e-01 -3.242576757653305108e+00 3.080000000000000000e+02
-8.256234456330011628e-01 -3.913966960505229409e+00 3.080000000000000000e+02
-2.070306214660696753e+00 -4.585357163357153709e+00 3.080000000000000000e+02
4.153107630477780532e+00 -1.228406149097531319e+00 3.090000000000000000e+02
2.908424861450085608e+00 -1.899796351949455619e+00 3.090000000000000000e+02
1.663742092422389796e+00 -2.571186554801380364e+00 3.090000000000000000e+02
4.190593233946942053e-01 -3.242576757653305108e+00 3.090000000000000000e+02
-8.256234456330011628e-01 -3.913966960505229409e+00 3.090000000000000000e+02
-2.070306214660696753e+00 -4.585357163357153709e+00 3.090000000000000000e+02
4.153107630477780532e+00 -1.228406149097531319e+00 3.100000000000000000e+02
2.908424861450085608e+00 -1.899796351949455619e+00 3.100000000000000000e+02
1.663742092422389796e+00 -2.571186554801380364e+00 3.100000000000000000e+02
4.190593233946942053e-01 -3.242576757653305108e+00 3.100000000000000000e+02
-8.256234456330011628e-01 -3.913966960505229409e+00 3.100000000000000000e+02
-2.070306214660696753e+00 -4.585357163357153709e+00 3.100000000000000000e+02
4.153107630477780532e+00 -1.228406149097531319e+00 3.110000000000000000e+02
2.908424861450085608e+00 -1.899796351949455619e+00 3.110000000000000000e+02
1.663742092422389796e+00 -2.571186554801380364e+00 3.110000000000000000e+02
4.190593233946942053e-01 -3.242576757653305108e+00 3.110000000000000000e+02
-8.256234456330011628e-01 -3.913966960505229409e+00 3.110000000000000000e+02
-2.070306214660696753e+00 -4.585357163357153709e+00 3.110000000000000000e+02
4.153107630477780532e+00 -1.228406149097531319e+00 3.120000000000000000e+02
2.908424861450085608e+00 -1.899796351949455619e+00 3.120000000000000000e+02
1.663742092422389796e+00 -2.571186554801380364e+00 3.120000000000000000e+02
4.190593233946942053e-01 -3.242576757653305108e+00 3.120000000000000000e+02
-8.256234456330011628e-01 -3.913966960505229409e+00 3.120000000000000000e+02
-2.070306214660696753e+00 -4.585357163357153709e+00 3.120000000000000000e+02
5.111144116417590588e+00 -1.515052432185416631e+00 3.130000000000000000e+02
3.866461347389894776e+00 -2.186442635037341375e+00 3.130000000000000000e+02
2.621778578362199852e+00 -2.857832837889265676e+00 3.130000000000000000e+02
1.377095809334504262e+00 -3.529223040741190420e+00 3.130000000000000000e+02
1.324130403068086714e-01 -4.200613243593115165e+00 3.130000000000000000e+02
-1.112269728720886919e+00 -4.872003446445039465e+00 3.130000000000000000e+02
-2.356952497748582509e+00 -5.543393649296964654e+00 3.130000000000000000e+02
4.153107630477780532e+00 -1.228406149097531319e+00 3.140000000000000000e+02
2.908424861450085608e+00 -1.899796351949455619e+00 3.140000000000000000e+02
1.663742092422389796e+00 -2.571186554801380364e+00 3.140000000000000000e+02
4.190593233946942053e-01 -3.242576757653305108e+00 3.140000000000000000e+02
-8.256234456330011628e-01 -3.913966960505229409e+00 3.140000000000000000e+02
-2.070306214660696753e+00 -4.585357163357153709e+00 3.140000000000000000e+02
4.153107630477780532e+00 -1.228406149097531319e+00 3.150000000000000000e+02
2.908424861450085608e+00 -1.899796351949455619e+00 3.150000000000000000e+02
1.663742092422389796e+00 -2.571186554801380364e+00 3.150000000000000000e+02
4.190593233946942053e-01 -3.242576757653305108e+00 3.150000000000000000e+02
-8.256234456330011628e-01 -3.913966960505229409e+00 3.150000000000000000e+02
-2.070306214660696753e+00 -4.585357163357153709e+00 3.150000000000000000e+02
4.153107630477780532e+00 -1.228406149097531319e+00 3.160000000000000000e+02
2.908424861450085608e+00 -1.899796351949455619e+00 3.160000000000000000e+02
1.663742092422389796e+00 -2.571186554801380364e+00 3.160000000000000000e+02
4.190593233946942053e-01 -3.242576757653305108e+00 3.160000000000000000e+02
-8.256234456330011628e-01 -3.913966960505229409e+00 3.160000000000000000e+02
-2.070306214660696753e+00 -4.585357163357153709e+00 3.160000000000000000e+02
4.153107630477780532e+00 -1.228406149097531319e+00 3.170000000000000000e+02
2.908424861450085608e+00 -1.899796351949455619e+00 3.170000000000000000e+02
1.663742092422389796e+00 -2.571186554801380364e+00 3.170000000000000000e+02
4.190593233946942053e-01 -3.242576757653305108e+00 3.170000000000000000e+02
-8.256234456330011628e-01 -3.913966960505229409e+00 3.170000000000000000e+02
-2.070306214660696753e+00 -4.585357163357153709e+00 3.170000000000000000e+02
4.153107630477780532e+00 -1.228406149097531319e+00 3.180000000000000000e+02
2.908424861450085608e+00 -1.899796351949455619e+00 3.180000000000000000e+02
1.663742092422389796e+00 -2.571186554801380364e+00 3.180000000000000000e+02
4.190593233946942053e-01 -3.242576757653305108e+00 3.180000000000000000e+02
-8.256234456330011628e-01 -3.913966960505229409e+00 3.180000000000000000e+02
-2.070306214660696753e+00 -4.585357163357153709e+00 3.180000000000000000e+02
4.153107630477780532e+00 -1.228406149097531319e+00 3.190000000000000000e+02
2.908424861450085608e+00 -1.899796351949455619e+00 3.190000000000000000e+02
1.663742092422389796e+00 -2.571186554801380364e+00 3.190000000000000000e+02
4.190593233946942053e-01 -3.242576757653305108e+00 3.190000000000000000e+02
-8.256234456330011628e-01 -3.913966960505229409e+00 3.190000000000000000e+02
-2.070306214660696753e+00 -4.585357163357153709e+00 3.190000000000000000e+02
5.111144116417590588e+00 -1.515052432185416631e+00 3.200000000000000000e+02
3.866461347389894776e+00 -2.186442635037341375e+00 3.200000000000000000e+02
2.621778578362199852e+00 -2.857832837889265676e+00 3.200000000000000000e+02
1.377095809334504262e+00 -3.529223040741190420e+00 3.200000000000000000e+02
1.324130403068086714e-01 -4.200613243593115165e+00 3.200000000000000000e+02
-1.112269728720886919e+00 -4.872003446445039465e+00 3.200000000000000000e+02
-2.356952497748582509e+00 -5.543393649296964654e+00 3.200000000000000000e+02
5.111144116417590588e+00 -1.515052432185416631e+00 3.210000000000000000e+02
3.866461347389894776e+00 -2.186442635037341375e+00 3.210000000000000000e+02
2.621778578362199852e+00 -2.857832837889265676e+00 3.210000000000000000e+02
1.377095809334504262e+00 -3.529223040741190420e+00 3.210000000000000000e+02
1.324130403068086714e-01 -4.200613243593115165e+00 3.210000000000000000e+02
-1.112269728720886919e+00 -4.872003446445039465e+00 3.210000000000000000e+02
-2.356952497748582509e+00 -5.543393649296964654e+00 3.210000000000000000e+02
5.111144116417590588e+00 -1.515052432185416631e+00 3.220000000000000000e+02
3.866461347389894776e+00 -2.186442635037341375e+00 3.220000000000000000e+02
2.621778578362199852e+00 -2.857832837889265676e+00 3.220000000000000000e+02
1.377095809334504262e+00 -3.529223040741190420e+00 3.220000000000000000e+02
1.324130403068086714e-01 -4.200613243593115165e+00 3.220000000000000000e+02
-1.112269728720886919e+00 -4.872003446445039465e+00 3.220000000000000000e+02
-2.356952497748582509e+00 -5.543393649296964654e+00 3.220000000000000000e+02
5.111144116417590588e+00 -1.515052432185416631e+00 3.230000000000000000e+02
3.866461347389894776e+00 -2.186442635037341375e+00 3.230000000000000000e+02
2.621778578362199852e+00 -2.857832837889265676e+00 3.230000000000000000e+02
1.377095809334504262e+00 -3.529223040741190420e+00 3.230000000000000000e+02
1.324130403068086714e-01 -4.200613243593115165e+00 3.230000000000000000e+02
-1.112269728720886919e+00 -4.872003446445039465e+00 3.230000000000000000e+02
-2.356952497748582509e+00 -5.543393649296964654e+00 3.230000000000000000e+02
-3.601635266776278321e+00 -6.214783852148888954e+00 3.230000000000000000e+02
5.111144116417590588e+00 -1.515052432185416631e+00 3.240000000000000000e+02
3.866461347389894776e+00 -2.186442635037341375e+00 3.240000000000000000e+02
2.621778578362199852e+00 -2.857832837889265676e+00 3.240000000000000000e+02
1.377095809334504262e+00 -3.529223040741190420e+00 3.240000000000000000e+02
1.324130403068086714e-01 -4.200613243593115165e+00 3.240000000000000000e+02
-1.112269728720886919e+00 -4.872003446445039465e+00 3.240000000000000000e+02
-2.356952497748582509e+00 -5.543393649296964654e+00 3.240000000000000000e+02
-3.601635266776278321e+00 -6.214783852148888954e+00 3.240000000000000000e+02
4.153107630477780532e+00 -1.228406149097531319e+00 3.250000000000000000e+02
2.908424861450085608e+00 -1.899796351949455619e+00 3.250000000000000000e+02
1.663742092422389796e+00 -2.571186554801380364e+00 3.250000000000000000e+02
4.190593233946942053e-01 -3.242576757653305108e+00 3.250000000000000000e+02
-8.256234456330011628e-01 -3.913966960505229409e+00 3.250000000000000000e+02
-2.070306214660696753e+00 -4.585357163357153709e+00 3.250000000000000000e+02
4.153107630477780532e+00 -1.228406149097531319e+00 3.260000000000000000e+02
2.908424861450085608e+00 -1.899796351949455619e+00 3.260000000000000000e+02
1.663742092422389796e+00 -2.571186554801380364e+00 3.260000000000000000e+02
4.190593233946942053e-01 -3.242576757653305108e+00 3.260000000000000000e+02
-8.256234456330011628e-01 -3.913966960505229409e+00 3.260000000000000000e+02
-2.070306214660696753e+00 -4.585357163357153709e+00 3.260000000000000000e+02
4.153107630477780532e+00 -1.228406149097531319e+00 3.270000000000000000e+02
2.908424861450085608e+00 -1.899796351949455619e+00 3.270000000000000000e+02
1.663742092422389796e+00 -2.571186554801380364e+00 3.270000000000000000e+02
4.190593233946942053e-01 -3.242576757653305108e+00 3.270000000000000000e+02
-8.256234456330011628e-01 -3.913966960505229409e+00 3.270000000000000000e+02
-2.070306214660696753e+00 -4.585357163357153709e+00 3.270000000000000000e+02
4.153107630477780532e+00 -1.228406149097531319e+00 3.280000000000000000e+02
2.908424861450085608e+00 -1.899796351949455619e+00 3.280000000000000000e+02
1.663742092422389796e+00 -2.571186554801380364e+00 3.280000000000000000e+02
4.190593233946942053e-01 -3.242576757653305108e+00 3.280000000000000000e+02
-8.256234456330011628e-01 -3.913966960505229409e+00 3.280000000000000000e+02
-2.070306214660696753e+00 -4.585357163357153709e+00 3.280000000000000000e+02
4.153107630477780532e+00 -1.228406149097531319e+00 3.290000000000000000e+02
2.908424861450085608e+00 -1.899796351949455619e+00 3.290000000000000000e+02
1.663742092422389796e+00 -2.571186554801380364e+00 3.290000000000000000e+02
4.190593233946942053e-01 -3.242576757653305108e+00 3.290000000000000000e+02
-8.256234456330011628e-01 -3.913966960505229409e+00 3.290000000000000000e+02
-2.070306214660696753e+00 -4.585357163357153709e+00 3.290000000000000000e+02
5.111144116417590588e+00 -1.515052432185416631e+00 3.300000000000000000e+02
3.866461347389894776e+00 -2.186442635037341375e+00 3.300000000000000000e+02
2.621778578362199852e+00 -2.857832837889265676e+00 3.300000000000000000e+02
1.377095809334504262e+00 -3.529223040741190420e+00 3.300000000000000000e+02
1.324130403068086714e-01 -4.200613243593115165e+00 3.300000000000000000e+02
-1.112269728720886919e+00 -4.872003446445039465e+00 3.300000000000000000e+02
-2.356952497748582509e+00 -5.543393649296964654e+00 3.300000000000000000e+02
5.111144116417590588e+00 -1.515052432185416631e+00 3.310000000000000000e+02
3.866461347389894776e+00 -2.186442635037341375e+00 3.310000000000000000e+02
2.621778578362199852e+00 -2.857832837889265676e+00 3.310000000000000000e+02
1.377095809334504262e+00 -3.529223040741190420e+00 3.310000000000000000e+02
1.324130403068086714e-01 -4.200613243593115165e+00 3.310000000000000000e+02
-1.112269728720886919e+00 -4.872003446445039465e+00 3.310000000000000000e+02
-2.356952497748582509e+00 -5.543393649296964654e+00 3.310000000000000000e+02
5.111144116417590588e+00 -1.515052432185416631e+00 3.320000000000000000e+02
3.866461347389894776e+00 -2.186442635037341375e+00 3.320000000000000000e+02
2.621778578362199852e+00 -2.857832837889265676e+00 3.320000000000000000e+02
1.377095809334504262e+00 -3.529223040741190420e+00 3.320000000000000000e+02
1.324130403068086714e-01 -4.200613243593115165e+00 3.320000000000000000e+02
-1.112269728720886919e+00 -4.872003446445039465e+00 3.320000000000000000e+02
-2.356952497748582509e+00 -5.543393649296964654e+00 3.320000000000000000e+02
5.111144116417590588e+00 -1.515052432185416631e+00 3.330000000000000000e+02
3.866461347389894776e+00 -2.186442635037341375e+00 3.330000000000000000e+02
2.621778578362199852e+00 -2.857832837889265676e+00 3.330000000000000000e+02
1.377095809334504262e+00 -3.529223040741190420e+00 3.330000000000000000e+02
1.324130403068086714e-01 -4.200613243593115165e+00 3.330000000000000000e+02
-1.112269728720886919e+00 -4.872003446445039465e+00 3.330000000000000000e+02
-2.356952497748582509e+00 -5.543393649296964654e+00 3.330000000000000000e+02
5.111144116417590588e+00 -1.515052432185416631e+00 3.340000000000000000e+02
3.866461347389894776e+00 -2.186442635037341375e+00 3.340000000000000000e+02
2.621778578362199852e+00 -2.857832837889265676e+00 3.340000000000000000e+02
1.377095809334504262e+00 -3.529223040741190420e+00 3.340000000000000000e+02
1.324130403068086714e-01 -4.200613243593115165e+00 3.340000000000000000e+02
-1.112269728720886919e+00 -4.872003446445039465e+00 3.340000000000000000e+02
-2.356952497748582509e+00 -5.543393649296964654e+00 3.340000000000000000e+02
4.153107630477780532e+00 -1.228406149097531319e+00 3.350000000000000000e+02
2.908424861450085608e+00 -1.899796351949455619e+00 3.350000000000000000e+02
1.663742092422389796e+00 -2.571186554801380364e+00 3.350000000000000000e+02
4.190593233946942053e-01 -3.242576757653305108e+00 3.350000000000000000e+02
-8.256234456330011628e-01 -3.913966960505229409e+00 3.350000000000000000e+02
-2.070306214660696753e+00 -4.585357163357153709e+00 3.350000000000000000e+02
5.111144116417590588e+00 -1.515052432185416631e+00 3.360000000000000000e+02
3.866461347389894776e+00 -2.186442635037341375e+00 3.360000000000000000e+02
2.621778578362199852e+00 -2.857832837889265676e+00 3.360000000000000000e+02
1.377095809334504262e+00 -3.529223040741190420e+00 3.360000000000000000e+02
1.324130403068086714e-01 -4.200613243593115165e+00 3.360000000000000000e+02
-1.112269728720886919e+00 -4.872003446445039465e+00 3.360000000000000000e+02
-2.356952497748582509e+00 -5.543393649296964654e+00 3.360000000000000000e+02
5.111144116417590588e+00 -1.515052432185416631e+00 3.370000000000000000e+02
3.866461347389894776e+00 -2.186442635037341375e+00 3.370000000000000000e+02
2.621778578362199852e+00 -2.857832837889265676e+00 3.370000000000000000e+02
1.377095809334504262e+00 -3.529223040741190420e+00 3.370000000000000000e+02
1.324130403068086714e-01 -4.200613243593115165e+00 3.370000000000000000e+02
-1.112269728720886919e+00 -4.872003446445039465e+00 3.370000000000000000e+02
-2.356952497748582509e+00 -5.543393649296964654e+00 3.370000000000000000e+02
5.111144116417590588e+00 -1.515052432185416631e+00 3.380000000000000000e+02
3.866461347389894776e+00 -2.186442635037341375e+00 3.380000000000000000e+02
2.621778578362199852e+00 -2.857832837889265676e+00 3.380000000000000000e+02
1.377095809334504262e+00 -3.529223040741190420e+00 3.380000000000000000e+02
1.324130403068086714e-01 -4.200613243593115165e+00 3.380000000000000000e+02
-1.112269728720886919e+00 -4.872003446445039465e+00 3.380000000000000000e+02
-2.356952497748582509e+00 -5.543393649296964654e+00 3.380000000000000000e+02
5.111144116417590588e+00 -1.515052432185416631e+00 3.390000000000000000e+02
3.866461347389894776e+00 -2.186442635037341375e+00 3.390000000000000000e+02
2.621778578362199852e+00 -2.857832837889265676e+00 3.390000000000000000e+02
1.377095809334504262e+00 -3.529223040741190420e+00 3.390000000000000000e+02
1.324130403068086714e-01 -4.200613243593115165e+00 3.390000000000000000e+02
-1.112269728720886919e+00 -4.872003446445039465e+00 3.390000000000000000e+02
-2.356952497748582509e+00 -5.543393649296964654e+00 3.390000000000000000e+02
5.111144116417590588e+00 -1.515052432185416631e+00 3.400000000000000000e+02
3.866461347389894776e+00 -2.186442635037341375e+00 3.400000000000000000e+02
2.621778578362199852e+00 -2.857832837889265676e+00 3.400000000000000000e+02
1.377095809334504262e+00 -3.529223040741190420e+00 3.400000000000000000e+02
1.324130403068086714e-01 -4.200613243593115165e+00 3.400000000000000000e+02
-1.112269728720886919e+00 -4.872003446445039465e+00 3.400000000000000000e+02
-2.356952497748582509e+00 -5.543393649296964654e+00 3.400000000000000000e+02
5.111144116417590588e+00 -1.515052432185416631e+00 3.410000000000000000e+02
3.866461347389894776e+00 -2.186442635037341375e+00 3.410000000000000000e+02
2.621778578362199852e+00 -2.857832837889265676e+00 3.410000000000000000e+02
1.377095809334504262e+00 -3.529223040741190420e+00 3.410000000000000000e+02
1.324130403068086714e-01 -4.200613243593115165e+00 3.410000000000000000e+02
-1.112269728720886919e+00 -4.872003446445039465e+00 3.410000000000000000e+02
-2.356952497748582509e+00 -5.543393649296964654e+00 3.410000000000000000e+02
5.111144116417590588e+00 -1.515052432185416631e+00 3.420000000000000000e+02
3.866461347389894776e+00 -2.186442635037341375e+00 3.420000000000000000e+02
2.621778578362199852e+00 -2.857832837889265676e+00 3.420000000000000000e+02
1.377095809334504262e+00 -3.529223040741190420e+00 3.420000000000000000e+02
1.324130403068086714e-01 -4.200613243593115165e+00 3.420000000000000000e+02
-1.112269728720886919e+00 -4.872003446445039465e+00 3.420000000000000000e+02
-2.356952497748582509e+00 -5.543393649296964654e+00 3.420000000000000000e+02
5.111144116417590588e+00 -1.515052432185416631e+00 3.430000000000000000e+02
3.866461347389894776e+00 -2.186442635037341375e+00 3.430000000000000000e+02
2.621778578362199852e+00 -2.857832837889265676e+00 3.430000000000000000e+02
1.377095809334504262e+00 -3.529223040741190420e+00 3.430000000000000000e+02
1.324130403068086714e-01 -4.200613243593115165e+00 3.430000000000000000e+02
-1.112269728720886919e+00 -4.872003446445039465e+00 3.430000000000000000e+02
-2.356952497748582509e+00 -5.543393649296964654e+00 3.430000000000000000e+02
5.111144116417590588e+00 -1.515052432185416631e+00 3.440000000000000000e+02
3.866461347389894776e+00 -2.186442635037341375e+00 3.440000000000000000e+02
2.621778578362199852e+00 -2.857832837889265676e+00 3.440000000000000000e+02
1.377095809334504262e+00 -3.529223040741190420e+00 3.440000000000000000e+02
1.324130403068086714e-01 -4.200613243593115165e+00 3.440000000000000000e+02
-1.112269728720886919e+00 -4.872003446445039465e+00 3.440000000000000000e+02
-2.356952497748582509e+00 -5.543393649296964654e+00 3.440000000000000000e+02
5.111144116417590588e+00 -1.515052432185416631e+00 3.450000000000000000e+02
3.866461347389894776e+00 -2.186442635037341375e+00 3.450000000000000000e+02
2.621778578362199852e+00 -2.857832837889265676e+00 3.450000000000000000e+02
