3.441885913082558535e+00 3.415349684954762211e+00 3.360000000000000000e+02
-3.535155107198556745e+00 -5.490878394390312778e+00 3.370000000000000000e+02
-2.663024979663417113e+00 -4.377599884472178182e+00 3.370000000000000000e+02
-1.790894852128277925e+00 -3.264321374554043587e+00 3.370000000000000000e+02
-9.187647245931381823e-01 -2.151042864635909435e+00 3.370000000000000000e+02
-4.663459705799879312e-02 -1.037764354717774840e+00 3.370000000000000000e+02
8.254955304771406377e-01 7.551415520035953399e-02 3.370000000000000000e+02
1.697625658012279937e+00 1.188792665118493685e+00 3.370000000000000000e+02
2.569755785547419347e+00 2.302071175036628503e+00 3.370000000000000000e+02
3.441885913082558535e+00 3.415349684954762211e+00 3.370000000000000000e+02
4.314016040617697278e+00 4.528628194872896806e+00 3.370000000000000000e+02
-3.535155107198556745e+00 -5.490878394390312778e+00 3.380000000000000000e+02
-2.663024979663417113e+00 -4.377599884472178182e+00 3.380000000000000000e+02
-1.790894852128277925e+00 -3.264321374554043587e+00 3.380000000000000000e+02
-9.187647245931381823e-01 -2.151042864635909435e+00 3.380000000000000000e+02
-4.663459705799879312e-02 -1.037764354717774840e+00 3.380000000000000000e+02
8.254955304771406377e-01 7.551415520035953399e-02 3.380000000000000000e+02
1.697625658012279937e+00 1.188792665118493685e+00 3.380000000000000000e+02
2.569755785547419347e+00 2.302071175036628503e+00 3.380000000000000000e+02
3.441885913082558535e+00 3.415349684954762211e+00 3.380000000000000000e+02
4.314016040617697278e+00 4.528628194872896806e+00 3.380000000000000000e+02
-3.535155107198556745e+00 -5.490878394390312778e+00 3.390000000000000000e+02
-2.663024979663417113e+00 -4.377599884472178182e+00 3.390000000000000000e+02
-1.790894852128277925e+00 -3.264321374554043587e+00 3.390000000000000000e+02
-9.187647245931381823e-01 -2.151042864635909435e+00 3.390000000000000000e+02
-4.663459705799879312e-02 -1.037764354717774840e+00 3.390000000000000000e+02
8.254955304771406377e-01 7.551415520035953399e-02 3.390000000000000000e+02
1.697625658012279937e+00 1.188792665118493685e+00 3.390000000000000000e+02
2.569755785547419347e+00 2.302071175036628503e+00 3.390000000000000000e+02
3.441885913082558535e+00 3.415349684954762211e+00 3.390000000000000000e+02
4.314016040617697278e+00 4.528628194872896806e+00 3.390000000000000000e+02
-3.535155107198556745e+00 -5.490878394390312778e+00 3.400000000000000000e+02
-2.663024979663417113e+00 -4.377599884472178182e+00 3.400000000000000000e+02
-1.790894852128277925e+00 -3.264321374554043587e+00 3.400000000000000000e+02
-9.187647245931381823e-01 -2.151042864635909435e+00 3.400000000000000000e+02
-4.663459705799879312e-02 -1.037764354717774840e+00 3.400000000000000000e+02
8.254955304771406377e-01 7.551415520035953399e-02 3.400000000000000000e+02
1.697625658012279937e+00 1.188792665118493685e+00 3.400000000000000000e+02
2.569755785547419347e+00 2.302071175036628503e+00 3.400000000000000000e+02
3.441885913082558535e+00 3.415349684954762211e+00 3.400000000000000000e+02
4.314016040617697278e+00 4.528628194872896806e+00 3.400000000000000000e+02
-3.535155107198556745e+00 -5.490878394390312778e+00 3.410000000000000000e+02
-2.663024979663417113e+00 -4.377599884472178182e+00 3.410000000000000000e+02
-1.790894852128277925e+00 -3.264321374554043587e+00 3.410000000000000000e+02
-9.187647245931381823e-01 -2.151042864635909435e+00 3.410000000000000000e+02
-4.663459705799879312e-02 -1.037764354717774840e+00 3.410000000000000000e+02
8.254955304771406377e-01 7.551415520035953399e-02 3.410000000000000000e+02
1.697625658012279937e+00 1.188792665118493685e+00 3.410000000000000000e+02
2.569755785547419347e+00 2.302071175036628503e+00 3.410000000000000000e+02
3.441885913082558535e+00 3.415349684954762211e+00 3.410000000000000000e+02
4.314016040617697278e+00 4.528628194872896806e+00 3.410000000000000000e+02
-2.542450788471919410e+00 -5.370304203198815074e+00 3.420000000000000000e+02
-1.670320660936780444e+00 -4.257025693280680478e+00 3.420000000000000000e+02
-7.981905334016407005e-01 -3.143747183362545883e+00 3.420000000000000000e+02
7.393959413349870946e-02 -2.030468673444411731e+00 3.420000000000000000e+02
9.460697216686381195e-01 -9.171901635262774688e-01 3.420000000000000000e+02
1.818199849203777418e+00 1.960883463918570158e-01 3.420000000000000000e+02
2.690329976738916606e+00 1.309366856309991389e+00 3.420000000000000000e+02
3.562460104274056238e+00 2.422645366228125319e+00 3.420000000000000000e+02
4.434590231809194982e+00 3.535923876146259914e+00 3.420000000000000000e+02
-2.542450788471919410e+00 -5.370304203198815074e+00 3.430000000000000000e+02
-1.670320660936780444e+00 -4.257025693280680478e+00 3.430000000000000000e+02
-7.981905334016407005e-01 -3.143747183362545883e+00 3.430000000000000000e+02
7.393959413349870946e-02 -2.030468673444411731e+00 3.430000000000000000e+02
9.460697216686381195e-01 -9.171901635262774688e-01 3.430000000000000000e+02
1.818199849203777418e+00 1.960883463918570158e-01 3.430000000000000000e+02
2.690329976738916606e+00 1.309366856309991389e+00 3.430000000000000000e+02
3.562460104274056238e+00 2.422645366228125319e+00 3.430000000000000000e+02
4.434590231809194982e+00 3.535923876146259914e+00 3.430000000000000000e+02
-2.542450788471919410e+00 -5.370304203198815074e+00 3.440000000000000000e+02
-1.670320660936780444e+00 -4.257025693280680478e+00 3.440000000000000000e+02
-7.981905334016407005e-01 -3.143747183362545883e+00 3.440000000000000000e+02
7.393959413349870946e-02 -2.030468673444411731e+00 3.440000000000000000e+02
9.460697216686381195e-01 -9.171901635262774688e-01 3.440000000000000000e+02
1.818199849203777418e+00 1.960883463918570158e-01 3.440000000000000000e+02
2.690329976738916606e+00 1.309366856309991389e+00 3.440000000000000000e+02
3.562460104274056238e+00 2.422645366228125319e+00 3.440000000000000000e+02
4.434590231809194982e+00 3.535923876146259914e+00 3.440000000000000000e+02
-2.542450788471919410e+00 -5.370304203198815074e+00 3.450000000000000000e+02
-1.670320660936780444e+00 -4.257025693280680478e+00 3.450000000000000000e+02
-7.981905334016407005e-01 -3.143747183362545883e+00 3.450000000000000000e+02
7.393959413349870946e-02 -2.030468673444411731e+00 3.450000000000000000e+02
9.460697216686381195e-01 -9.171901635262774688e-01 3.450000000000000000e+02
1.818199849203777418e+00 1.960883463918570158e-01 3.450000000000000000e+02
2.690329976738916606e+00 1.309366856309991389e+00 3.450000000000000000e+02
3.562460104274056238e+00 2.422645366228125319e+00 3.450000000000000000e+02
-2.542450788471919410e+00 -5.370304203198815074e+00 3.460000000000000000e+02
-1.670320660936780444e+00 -4.257025693280680478e+00 3.460000000000000000e+02
-7.981905334016407005e-01 -3.143747183362545883e+00 3.460000000000000000e+02
7.393959413349870946e-02 -2.030468673444411731e+00 3.460000000000000000e+02
9.460697216686381195e-01 -9.171901635262774688e-01 3.460000000000000000e+02
1.818199849203777418e+00 1.960883463918570158e-01 3.460000000000000000e+02
2.690329976738916606e+00 1.309366856309991389e+00 3.460000000000000000e+02
3.562460104274056238e+00 2.422645366228125319e+00 3.460000000000000000e+02
-2.542450788471919410e+00 -5.370304203198815074e+00 3.470000000000000000e+02
-1.670320660936780444e+00 -4.257025693280680478e+00 3.470000000000000000e+02
-7.981905334016407005e-01 -3.143747183362545883e+00 3.470000000000000000e+02
7.393959413349870946e-02 -2.030468673444411731e+00 3.470000000000000000e+02
9.460697216686381195e-01 -9.171901635262774688e-01 3.470000000000000000e+02
1.818199849203777418e+00 1.960883463918570158e-01 3.470000000000000000e+02
2.690329976738916606e+00 1.309366856309991389e+00 3.470000000000000000e+02
3.562460104274056238e+00 2.422645366228125319e+00 3.470000000000000000e+02
-2.542450788471919410e+00 -5.370304203198815074e+00 3.480000000000000000e+02
-1.670320660936780444e+00 -4.257025693280680478e+00 3.480000000000000000e+02
-7.981905334016407005e-01 -3.143747183362545883e+00 3.480000000000000000e+02
7.393959413349870946e-02 -2.030468673444411731e+00 3.480000000000000000e+02
9.460697216686381195e-01 -9.171901635262774688e-01 3.480000000000000000e+02
1.818199849203777418e+00 1.960883463918570158e-01 3.480000000000000000e+02
2.690329976738916606e+00 1.309366856309991389e+00 3.480000000000000000e+02
3.562460104274056238e+00 2.422645366228125319e+00 3.480000000000000000e+02
-2.542450788471919410e+00 -5.370304203198815074e+00 3.490000000000000000e+02
-1.670320660936780444e+00 -4.257025693280680478e+00 3.490000000000000000e+02
-7.981905334016407005e-01 -3.143747183362545883e+00 3.490000000000000000e+02
7.393959413349870946e-02 -2.030468673444411731e+00 3.490000000000000000e+02
9.460697216686381195e-01 -9.171901635262774688e-01 3.490000000000000000e+02
1.818199849203777418e+00 1.960883463918570158e-01 3.490000000000000000e+02
2.690329976738916606e+00 1.309366856309991389e+00 3.490000000000000000e+02
3.562460104274056238e+00 2.422645366228125319e+00 3.490000000000000000e+02
-2.542450788471919410e+00 -5.370304203198815074e+00 3.500000000000000000e+02
-1.670320660936780444e+00 -4.257025693280680478e+00 3.500000000000000000e+02
-7.981905334016407005e-01 -3.143747183362545883e+00 3.500000000000000000e+02
7.393959413349870946e-02 -2.030468673444411731e+00 3.500000000000000000e+02
9.460697216686381195e-01 -9.171901635262774688e-01 3.500000000000000000e+02
1.818199849203777418e+00 1.960883463918570158e-01 3.500000000000000000e+02
2.690329976738916606e+00 1.309366856309991389e+00 3.500000000000000000e+02
3.562460104274056238e+00 2.422645366228125319e+00 3.500000000000000000e+02
4.434590231809194982e+00 3.535923876146259914e+00 3.500000000000000000e+02
-2.542450788471919410e+00 -5.370304203198815074e+00 3.510000000000000000e+02
-1.670320660936780444e+00 -4.257025693280680478e+00 3.510000000000000000e+02
-7.981905334016407005e-01 -3.143747183362545883e+00 3.510000000000000000e+02
7.393959413349870946e-02 -2.030468673444411731e+00 3.510000000000000000e+02
9.460697216686381195e-01 -9.171901635262774688e-01 3.510000000000000000e+02
1.818199849203777418e+00 1.960883463918570158e-01 3.510000000000000000e+02
2.690329976738916606e+00 1.309366856309991389e+00 3.510000000000000000e+02
3.562460104274056238e+00 2.422645366228125319e+00 3.510000000000000000e+02
4.434590231809194982e+00 3.535923876146259914e+00 3.510000000000000000e+02
-2.542450788471919410e+00 -5.370304203198815074e+00 3.520000000000000000e+02
-1.670320660936780444e+00 -4.257025693280680478e+00 3.520000000000000000e+02
-7.981905334016407005e-01 -3.143747183362545883e+00 3.520000000000000000e+02
7.393959413349870946e-02 -2.030468673444411731e+00 3.520000000000000000e+02
9.460697216686381195e-01 -9.171901635262774688e-01 3.520000000000000000e+02
1.818199849203777418e+00 1.960883463918570158e-01 3.520000000000000000e+02
2.690329976738916606e+00 1.309366856309991389e+00 3.520000000000000000e+02
3.562460104274056238e+00 2.422645366228125319e+00 3.520000000000000000e+02
4.434590231809194982e+00 3.535923876146259914e+00 3.520000000000000000e+02
-2.542450788471919410e+00 -5.370304203198815074e+00 3.530000000000000000e+02
-1.670320660936780444e+00 -4.257025693280680478e+00 3.530000000000000000e+02
-7.981905334016407005e-01 -3.143747183362545883e+00 3.530000000000000000e+02
7.393959413349870946e-02 -2.030468673444411731e+00 3.530000000000000000e+02
9.460697216686381195e-01 -9.171901635262774688e-01 3.530000000000000000e+02
1.818199849203777418e+00 1.960883463918570158e-01 3.530000000000000000e+02
2.690329976738916606e+00 1.309366856309991389e+00 3.530000000000000000e+02
3.562460104274056238e+00 2.422645366228125319e+00 3.530000000000000000e+02
4.434590231809194982e+00 3.535923876146259914e+00 3.530000000000000000e+02
-2.542450788471919410e+00 -5.370304203198815074e+00 3.540000000000000000e+02
-1.670320660936780444e+00 -4.257025693280680478e+00 3.540000000000000000e+02
-7.981905334016407005e-01 -3.143747183362545883e+00 3.540000000000000000e+02
7.393959413349870946e-02 -2.030468673444411731e+00 3.540000000000000000e+02
9.460697216686381195e-01 -9.171901635262774688e-01 3.540000000000000000e+02
1.818199849203777418e+00 1.960883463918570158e-01 3.540000000000000000e+02
2.690329976738916606e+00 1.309366856309991389e+00 3.540000000000000000e+02
3.562460104274056238e+00 2.422645366228125319e+00 3.540000000000000000e+02
4.434590231809194982e+00 3.535923876146259914e+00 3.540000000000000000e+02
-3.535155107198556745e+00 -5.490878394390312778e+00 3.550000000000000000e+02
-2.663024979663417113e+00 -4.377599884472178182e+00 3.550000000000000000e+02
-1.790894852128277925e+00 -3.264321374554043587e+00 3.550000000000000000e+02
-9.187647245931381823e-01 -2.151042864635909435e+00 3.550000000000000000e+02
-4.663459705799879312e-02 -1.037764354717774840e+00 3.550000000000000000e+02
8.254955304771406377e-01 7.551415520035953399e-02 3.550000000000000000e+02
1.697625658012279937e+00 1.188792665118493685e+00 3.550000000000000000e+02
2.569755785547419347e+00 2.302071175036628503e+00 3.550000000000000000e+02
3.441885913082558535e+00 3.415349684954762211e+00 3.550000000000000000e+02
4.314016040617697278e+00 4.528628194872896806e+00 3.550000000000000000e+02
-3.535155107198556745e+00 -5.490878394390312778e+00 3.560000000000000000e+02
-2.663024979663417113e+00 -4.377599884472178182e+00 3.560000000000000000e+02
-1.790894852128277925e+00 -3.264321374554043587e+00 3.560000000000000000e+02
-9.187647245931381823e-01 -2.151042864635909435e+00 3.560000000000000000e+02
-4.663459705799879312e-02 -1.037764354717774840e+00 3.560000000000000000e+02
8.254955304771406377e-01 7.551415520035953399e-02 3.560000000000000000e+02
1.697625658012279937e+00 1.188792665118493685e+00 3.560000000000000000e+02
2.569755785547419347e+00 2.302071175036628503e+00 3.560000000000000000e+02
3.441885913082558535e+00 3.415349684954762211e+00 3.560000000000000000e+02
4.314016040617697278e+00 4.528628194872896806e+00 3.560000000000000000e+02
-3.535155107198556745e+00 -5.490878394390312778e+00 3.570000000000000000e+02
-2.663024979663417113e+00 -4.377599884472178182e+00 3.570000000000000000e+02
-1.790894852128277925e+00 -3.264321374554043587e+00 3.570000000000000000e+02
-9.187647245931381823e-01 -2.151042864635909435e+00 3.570000000000000000e+02
-4.663459705799879312e-02 -1.037764354717774840e+00 3.570000000000000000e+02
8.254955304771406377e-01 7.551415520035953399e-02 3.570000000000000000e+02
1.697625658012279937e+00 1.188792665118493685e+00 3.570000000000000000e+02
2.569755785547419347e+00 2.302071175036628503e+00 3.570000000000000000e+02
3.441885913082558535e+00 3.415349684954762211e+00 3.570000000000000000e+02
4.314016040617697278e+00 4.528628194872896806e+00 3.570000000000000000e+02
-3.535155107198556745e+00 -5.490878394390312778e+00 3.580000000000000000e+02
-2.663024979663417113e+00 -4.377599884472178182e+00 3.580000000000000000e+02
-1.790894852128277925e+00 -3.264321374554043587e+00 3.580000000000000000e+02
-9.187647245931381823e-01 -2.151042864635909435e+00 3.580000000000000000e+02
-4.663459705799879312e-02 -1.037764354717774840e+00 3.580000000000000000e+02
8.254955304771406377e-01 7.551415520035953399e-02 3.580000000000000000e+02
1.697625658012279937e+00 1.188792665118493685e+00 3.580000000000000000e+02
2.569755785547419347e+00 2.302071175036628503e+00 3.580000000000000000e+02
3.441885913082558535e+00 3.415349684954762211e+00 3.580000000000000000e+02
4.314016040617697278e+00 4.528628194872896806e+00 3.580000000000000000e+02
-3.535155107198556745e+00 -5.490878394390312778e+00 3.590000000000000000e+02
-2.663024979663417113e+00 -4.377599884472178182e+00 3.590000000000000000e+02
-1.790894852128277925e+00 -3.264321374554043587e+00 3.590000000000000000e+02
-9.187647245931381823e-01 -2.151042864635909435e+00 3.590000000000000000e+02
-4.663459705799879312e-02 -1.037764354717774840e+00 3.590000000000000000e+02
8.254955304771406377e-01 7.551415520035953399e-02 3.590000000000000000e+02
1.697625658012279937e+00 1.188792665118493685e+00 3.590000000000000000e+02
2.569755785547419347e+00 2.302071175036628503e+00 3.590000000000000000e+02
3.441885913082558535e+00 3.415349684954762211e+00 3.590000000000000000e+02
4.314016040617697278e+00 4.528628194872896806e+00 3.590000000000000000e+02
-2.542450788471919410e+00 -5.370304203198815074e+00 3.600000000000000000e+02
-1.670320660936780444e+00 -4.257025693280680478e+00 3.600000000000000000e+02
-7.981905334016407005e-01 -3.143747183362545883e+00 3.600000000000000000e+02
7.393959413349870946e-02 -2.030468673444411731e+00 3.600000000000000000e+02
9.460697216686381195e-01 -9.171901635262774688e-01 3.600000000000000000e+02
1.818199849203777418e+00 1.960883463918570158e-01 3.600000000000000000e+02
2.690329976738916606e+00 1.309366856309991389e+00 3.600000000000000000e+02
3.562460104274056238e+00 2.422645366228125319e+00 3.600000000000000000e+02
4.434590231809194982e+00 3.535923876146259914e+00 3.600000000000000000e+02
-2.542450788471919410e+00 -5.370304203198815074e+00 3.610000000000000000e+02
-1.670320660936780444e+00 -4.257025693280680478e+00 3.610000000000000000e+02
-7.981905334016407005e-01 -3.143747183362545883e+00 3.610000000000000000e+02
7.393959413349870946e-02 -2.030468673444411731e+00 3.610000000000000000e+02
9.460697216686381195e-01 -9.171901635262774688e-01 3.610000000000000000e+02
1.818199849203777418e+00 1.960883463918570158e-01 3.610000000000000000e+02
2.690329976738916606e+00 1.309366856309991389e+00 3.610000000000000000e+02
3.562460104274056238e+00 2.422645366228125319e+00 3.610000000000000000e+02
4.434590231809194982e+00 3.535923876146259914e+00 3.610000000000000000e+02
-2.542450788471919410e+00 -5.370304203198815074e+00 3.620000000000000000e+02
-1.670320660936780444e+00 -4.257025693280680478e+00 3.620000000000000000e+02
-7.981905334016407005e-01 -3.143747183362545883e+00 3.620000000000000000e+02
7.393959413349870946e-02 -2.030468673444411731e+00 3.620000000000000000e+02
9.460697216686381195e-01 -9.171901635262774688e-01 3.620000000000000000e+02
1.818199849203777418e+00 1.960883463918570158e-01 3.620000000000000000e+02
2.690329976738916606e+00 1.309366856309991389e+00 3.620000000000000000e+02
3.562460104274056238e+00 2.422645366228125319e+00 3.620000000000000000e+02
4.434590231809194982e+00 3.535923876146259914e+00 3.620000000000000000e+02
-2.542450788471919410e+00 -5.370304203198815074e+00 3.630000000000000000e+02
-1.670320660936780444e+00 -4.257025693280680478e+00 3.630000000000000000e+02
-7.981905334016407005e-01 -3.143747183362545883e+00 3.630000000000000000e+02
7.393959413349870946e-02 -2.030468673444411731e+00 3.630000000000000000e+02
9.460697216686381195e-01 -9.171901635262774688e-01 3.630000000000000000e+02
1.818199849203777418e+00 1.960883463918570158e-01 3.630000000000000000e+02
2.690329976738916606e+00 1.309366856309991389e+00 3.630000000000000000e+02
3.562460104274056238e+00 2.422645366228125319e+00 3.630000000000000000e+02
4.434590231809194982e+00 3.535923876146259914e+00 3.630000000000000000e+02
-2.542450788471919410e+00 -5.370304203198815074e+00 3.640000000000000000e+02
-1.670320660936780444e+00 -4.257025693280680478e+00 3.640000000000000000e+02
-7.981905334016407005e-01 -3.143747183362545883e+00 3.640000000000000000e+02
7.393959413349870946e-02 -2.030468673444411731e+00 3.640000000000000000e+02
9.460697216686381195e-01 -9.171901635262774688e-01 3.640000000000000000e+02
1.818199849203777418e+00 1.960883463918570158e-01 3.640000000000000000e+02
2.690329976738916606e+00 1.309366856309991389e+00 3.640000000000000000e+02
3.562460104274056238e+00 2.422645366228125319e+00 3.640000000000000000e+02
4.434590231809194982e+00 3.535923876146259914e+00 3.640000000000000000e+02
-2.542450788471919410e+00 -5.370304203198815074e+00 3.650000000000000000e+02
-1.670320660936780444e+00 -4.257025693280680478e+00 3.650000000000000000e+02
-7.981905334016407005e-01 -3.143747183362545883e+00 3.650000000000000000e+02
7.393959413349870946e-02 -2.030468673444411731e+00 3.650000000000000000e+02
9.460697216686381195e-01 -9.171901635262774688e-01 3.650000000000000000e+02
1.818199849203777418e+00 1.960883463918570158e-01 3.650000000000000000e+02
2.690329976738916606e+00 1.309366856309991389e+00 3.650000000000000000e+02
3.562460104274056238e+00 2.422645366228125319e+00 3.650000000000000000e+02
4.434590231809194982e+00 3.535923876146259914e+00 3.650000000000000000e+02
-2.542450788471919410e+00 -5.370304203198815074e+00 3.660000000000000000e+02
-1.670320660936780444e+00 -4.257025693280680478e+00 3.660000000000000000e+02
-7.981905334016407005e-01 -3.143747183362545883e+00 3.660000000000000000e+02
7.393959413349870946e-02 -2.030468673444411731e+00 3.660000000000000000e+02
9.460697216686381195e-01 -9.171901635262774688e-01 3.660000000000000000e+02
1.818199849203777418e+00 1.960883463918570158e-01 3.660000000000000000e+02
2.690329976738916606e+00 1.309366856309991389e+00 3.660000000000000000e+02
3.562460104274056238e+00 2.422645366228125319e+00 3.660000000000000000e+02
4.434590231809194982e+00 3.535923876146259914e+00 3.660000000000000000e+02
-2.542450788471919410e+00 -5.370304203198815074e+00 3.670000000000000000e+02
-1.670320660936780444e+00 -4.257025693280680478e+00 3.670000000000000000e+02
-7.981905334016407005e-01 -3.143747183362545883e+00 3.670000000000000000e+02
7.393959413349870946e-02 -2.030468673444411731e+00 3.670000000000000000e+02
9.460697216686381195e-01 -9.171901635262774688e-01 3.670000000000000000e+02
1.818199849203777418e+00 1.960883463918570158e-01 3.670000000000000000e+02
2.690329976738916606e+00 1.309366856309991389e+00 3.670000000000000000e+02
3.562460104274056238e+00 2.422645366228125319e+00 3.670000000000000000e+02
4.434590231809194982e+00 3.535923876146259914e+00 3.670000000000000000e+02
-3.535155107198556745e+00 -5.490878394390312778e+00 3.680000000000000000e+02
-2.663024979663417113e+00 -4.377599884472178182e+00 3.680000000000000000e+02
-1.790894852128277925e+00 -3.264321374554043587e+00 3.680000000000000000e+02
-9.187647245931381823e-01 -2.151042864635909435e+00 3.680000000000000000e+02
-4.663459705799879312e-02 -1.037764354717774840e+00 3.680000000000000000e+02
8.254955304771406377e-01 7.551415520035953399e-02 3.680000000000000000e+02
1.697625658012279937e+00 1.188792665118493685e+00 3.680000000000000000e+02
2.569755785547419347e+00 2.302071175036628503e+00 3.680000000000000000e+02
3.441885913082558535e+00 3.415349684954762211e+00 3.680000000000000000e+02
4.314016040617697278e+00 4.528628194872896806e+00 3.680000000000000000e+02
-3.535155107198556745e+00 -5.490878394390312778e+00 3.690000000000000000e+02
-2.663024979663417113e+00 -4.377599884472178182e+00 3.690000000000000000e+02
-1.790894852128277925e+00 -3.264321374554043587e+00 3.690000000000000000e+02
-9.187647245931381823e-01 -2.151042864635909435e+00 3.690000000000000000e+02
-4.663459705799879312e-02 -1.037764354717774840e+00 3.690000000000000000e+02
8.254955304771406377e-01 7.551415520035953399e-02 3.690000000000000000e+02
1.697625658012279937e+00 1.188792665118493685e+00 3.690000000000000000e+02
2.569755785547419347e+00 2.302071175036628503e+00 3.690000000000000000e+02
3.441885913082558535e+00 3.415349684954762211e+00 3.690000000000000000e+02
4.314016040617697278e+00 4.528628194872896806e+00 3.690000000000000000e+02
-2.542450788471919410e+00 -5.370304203198815074e+00 3.700000000000000000e+02
-1.670320660936780444e+00 -4.257025693280680478e+00 3.700000000000000000e+02
-7.981905334016407005e-01 -3.143747183362545883e+00 3.700000000000000000e+02
7.393959413349870946e-02 -2.030468673444411731e+00 3.700000000000000000e+02
9.460697216686381195e-01 -9.171901635262774688e-01 3.700000000000000000e+02
1.818199849203777418e+00 1.960883463918570158e-01 3.700000000000000000e+02
2.690329976738916606e+00 1.309366856309991389e+00 3.700000000000000000e+02
3.562460104274056238e+00 2.422645366228125319e+00 3.700000000000000000e+02
4.434590231809194982e+00 3.535923876146259914e+00 3.700000000000000000e+02
-2.542450788471919410e+00 -5.370304203198815074e+00 3.710000000000000000e+02
-1.670320660936780444e+00 -4.257025693280680478e+00 3.710000000000000000e+02
-7.981905334016407005e-01 -3.143747183362545883e+00 3.710000000000000000e+02
7.393959413349870946e-02 -2.030468673444411731e+00 3.710000000000000000e+02
9.460697216686381195e-01 -9.171901635262774688e-01 3.710000000000000000e+02
1.818199849203777418e+00 1.960883463918570158e-01 3.710000000000000000e+02
2.690329976738916606e+00 1.309366856309991389e+00 3.710000000000000000e+02
3.562460104274056238e+00 2.422645366228125319e+00 3.710000000000000000e+02
4.434590231809194982e+00 3.535923876146259914e+00 3.710000000000000000e+02
-2.542450788471919410e+00 -5.370304203198815074e+00 3.720000000000000000e+02
-1.670320660936780444e+00 -4.257025693280680478e+00 3.720000000000000000e+02
-7.981905334016407005e-01 -3.143747183362545883e+00 3.720000000000000000e+02
7.393959413349870946e-02 -2.030468673444411731e+00 3.720000000000000000e+02
9.460697216686381195e-01 -9.171901635262774688e-01 3.720000000000000000e+02
1.818199849203777418e+00 1.960883463918570158e-01 3.720000000000000000e+02
2.690329976738916606e+00 1.309366856309991389e+00 3.720000000000000000e+02
3.562460104274056238e+00 2.422645366228125319e+00 3.720000000000000000e+02
4.434590231809194982e+00 3.535923876146259914e+00 3.720000000000000000e+02
-2.542450788471919410e+00 -5.370304203198815074e+00 3.730000000000000000e+02
-1.670320660936780444e+00 -4.257025693280680478e+00 3.730000000000000000e+02
-7.981905334016407005e-01 -3.143747183362545883e+00 3.730000000000000000e+02
7.393959413349870946e-02 -2.030468673444411731e+00 3.730000000000000000e+02
9.460697216686381195e-01 -9.171901635262774688e-01 3.730000000000000000e+02
1.818199849203777418e+00 1.960883463918570158e-01 3.730000000000000000e+02
2.690329976738916606e+00 1.309366856309991389e+00 3.730000000000000000e+02
3.562460104274056238e+00 2.422645366228125319e+00 3.730000000000000000e+02
4.434590231809194982e+00 3.535923876146259914e+00 3.730000000000000000e+02
-2.542450788471919410e+00 -5.370304203198815074e+00 3.740000000000000000e+02
-1.670320660936780444e+00 -4.257025693280680478e+00 3.740000000000000000e+02
-7.981905334016407005e-01 -3.143747183362545883e+00 3.740000000000000000e+02
7.393959413349870946e-02 -2.030468673444411731e+00 3.740000000000000000e+02
9.460697216686381195e-01 -9.171901635262774688e-01 3.740000000000000000e+02
1.818199849203777418e+00 1.960883463918570158e-01 3.740000000000000000e+02
2.690329976738916606e+00 1.309366856309991389e+00 3.740000000000000000e+02
3.562460104274056238e+00 2.422645366228125319e+00 3.740000000000000000e+02
4.434590231809194982e+00 3.535923876146259914e+00 3.740000000000000000e+02
-2.542450788471919410e+00 -5.370304203198815074e+00 3.750000000000000000e+02
-1.670320660936780444e+00 -4.257025693280680478e+00 3.750000000000000000e+02
-7.981905334016407005e-01 -3.143747183362545883e+00 3.750000000000000000e+02
7.393959413349870946e-02 -2.030468673444411731e+00 3.750000000000000000e+02
9.460697216686381195e-01 -9.171901635262774688e-01 3.750000000000000000e+02
1.818199849203777418e+00 1.960883463918570158e-01 3.750000000000000000e+02
2.690329976738916606e+00 1.309366856309991389e+00 3.750000000000000000e+02
3.562460104274056238e+00 2.422645366228125319e+00 3.750000000000000000e+02
-2.542450788471919410e+00 -5.370304203198815074e+00 3.760000000000000000e+02
-1.670320660936780444e+00 -4.257025693280680478e+00 3.760000000000000000e+02
-7.981905334016407005e-01 -3.143747183362545883e+00 3.760000000000000000e+02
7.393959413349870946e-02 -2.030468673444411731e+00 3.760000000000000000e+02
9.460697216686381195e-01 -9.171901635262774688e-01 3.760000000000000000e+02
1.818199849203777418e+00 1.960883463918570158e-01 3.760000000000000000e+02
2.690329976738916606e+00 1.309366856309991389e+00 3.760000000000000000e+02
3.562460104274056238e+00 2.422645366228125319e+00 3.760000000000000000e+02
-1.549746469745282740e+00 -5.249730012007318258e+00 3.770000000000000000e+02
-6.776163422101431077e-01 -4.136451502089182775e+00 3.770000000000000000e+02
1.945137853249962190e-01 -3.023172992171048623e+00 3.770000000000000000e+02
1.066643912860135490e+00 -1.909894482252914472e+00 3.770000000000000000e+02
1.938774040395274900e+00 -7.966159723347798760e-01 3.770000000000000000e+02
2.810904167930414310e+00 3.166625375833544975e-01 3.770000000000000000e+02
3.683034295465553498e+00 1.429941047501488649e+00 3.770000000000000000e+02
4.555164423000692686e+00 2.543219557419623023e+00 3.770000000000000000e+02
-1.549746469745282740e+00 -5.249730012007318258e+00 3.780000000000000000e+02
-6.776163422101431077e-01 -4.136451502089182775e+00 3.780000000000000000e+02
1.945137853249962190e-01 -3.023172992171048623e+00 3.780000000000000000e+02
1.066643912860135490e+00 -1.909894482252914472e+00 3.780000000000000000e+02
1.938774040395274900e+00 -7.966159723347798760e-01 3.780000000000000000e+02
2.810904167930414310e+00 3.166625375833544975e-01 3.780000000000000000e+02
3.683034295465553498e+00 1.429941047501488649e+00 3.780000000000000000e+02
4.555164423000692686e+00 2.543219557419623023e+00 3.780000000000000000e+02
-2.542450788471919410e+00 -5.370304203198815074e+00 3.790000000000000000e+02
-1.670320660936780444e+00 -4.257025693280680478e+00 3.790000000000000000e+02
-7.981905334016407005e-01 -3.143747183362545883e+00 3.790000000000000000e+02
7.393959413349870946e-02 -2.030468673444411731e+00 3.790000000000000000e+02
9.460697216686381195e-01 -9.171901635262774688e-01 3.790000000000000000e+02
1.818199849203777418e+00 1.960883463918570158e-01 3.790000000000000000e+02
2.690329976738916606e+00 1.309366856309991389e+00 3.790000000000000000e+02
3.562460104274056238e+00 2.422645366228125319e+00 3.790000000000000000e+02
4.434590231809194982e+00 3.535923876146259914e+00 3.790000000000000000e+02
-2.542450788471919410e+00 -5.370304203198815074e+00 3.800000000000000000e+02
-1.670320660936780444e+00 -4.257025693280680478e+00 3.800000000000000000e+02
-7.981905334016407005e-01 -3.143747183362545883e+00 3.800000000000000000e+02
7.393959413349870946e-02 -2.030468673444411731e+00 3.800000000000000000e+02
9.460697216686381195e-01 -9.171901635262774688e-01 3.800000000000000000e+02
1.818199849203777418e+00 1.960883463918570158e-01 3.800000000000000000e+02
2.690329976738916606e+00 1.309366856309991389e+00 3.800000000000000000e+02
3.562460104274056238e+00 2.422645366228125319e+00 3.800000000000000000e+02
4.434590231809194982e+00 3.535923876146259914e+00 3.800000000000000000e+02
-3.535155107198556745e+00 -5.490878394390312778e+00 3.810000000000000000e+02
-2.663024979663417113e+00 -4.377599884472178182e+00 3.810000000000000000e+02
-1.790894852128277925e+00 -3.264321374554043587e+00 3.810000000000000000e+02
-9.187647245931381823e-01 -2.151042864635909435e+00 3.810000000000000000e+02
-4.663459705799879312e-02 -1.037764354717774840e+00 3.810000000000000000e+02
8.254955304771406377e-01 7.551415520035953399e-02 3.810000000000000000e+02
1.697625658012279937e+00 1.188792665118493685e+00 3.810000000000000000e+02
2.569755785547419347e+00 2.302071175036628503e+00 3.810000000000000000e+02
3.441885913082558535e+00 3.415349684954762211e+00 3.810000000000000000e+02
4.314016040617697278e+00 4.528628194872896806e+00 3.810000000000000000e+02
-3.535155107198556745e+00 -5.490878394390312778e+00 3.820000000000000000e+02
-2.663024979663417113e+00 -4.377599884472178182e+00 3.820000000000000000e+02
-1.790894852128277925e+00 -3.264321374554043587e+00 3.820000000000000000e+02
-9.187647245931381823e-01 -2.151042864635909435e+00 3.820000000000000000e+02
-4.663459705799879312e-02 -1.037764354717774840e+00 3.820000000000000000e+02
8.254955304771406377e-01 7.551415520035953399e-02 3.820000000000000000e+02
1.697625658012279937e+00 1.188792665118493685e+00 3.820000000000000000e+02
2.569755785547419347e+00 2.302071175036628503e+00 3.820000000000000000e+02
3.441885913082558535e+00 3.415349684954762211e+00 3.820000000000000000e+02
4.314016040617697278e+00 4.528628194872896806e+00 3.820000000000000000e+02
-3.535155107198556745e+00 -5.490878394390312778e+00 3.830000000000000000e+02
-2.663024979663417113e+00 -4.377599884472178182e+00 3.830000000000000000e+02
-1.790894852128277925e+00 -3.264321374554043587e+00 3.830000000000000000e+02
-9.187647245931381823e-01 -2.151042864635909435e+00 3.830000000000000000e+02
-4.663459705799879312e-02 -1.037764354717774840e+00 3.830000000000000000e+02
8.254955304771406377e-01 7.551415520035953399e-02 3.830000000000000000e+02
1.697625658012279937e+00 1.188792665118493685e+00 3.830000000000000000e+02
2.569755785547419347e+00 2.302071175036628503e+00 3.830000000000000000e+02
3.441885913082558535e+00 3.415349684954762211e+00 3.830000000000000000e+02
4.314016040617697278e+00 4.528628194872896806e+00 3.830000000000000000e+02
-2.542450788471919410e+00 -5.370304203198815074e+00 3.840000000000000000e+02
-1.670320660936780444e+00 -4.257025693280680478e+00 3.840000000000000000e+02
-7.981905334016407005e-01 -3.143747183362545883e+00 3.840000000000000000e+02
7.393959413349870946e-02 -2.030468673444411731e+00 3.840000000000000000e+02
9.460697216686381195e-01 -9.171901635262774688e-01 3.840000000000000000e+02
1.818199849203777418e+00 1.960883463918570158e-01 3.840000000000000000e+02
2.690329976738916606e+00 1.309366856309991389e+00 3.840000000000000000e+02
3.562460104274056238e+00 2.422645366228125319e+00 3.840000000000000000e+02
-2.542450788471919410e+00 -5.370304203198815074e+00 3.850000000000000000e+02
-1.670320660936780444e+00 -4.257025693280680478e+00 3.850000000000000000e+02
-7.981905334016407005e-01 -3.143747183362545883e+00 3.850000000000000000e+02
7.393959413349870946e-02 -2.030468673444411731e+00 3.850000000000000000e+02
9.460697216686381195e-01 -9.171901635262774688e-01 3.850000000000000000e+02
1.818199849203777418e+00 1.960883463918570158e-01 3.850000000000000000e+02
2.690329976738916606e+00 1.309366856309991389e+00 3.850000000000000000e+02
3.562460104274056238e+00 2.422645366228125319e+00 3.850000000000000000e+02
-2.542450788471919410e+00 -5.370304203198815074e+00 3.860000000000000000e+02
-1.670320660936780444e+00 -4.257025693280680478e+00 3.860000000000000000e+02
-7.981905334016407005e-01 -3.143747183362545883e+00 3.860000000000000000e+02
7.393959413349870946e-02 -2.030468673444411731e+00 3.860000000000000000e+02
9.460697216686381195e-01 -9.171901635262774688e-01 3.860000000000000000e+02
1.818199849203777418e+00 1.960883463918570158e-01 3.860000000000000000e+02
2.690329976738916606e+00 1.309366856309991389e+00 3.860000000000000000e+02
3.562460104274056238e+00 2.422645366228125319e+00 3.860000000000000000e+02
-2.542450788471919410e+00 -5.370304203198815074e+00 3.870000000000000000e+02
-1.670320660936780444e+00 -4.257025693280680478e+00 3.870000000000000000e+02
-7.981905334016407005e-01 -3.143747183362545883e+00 3.870000000000000000e+02
7.393959413349870946e-02 -2.030468673444411731e+00 3.870000000000000000e+02
9.460697216686381195e-01 -9.171901635262774688e-01 3.870000000000000000e+02
1.818199849203777418e+00 1.960883463918570158e-01 3.870000000000000000e+02
2.690329976738916606e+00 1.309366856309991389e+00 3.870000000000000000e+02
3.562460104274056238e+00 2.422645366228125319e+00 3.870000000000000000e+02
-2.542450788471919410e+00 -5.370304203198815074e+00 3.880000000000000000e+02
-1.670320660936780444e+00 -4.257025693280680478e+00 3.880000000000000000e+02
-7.981905334016407005e-01 -3.143747183362545883e+00 3.880000000000000000e+02
7.393959413349870946e-02 -2.030468673444411731e+00 3.880000000000000000e+02
9.460697216686381195e-01 -9.171901635262774688e-01 3.880000000000000000e+02
1.818199849203777418e+00 1.960883463918570158e-01 3.880000000000000000e+02
2.690329976738916606e+00 1.309366856309991389e+00 3.880000000000000000e+02
3.562460104274056238e+00 2.422645366228125319e+00 3.880000000000000000e+02
-3.535155107198556745e+00 -5.490878394390312778e+00 3.890000000000000000e+02
-2.663024979663417113e+00 -4.377599884472178182e+00 3.890000000000000000e+02
-1.790894852128277925e+00 -3.264321374554043587e+00 3.890000000000000000e+02
-9.187647245931381823e-01 -2.151042864635909435e+00 3.890000000000000000e+02
-4.663459705799879312e-02 -1.037764354717774840e+00 3.890000000000000000e+02
8.254955304771406377e-01 7.551415520035953399e-02 3.890000000000000000e+02
1.697625658012279937e+00 1.188792665118493685e+00 3.890000000000000000e+02
2.569755785547419347e+00 2.302071175036628503e+00 3.890000000000000000e+02
3.441885913082558535e+00 3.415349684954762211e+00 3.890000000000000000e+02
-3.535155107198556745e+00 -5.490878394390312778e+00 3.900000000000000000e+02
-2.663024979663417113e+00 -4.377599884472178182e+00 3.900000000000000000e+02
-1.790894852128277925e+00 -3.264321374554043587e+00 3.900000000000000000e+02
-9.187647245931381823e-01 -2.151042864635909435e+00 3.900000000000000000e+02
-4.663459705799879312e-02 -1.037764354717774840e+00 3.900000000000000000e+02
8.254955304771406377e-01 7.551415520035953399e-02 3.900000000000000000e+02
1.697625658012279937e+00 1.188792665118493685e+00 3.900000000000000000e+02
2.569755785547419347e+00 2.302071175036628503e+00 3.900000000000000000e+02
3.441885913082558535e+00 3.415349684954762211e+00 3.900000000000000000e+02
-3.535155107198556745e+00 -5.490878394390312778e+00 3.910000000000000000e+02
-2.663024979663417113e+00 -4.377599884472178182e+00 3.910000000000000000e+02
-1.790894852128277925e+00 -3.264321374554043587e+00 3.910000000000000000e+02
-9.187647245931381823e-01 -2.151042864635909435e+00 3.910000000000000000e+02
-4.663459705799879312e-02 -1.037764354717774840e+00 3.910000000000000000e+02
8.254955304771406377e-01 7.551415520035953399e-02 3.910000000000000000e+02
1.697625658012279937e+00 1.188792665118493685e+00 3.910000000000000000e+02
2.569755785547419347e+00 2.302071175036628503e+00 3.910000000000000000e+02
3.441885913082558535e+00 3.415349684954762211e+00 3.910000000000000000e+02
4.314016040617697278e+00 4.528628194872896806e+00 3.910000000000000000e+02
-3.535155107198556745e+00 -5.490878394390312778e+00 3.920000000000000000e+02
-2.663024979663417113e+00 -4.377599884472178182e+00 3.920000000000000000e+02
-1.790894852128277925e+00 -3.264321374554043587e+00 3.920000000000000000e+02
-9.187647245931381823e-01 -2.151042864635909435e+00 3.920000000000000000e+02
-4.663459705799879312e-02 -1.037764354717774840e+00 3.920000000000000000e+02
8.254955304771406377e-01 7.551415520035953399e-02 3.920000000000000000e+02
1.697625658012279937e+00 1.188792665118493685e+00 3.920000000000000000e+02
2.569755785547419347e+00 2.302071175036628503e+00 3.920000000000000000e+02
3.441885913082558535e+00 3.415349684954762211e+00 3.920000000000000000e+02
4.314016040617697278e+00 4.528628194872896806e+00 3.920000000000000000e+02
-3.535155107198556745e+00 -5.490878394390312778e+00 3.930000000000000000e+02
-2.663024979663417113e+00 -4.377599884472178182e+00 3.930000000000000000e+02
-1.790894852128277925e+00 -3.264321374554043587e+00 3.930000000000000000e+02
-9.187647245931381823e-01 -2.151042864635909435e+00 3.930000000000000000e+02
-4.663459705799879312e-02 -1.037764354717774840e+00 3.930000000000000000e+02
8.254955304771406377e-01 7.551415520035953399e-02 3.930000000000000000e+02
1.697625658012279937e+00 1.188792665118493685e+00 3.930000000000000000e+02
2.569755785547419347e+00 2.302071175036628503e+00 3.930000000000000000e+02
3.441885913082558535e+00 3.415349684954762211e+00 3.930000000000000000e+02
4.314016040617697278e+00 4.528628194872896806e+00 3.930000000000000000e+02
-3.535155107198556745e+00 -5.490878394390312778e+00 3.940000000000000000e+02
-2.663024979663417113e+00 -4.377599884472178182e+00 3.940000000000000000e+02
-1.790894852128277925e+00 -3.264321374554043587e+00 3.940000000000000000e+02
-9.187647245931381823e-01 -2.151042864635909435e+00 3.940000000000000000e+02
-4.663459705799879312e-02 -1.037764354717774840e+00 3.940000000000000000e+02
8.254955304771406377e-01 7.551415520035953399e-02 3.940000000000000000e+02
1.697625658012279937e+00 1.188792665118493685e+00 3.940000000000000000e+02
2.569755785547419347e+00 2.302071175036628503e+00 3.940000000000000000e+02
3.441885913082558535e+00 3.415349684954762211e+00 3.940000000000000000e+02
-3.535155107198556745e+00 -5.490878394390312778e+00 3.950000000000000000e+02
-2.663024979663417113e+00 -4.377599884472178182e+00 3.950000000000000000e+02
-1.790894852128277925e+00 -3.264321374554043587e+00 3.950000000000000000e+02
-9.187647245931381823e-01 -2.151042864635909435e+00 3.950000000000000000e+02
-4.663459705799879312e-02 -1.037764354717774840e+00 3.950000000000000000e+02
8.254955304771406377e-01 7.551415520035953399e-02 3.950000000000000000e+02
1.697625658012279937e+00 1.188792665118493685e+00 3.950000000000000000e+02
2.569755785547419347e+00 2.302071175036628503e+00 3.950000000000000000e+02
3.441885913082558535e+00 3.415349684954762211e+00 3.950000000000000000e+02
-3.535155107198556745e+00 -5.490878394390312778e+00 3.960000000000000000e+02
-2.663024979663417113e+00 -4.377599884472178182e+00 3.960000000000000000e+02
-1.790894852128277925e+00 -3.264321374554043587e+00 3.960000000000000000e+02
-9.187647245931381823e-01 -2.151042864635909435e+00 3.960000000000000000e+02
-4.663459705799879312e-02 -1.037764354717774840e+00 3.960000000000000000e+02
8.254955304771406377e-01 7.551415520035953399e-02 3.960000000000000000e+02
1.697625658012279937e+00 1.188792665118493685e+00 3.960000000000000000e+02
2.569755785547419347e+00 2.302071175036628503e+00 3.960000000000000000e+02
3.441885913082558535e+00 3.415349684954762211e+00 3.960000000000000000e+02
-3.535155107198556745e+00 -5.490878394390312778e+00 3.970000000000000000e+02
-2.663024979663417113e+00 -4.377599884472178182e+00 3.970000000000000000e+02
-1.790894852128277925e+00 -3.264321374554043587e+00 3.970000000000000000e+02
-9.187647245931381823e-01 -2.151042864635909435e+00 3.970000000000000000e+02
-4.663459705799879312e-02 -1.037764354717774840e+00 3.970000000000000000e+02
8.254955304771406377e-01 7.551415520035953399e-02 3.970000000000000000e+02
1.697625658012279937e+00 1.188792665118493685e+00 3.970000000000000000e+02
2.569755785547419347e+00 2.302071175036628503e+00 3.970000000000000000e+02
3.441885913082558535e+00 3.415349684954762211e+00 3.970000000000000000e+02
-3.535155107198556745e+00 -5.490878394390312778e+00 3.980000000000000000e+02
-2.663024979663417113e+00 -4.377599884472178182e+00 3.980000000000000000e+02
-1.790894852128277925e+00 -3.264321374554043587e+00 3.980000000000000000e+02
-9.187647245931381823e-01 -2.151042864635909435e+00 3.980000000000000000e+02
-4.663459705799879312e-02 -1.037764354717774840e+00 3.980000000000000000e+02
8.254955304771406377e-01 7.551415520035953399e-02 3.980000000000000000e+02
1.697625658012279937e+00 1.188792665118493685e+00 3.980000000000000000e+02
2.569755785547419347e+00 2.302071175036628503e+00 3.980000000000000000e+02
3.441885913082558535e+00 3.415349684954762211e+00 3.980000000000000000e+02
-3.535155107198556745e+00 -5.490878394390312778e+00 3.990000000000000000e+02
-2.663024979663417113e+00 -4.377599884472178182e+00 3.990000000000000000e+02
-1.790894852128277925e+00 -3.264321374554043587e+00 3.990000000000000000e+02
-9.187647245931381823e-01 -2.151042864635909435e+00 3.990000000000000000e+02
-4.663459705799879312e-02 -1.037764354717774840e+00 3.990000000000000000e+02
8.254955304771406377e-01 7.551415520035953399e-02 3.990000000000000000e+02
1.697625658012279937e+00 1.188792665118493685e+00 3.990000000000000000e+02
2.569755785547419347e+00 2.302071175036628503e+00 3.990000000000000000e+02
-3.535155107198556745e+00 -5.490878394390312778e+00 4.000000000000000000e+02
-2.663024979663417113e+00 -4.377599884472178182e+00 4.000000000000000000e+02
-1.790894852128277925e+00 -3.264321374554043587e+00 4.000000000000000000e+02
-9.187647245931381823e-01 -2.151042864635909435e+00 4.000000000000000000e+02
-4.663459705799879312e-02 -1.037764354717774840e+00 4.000000000000000000e+02
8.254955304771406377e-01 7.551415520035953399e-02 4.000000000000000000e+02
1.697625658012279937e+00 1.188792665118493685e+00 4.000000000000000000e+02
2.569755785547419347e+00 2.302071175036628503e+00 4.000000000000000000e+02
-3.535155107198556745e+00 -5.490878394390312778e+00 4.010000000000000000e+02
-2.663024979663417113e+00 -4.377599884472178182e+00 4.010000000000000000e+02
-1.790894852128277925e+00 -3.264321374554043587e+00 4.010000000000000000e+02
-9.187647245931381823e-01 -2.151042864635909435e+00 4.010000000000000000e+02
-4.663459705799879312e-02 -1.037764354717774840e+00 4.010000000000000000e+02
8.254955304771406377e-01 7.551415520035953399e-02 4.010000000000000000e+02
1.697625658012279937e+00 1.188792665118493685e+00 4.010000000000000000e+02
2.569755785547419347e+00 2.302071175036628503e+00 4.010000000000000000e+02
-3.535155107198556745e+00 -5.490878394390312778e+00 4.020000000000000000e+02
-2.663024979663417113e+00 -4.377599884472178182e+00 4.020000000000000000e+02
-1.790894852128277925e+00 -3.264321374554043587e+00 4.020000000000000000e+02
-9.187647245931381823e-01 -2.151042864635909435e+00 4.020000000000000000e+02
-4.663459705799879312e-02 -1.037764354717774840e+00 4.020000000000000000e+02
8.254955304771406377e-01 7.551415520035953399e-02 4.020000000000000000e+02
1.697625658012279937e+00 1.188792665118493685e+00 4.020000000000000000e+02
2.569755785547419347e+00 2.302071175036628503e+00 4.020000000000000000e+02
-3.535155107198556745e+00 -5.490878394390312778e+00 4.030000000000000000e+02
-2.663024979663417113e+00 -4.377599884472178182e+00 4.030000000000000000e+02
-1.790894852128277925e+00 -3.264321374554043587e+00 4.030000000000000000e+02
-9.187647245931381823e-01 -2.151042864635909435e+00 4.030000000000000000e+02
-4.663459705799879312e-02 -1.037764354717774840e+00 4.030000000000000000e+02
8.254955304771406377e-01 7.551415520035953399e-02 4.030000000000000000e+02
1.697625658012279937e+00 1.188792665118493685e+00 4.030000000000000000e+02
2.569755785547419347e+00 2.302071175036628503e+00 4.030000000000000000e+02
3.441885913082558535e+00 3.415349684954762211e+00 4.030000000000000000e+02
-3.535155107198556745e+00 -5.490878394390312778e+00 4.040000000000000000e+02
-2.663024979663417113e+00 -4.377599884472178182e+00 4.040000000000000000e+02
-1.790894852128277925e+00 -3.264321374554043587e+00 4.040000000000000000e+02
-9.187647245931381823e-01 -2.151042864635909435e+00 4.040000000000000000e+02
-4.663459705799879312e-02 -1.037764354717774840e+00 4.040000000000000000e+02
8.254955304771406377e-01 7.551415520035953399e-02 4.040000000000000000e+02
1.697625658012279937e+00 1.188792665118493685e+00 4.040000000000000000e+02
2.569755785547419347e+00 2.302071175036628503e+00 4.040000000000000000e+02
3.441885913082558535e+00 3.415349684954762211e+00 4.040000000000000000e+02
-4.527859425925194081e+00 -5.611452585581810482e+00 4.050000000000000000e+02
-3.655729298390054449e+00 -4.498174075663675886e+00 4.050000000000000000e+02
-2.783599170854914373e+00 -3.384895565745541290e+00 4.050000000000000000e+02
-1.911469043319775407e+00 -2.271617055827406695e+00 4.050000000000000000e+02
-1.039338915784635775e+00 -1.158338545909272543e+00 4.050000000000000000e+02
-1.672087882494963096e-01 -4.506003599113794778e-02 4.050000000000000000e+02
7.049213392856431559e-01 1.068218473926996426e+00 4.050000000000000000e+02
1.577051466820782455e+00 2.181496983845130799e+00 4.050000000000000000e+02
2.449181594355921643e+00 3.294775493763264507e+00 4.050000000000000000e+02
-4.527859425925194081e+00 -5.611452585581810482e+00 4.060000000000000000e+02
-3.655729298390054449e+00 -4.498174075663675886e+00 4.060000000000000000e+02
-2.783599170854914373e+00 -3.384895565745541290e+00 4.060000000000000000e+02
-1.911469043319775407e+00 -2.271617055827406695e+00 4.060000000000000000e+02
-1.039338915784635775e+00 -1.158338545909272543e+00 4.060000000000000000e+02
-1.672087882494963096e-01 -4.506003599113794778e-02 4.060000000000000000e+02
7.049213392856431559e-01 1.068218473926996426e+00 4.060000000000000000e+02
1.577051466820782455e+00 2.181496983845130799e+00 4.060000000000000000e+02
2.449181594355921643e+00 3.294775493763264507e+00 4.060000000000000000e+02
