9.940342559792487265e+00 -9.531377076830171546e+00 3.580000000000000000e+02
8.774350062474255196e+00 -8.731088693684700530e+00 3.580000000000000000e+02
7.608357565156021352e+00 -7.930800310539231290e+00 3.580000000000000000e+02
6.442365067837789283e+00 -7.130511927393760274e+00 3.580000000000000000e+02
5.276372570519556326e+00 -6.330223544248290146e+00 3.580000000000000000e+02
4.110380073201323370e+00 -5.529935161102819130e+00 3.580000000000000000e+02
2.944387575883091301e+00 -4.729646777957349002e+00 3.580000000000000000e+02
1.778395078564858345e+00 -3.929358394811878430e+00 3.580000000000000000e+02
6.124025812466262764e-01 -3.129070011666407858e+00 3.580000000000000000e+02
-5.535899160716066802e-01 -2.328781628520938174e+00 3.580000000000000000e+02
9.940342559792487265e+00 -9.531377076830171546e+00 3.590000000000000000e+02
8.774350062474255196e+00 -8.731088693684700530e+00 3.590000000000000000e+02
7.608357565156021352e+00 -7.930800310539231290e+00 3.590000000000000000e+02
6.442365067837789283e+00 -7.130511927393760274e+00 3.590000000000000000e+02
5.276372570519556326e+00 -6.330223544248290146e+00 3.590000000000000000e+02
4.110380073201323370e+00 -5.529935161102819130e+00 3.590000000000000000e+02
2.944387575883091301e+00 -4.729646777957349002e+00 3.590000000000000000e+02
1.778395078564858345e+00 -3.929358394811878430e+00 3.590000000000000000e+02
6.124025812466262764e-01 -3.129070011666407858e+00 3.590000000000000000e+02
-5.535899160716066802e-01 -2.328781628520938174e+00 3.590000000000000000e+02
9.940342559792487265e+00 -9.531377076830171546e+00 3.600000000000000000e+02
8.774350062474255196e+00 -8.731088693684700530e+00 3.600000000000000000e+02
7.608357565156021352e+00 -7.930800310539231290e+00 3.600000000000000000e+02
6.442365067837789283e+00 -7.130511927393760274e+00 3.600000000000000000e+02
5.276372570519556326e+00 -6.330223544248290146e+00 3.600000000000000000e+02
4.110380073201323370e+00 -5.529935161102819130e+00 3.600000000000000000e+02
2.944387575883091301e+00 -4.729646777957349002e+00 3.600000000000000000e+02
1.778395078564858345e+00 -3.929358394811878430e+00 3.600000000000000000e+02
6.124025812466262764e-01 -3.129070011666407858e+00 3.600000000000000000e+02
-5.535899160716066802e-01 -2.328781628520938174e+00 3.600000000000000000e+02
9.940342559792487265e+00 -9.531377076830171546e+00 3.610000000000000000e+02
8.774350062474255196e+00 -8.731088693684700530e+00 3.610000000000000000e+02
7.608357565156021352e+00 -7.930800310539231290e+00 3.610000000000000000e+02
6.442365067837789283e+00 -7.130511927393760274e+00 3.610000000000000000e+02
5.276372570519556326e+00 -6.330223544248290146e+00 3.610000000000000000e+02
4.110380073201323370e+00 -5.529935161102819130e+00 3.610000000000000000e+02
2.944387575883091301e+00 -4.729646777957349002e+00 3.610000000000000000e+02
1.778395078564858345e+00 -3.929358394811878430e+00 3.610000000000000000e+02
6.124025812466262764e-01 -3.129070011666407858e+00 3.610000000000000000e+02
-5.535899160716066802e-01 -2.328781628520938174e+00 3.610000000000000000e+02
9.940342559792487265e+00 -9.531377076830171546e+00 3.620000000000000000e+02
8.774350062474255196e+00 -8.731088693684700530e+00 3.620000000000000000e+02
7.608357565156021352e+00 -7.930800310539231290e+00 3.620000000000000000e+02
6.442365067837789283e+00 -7.130511927393760274e+00 3.620000000000000000e+02
5.276372570519556326e+00 -6.330223544248290146e+00 3.620000000000000000e+02
4.110380073201323370e+00 -5.529935161102819130e+00 3.620000000000000000e+02
2.944387575883091301e+00 -4.729646777957349002e+00 3.620000000000000000e+02
1.778395078564858345e+00 -3.929358394811878430e+00 3.620000000000000000e+02
6.124025812466262764e-01 -3.129070011666407858e+00 3.620000000000000000e+02
-5.535899160716066802e-01 -2.328781628520938174e+00 3.620000000000000000e+02
9.940342559792487265e+00 -9.531377076830171546e+00 3.630000000000000000e+02
8.774350062474255196e+00 -8.731088693684700530e+00 3.630000000000000000e+02
7.608357565156021352e+00 -7.930800310539231290e+00 3.630000000000000000e+02
6.442365067837789283e+00 -7.130511927393760274e+00 3.630000000000000000e+02
5.276372570519556326e+00 -6.330223544248290146e+00 3.630000000000000000e+02
4.110380073201323370e+00 -5.529935161102819130e+00 3.630000000000000000e+02
2.944387575883091301e+00 -4.729646777957349002e+00 3.630000000000000000e+02
1.778395078564858345e+00 -3.929358394811878430e+00 3.630000000000000000e+02
6.124025812466262764e-01 -3.129070011666407858e+00 3.630000000000000000e+02
-5.535899160716066802e-01 -2.328781628520938174e+00 3.630000000000000000e+02
9.940342559792487265e+00 -9.531377076830171546e+00 3.640000000000000000e+02
8.774350062474255196e+00 -8.731088693684700530e+00 3.640000000000000000e+02
7.608357565156021352e+00 -7.930800310539231290e+00 3.640000000000000000e+02
6.442365067837789283e+00 -7.130511927393760274e+00 3.640000000000000000e+02
5.276372570519556326e+00 -6.330223544248290146e+00 3.640000000000000000e+02
4.110380073201323370e+00 -5.529935161102819130e+00 3.640000000000000000e+02
2.944387575883091301e+00 -4.729646777957349002e+00 3.640000000000000000e+02
1.778395078564858345e+00 -3.929358394811878430e+00 3.640000000000000000e+02
6.124025812466262764e-01 -3.129070011666407858e+00 3.640000000000000000e+02
-5.535899160716066802e-01 -2.328781628520938174e+00 3.640000000000000000e+02
9.940342559792487265e+00 -9.531377076830171546e+00 3.650000000000000000e+02
8.774350062474255196e+00 -8.731088693684700530e+00 3.650000000000000000e+02
7.608357565156021352e+00 -7.930800310539231290e+00 3.650000000000000000e+02
6.442365067837789283e+00 -7.130511927393760274e+00 3.650000000000000000e+02
5.276372570519556326e+00 -6.330223544248290146e+00 3.650000000000000000e+02
4.110380073201323370e+00 -5.529935161102819130e+00 3.650000000000000000e+02
2.944387575883091301e+00 -4.729646777957349002e+00 3.650000000000000000e+02
1.778395078564858345e+00 -3.929358394811878430e+00 3.650000000000000000e+02
6.124025812466262764e-01 -3.129070011666407858e+00 3.650000000000000000e+02
-5.535899160716066802e-01 -2.328781628520938174e+00 3.650000000000000000e+02
9.940342559792487265e+00 -9.531377076830171546e+00 3.660000000000000000e+02
8.774350062474255196e+00 -8.731088693684700530e+00 3.660000000000000000e+02
7.608357565156021352e+00 -7.930800310539231290e+00 3.660000000000000000e+02
6.442365067837789283e+00 -7.130511927393760274e+00 3.660000000000000000e+02
5.276372570519556326e+00 -6.330223544248290146e+00 3.660000000000000000e+02
4.110380073201323370e+00 -5.529935161102819130e+00 3.660000000000000000e+02
2.944387575883091301e+00 -4.729646777957349002e+00 3.660000000000000000e+02
1.778395078564858345e+00 -3.929358394811878430e+00 3.660000000000000000e+02
6.124025812466262764e-01 -3.129070011666407858e+00 3.660000000000000000e+02
-5.535899160716066802e-01 -2.328781628520938174e+00 3.660000000000000000e+02
1.012319461687886779e+01 -1.051451751706202487e+01 3.670000000000000000e+02
8.957202119560635722e+00 -9.714229133916553849e+00 3.670000000000000000e+02
7.791209622242402766e+00 -8.913940750771082833e+00 3.670000000000000000e+02
6.625217124924169809e+00 -8.113652367625611816e+00 3.670000000000000000e+02
5.459224627605937741e+00 -7.313363984480141688e+00 3.670000000000000000e+02
4.293232130287704784e+00 -6.513075601334670672e+00 3.670000000000000000e+02
3.127239632969472272e+00 -5.712787218189200544e+00 3.670000000000000000e+02
1.961247135651239759e+00 -4.912498835043729528e+00 3.670000000000000000e+02
7.952546383330068025e-01 -4.112210451898259400e+00 3.670000000000000000e+02
-3.707378589852252659e-01 -3.311922068752789272e+00 3.670000000000000000e+02
-1.536730356303458223e+00 -2.511633685607319144e+00 3.670000000000000000e+02
1.012319461687886779e+01 -1.051451751706202487e+01 3.680000000000000000e+02
8.957202119560635722e+00 -9.714229133916553849e+00 3.680000000000000000e+02
7.791209622242402766e+00 -8.913940750771082833e+00 3.680000000000000000e+02
6.625217124924169809e+00 -8.113652367625611816e+00 3.680000000000000000e+02
5.459224627605937741e+00 -7.313363984480141688e+00 3.680000000000000000e+02
4.293232130287704784e+00 -6.513075601334670672e+00 3.680000000000000000e+02
3.127239632969472272e+00 -5.712787218189200544e+00 3.680000000000000000e+02
1.961247135651239759e+00 -4.912498835043729528e+00 3.680000000000000000e+02
7.952546383330068025e-01 -4.112210451898259400e+00 3.680000000000000000e+02
-3.707378589852252659e-01 -3.311922068752789272e+00 3.680000000000000000e+02
-1.536730356303458223e+00 -2.511633685607319144e+00 3.680000000000000000e+02
1.012319461687886779e+01 -1.051451751706202487e+01 3.690000000000000000e+02
8.957202119560635722e+00 -9.714229133916553849e+00 3.690000000000000000e+02
7.791209622242402766e+00 -8.913940750771082833e+00 3.690000000000000000e+02
6.625217124924169809e+00 -8.113652367625611816e+00 3.690000000000000000e+02
5.459224627605937741e+00 -7.313363984480141688e+00 3.690000000000000000e+02
4.293232130287704784e+00 -6.513075601334670672e+00 3.690000000000000000e+02
3.127239632969472272e+00 -5.712787218189200544e+00 3.690000000000000000e+02
1.961247135651239759e+00 -4.912498835043729528e+00 3.690000000000000000e+02
7.952546383330068025e-01 -4.112210451898259400e+00 3.690000000000000000e+02
-3.707378589852252659e-01 -3.311922068752789272e+00 3.690000000000000000e+02
-1.536730356303458223e+00 -2.511633685607319144e+00 3.690000000000000000e+02
9.940342559792487265e+00 -9.531377076830171546e+00 3.700000000000000000e+02
8.774350062474255196e+00 -8.731088693684700530e+00 3.700000000000000000e+02
7.608357565156021352e+00 -7.930800310539231290e+00 3.700000000000000000e+02
6.442365067837789283e+00 -7.130511927393760274e+00 3.700000000000000000e+02
5.276372570519556326e+00 -6.330223544248290146e+00 3.700000000000000000e+02
4.110380073201323370e+00 -5.529935161102819130e+00 3.700000000000000000e+02
2.944387575883091301e+00 -4.729646777957349002e+00 3.700000000000000000e+02
1.778395078564858345e+00 -3.929358394811878430e+00 3.700000000000000000e+02
6.124025812466262764e-01 -3.129070011666407858e+00 3.700000000000000000e+02
-5.535899160716066802e-01 -2.328781628520938174e+00 3.700000000000000000e+02
9.940342559792487265e+00 -9.531377076830171546e+00 3.710000000000000000e+02
8.774350062474255196e+00 -8.731088693684700530e+00 3.710000000000000000e+02
7.608357565156021352e+00 -7.930800310539231290e+00 3.710000000000000000e+02
6.442365067837789283e+00 -7.130511927393760274e+00 3.710000000000000000e+02
5.276372570519556326e+00 -6.330223544248290146e+00 3.710000000000000000e+02
4.110380073201323370e+00 -5.529935161102819130e+00 3.710000000000000000e+02
2.944387575883091301e+00 -4.729646777957349002e+00 3.710000000000000000e+02
1.778395078564858345e+00 -3.929358394811878430e+00 3.710000000000000000e+02
6.124025812466262764e-01 -3.129070011666407858e+00 3.710000000000000000e+02
-5.535899160716066802e-01 -2.328781628520938174e+00 3.710000000000000000e+02
9.940342559792487265e+00 -9.531377076830171546e+00 3.720000000000000000e+02
8.774350062474255196e+00 -8.731088693684700530e+00 3.720000000000000000e+02
7.608357565156021352e+00 -7.930800310539231290e+00 3.720000000000000000e+02
6.442365067837789283e+00 -7.130511927393760274e+00 3.720000000000000000e+02
5.276372570519556326e+00 -6.330223544248290146e+00 3.720000000000000000e+02
4.110380073201323370e+00 -5.529935161102819130e+00 3.720000000000000000e+02
2.944387575883091301e+00 -4.729646777957349002e+00 3.720000000000000000e+02
1.778395078564858345e+00 -3.929358394811878430e+00 3.720000000000000000e+02
6.124025812466262764e-01 -3.129070011666407858e+00 3.720000000000000000e+02
-5.535899160716066802e-01 -2.328781628520938174e+00 3.720000000000000000e+02
9.940342559792487265e+00 -9.531377076830171546e+00 3.730000000000000000e+02
8.774350062474255196e+00 -8.731088693684700530e+00 3.730000000000000000e+02
7.608357565156021352e+00 -7.930800310539231290e+00 3.730000000000000000e+02
6.442365067837789283e+00 -7.130511927393760274e+00 3.730000000000000000e+02
5.276372570519556326e+00 -6.330223544248290146e+00 3.730000000000000000e+02
4.110380073201323370e+00 -5.529935161102819130e+00 3.730000000000000000e+02
2.944387575883091301e+00 -4.729646777957349002e+00 3.730000000000000000e+02
1.778395078564858345e+00 -3.929358394811878430e+00 3.730000000000000000e+02
6.124025812466262764e-01 -3.129070011666407858e+00 3.730000000000000000e+02
-5.535899160716066802e-01 -2.328781628520938174e+00 3.730000000000000000e+02
9.940342559792487265e+00 -9.531377076830171546e+00 3.740000000000000000e+02
8.774350062474255196e+00 -8.731088693684700530e+00 3.740000000000000000e+02
7.608357565156021352e+00 -7.930800310539231290e+00 3.740000000000000000e+02
6.442365067837789283e+00 -7.130511927393760274e+00 3.740000000000000000e+02
5.276372570519556326e+00 -6.330223544248290146e+00 3.740000000000000000e+02
4.110380073201323370e+00 -5.529935161102819130e+00 3.740000000000000000e+02
2.944387575883091301e+00 -4.729646777957349002e+00 3.740000000000000000e+02
1.778395078564858345e+00 -3.929358394811878430e+00 3.740000000000000000e+02
6.124025812466262764e-01 -3.129070011666407858e+00 3.740000000000000000e+02
-5.535899160716066802e-01 -2.328781628520938174e+00 3.740000000000000000e+02
9.940342559792487265e+00 -9.531377076830171546e+00 3.750000000000000000e+02
8.774350062474255196e+00 -8.731088693684700530e+00 3.750000000000000000e+02
7.608357565156021352e+00 -7.930800310539231290e+00 3.750000000000000000e+02
6.442365067837789283e+00 -7.130511927393760274e+00 3.750000000000000000e+02
5.276372570519556326e+00 -6.330223544248290146e+00 3.750000000000000000e+02
4.110380073201323370e+00 -5.529935161102819130e+00 3.750000000000000000e+02
2.944387575883091301e+00 -4.729646777957349002e+00 3.750000000000000000e+02
1.778395078564858345e+00 -3.929358394811878430e+00 3.750000000000000000e+02
6.124025812466262764e-01 -3.129070011666407858e+00 3.750000000000000000e+02
-5.535899160716066802e-01 -2.328781628520938174e+00 3.750000000000000000e+02
9.940342559792487265e+00 -9.531377076830171546e+00 3.760000000000000000e+02
8.774350062474255196e+00 -8.731088693684700530e+00 3.760000000000000000e+02
7.608357565156021352e+00 -7.930800310539231290e+00 3.760000000000000000e+02
6.442365067837789283e+00 -7.130511927393760274e+00 3.760000000000000000e+02
5.276372570519556326e+00 -6.330223544248290146e+00 3.760000000000000000e+02
4.110380073201323370e+00 -5.529935161102819130e+00 3.760000000000000000e+02
2.944387575883091301e+00 -4.729646777957349002e+00 3.760000000000000000e+02
1.778395078564858345e+00 -3.929358394811878430e+00 3.760000000000000000e+02
6.124025812466262764e-01 -3.129070011666407858e+00 3.760000000000000000e+02
-5.535899160716066802e-01 -2.328781628520938174e+00 3.760000000000000000e+02
9.940342559792487265e+00 -9.531377076830171546e+00 3.770000000000000000e+02
8.774350062474255196e+00 -8.731088693684700530e+00 3.770000000000000000e+02
7.608357565156021352e+00 -7.930800310539231290e+00 3.770000000000000000e+02
6.442365067837789283e+00 -7.130511927393760274e+00 3.770000000000000000e+02
5.276372570519556326e+00 -6.330223544248290146e+00 3.770000000000000000e+02
4.110380073201323370e+00 -5.529935161102819130e+00 3.770000000000000000e+02
2.944387575883091301e+00 -4.729646777957349002e+00 3.770000000000000000e+02
1.778395078564858345e+00 -3.929358394811878430e+00 3.770000000000000000e+02
6.124025812466262764e-01 -3.129070011666407858e+00 3.770000000000000000e+02
-5.535899160716066802e-01 -2.328781628520938174e+00 3.770000000000000000e+02
9.940342559792487265e+00 -9.531377076830171546e+00 3.780000000000000000e+02
8.774350062474255196e+00 -8.731088693684700530e+00 3.780000000000000000e+02
7.608357565156021352e+00 -7.930800310539231290e+00 3.780000000000000000e+02
6.442365067837789283e+00 -7.130511927393760274e+00 3.780000000000000000e+02
5.276372570519556326e+00 -6.330223544248290146e+00 3.780000000000000000e+02
4.110380073201323370e+00 -5.529935161102819130e+00 3.780000000000000000e+02
2.944387575883091301e+00 -4.729646777957349002e+00 3.780000000000000000e+02
1.778395078564858345e+00 -3.929358394811878430e+00 3.780000000000000000e+02
6.124025812466262764e-01 -3.129070011666407858e+00 3.780000000000000000e+02
-5.535899160716066802e-01 -2.328781628520938174e+00 3.780000000000000000e+02
9.757490502706104962e+00 -8.548236636598320004e+00 3.790000000000000000e+02
8.591498005387872894e+00 -7.747948253452849876e+00 3.790000000000000000e+02
7.425505508069640825e+00 -6.947659870307379748e+00 3.790000000000000000e+02
6.259513010751407869e+00 -6.147371487161908732e+00 3.790000000000000000e+02
5.093520513433174912e+00 -5.347083104016438604e+00 3.790000000000000000e+02
3.927528016114942844e+00 -4.546794720870968476e+00 3.790000000000000000e+02
2.761535518796709887e+00 -3.746506337725497460e+00 3.790000000000000000e+02
1.595543021478477375e+00 -2.946217954580026888e+00 3.790000000000000000e+02
4.295505241602448621e-01 -2.145929571434557204e+00 3.790000000000000000e+02
9.940342559792487265e+00 -9.531377076830171546e+00 3.800000000000000000e+02
8.774350062474255196e+00 -8.731088693684700530e+00 3.800000000000000000e+02
7.608357565156021352e+00 -7.930800310539231290e+00 3.800000000000000000e+02
6.442365067837789283e+00 -7.130511927393760274e+00 3.800000000000000000e+02
5.276372570519556326e+00 -6.330223544248290146e+00 3.800000000000000000e+02
4.110380073201323370e+00 -5.529935161102819130e+00 3.800000000000000000e+02
2.944387575883091301e+00 -4.729646777957349002e+00 3.800000000000000000e+02
1.778395078564858345e+00 -3.929358394811878430e+00 3.800000000000000000e+02
6.124025812466262764e-01 -3.129070011666407858e+00 3.800000000000000000e+02
-5.535899160716066802e-01 -2.328781628520938174e+00 3.800000000000000000e+02
9.940342559792487265e+00 -9.531377076830171546e+00 3.810000000000000000e+02
8.774350062474255196e+00 -8.731088693684700530e+00 3.810000000000000000e+02
7.608357565156021352e+00 -7.930800310539231290e+00 3.810000000000000000e+02
6.442365067837789283e+00 -7.130511927393760274e+00 3.810000000000000000e+02
5.276372570519556326e+00 -6.330223544248290146e+00 3.810000000000000000e+02
4.110380073201323370e+00 -5.529935161102819130e+00 3.810000000000000000e+02
2.944387575883091301e+00 -4.729646777957349002e+00 3.810000000000000000e+02
1.778395078564858345e+00 -3.929358394811878430e+00 3.810000000000000000e+02
6.124025812466262764e-01 -3.129070011666407858e+00 3.810000000000000000e+02
-5.535899160716066802e-01 -2.328781628520938174e+00 3.810000000000000000e+02
9.940342559792487265e+00 -9.531377076830171546e+00 3.820000000000000000e+02
8.774350062474255196e+00 -8.731088693684700530e+00 3.820000000000000000e+02
7.608357565156021352e+00 -7.930800310539231290e+00 3.820000000000000000e+02
6.442365067837789283e+00 -7.130511927393760274e+00 3.820000000000000000e+02
5.276372570519556326e+00 -6.330223544248290146e+00 3.820000000000000000e+02
4.110380073201323370e+00 -5.529935161102819130e+00 3.820000000000000000e+02
2.944387575883091301e+00 -4.729646777957349002e+00 3.820000000000000000e+02
1.778395078564858345e+00 -3.929358394811878430e+00 3.820000000000000000e+02
6.124025812466262764e-01 -3.129070011666407858e+00 3.820000000000000000e+02
-5.535899160716066802e-01 -2.328781628520938174e+00 3.820000000000000000e+02
9.940342559792487265e+00 -9.531377076830171546e+00 3.830000000000000000e+02
8.774350062474255196e+00 -8.731088693684700530e+00 3.830000000000000000e+02
7.608357565156021352e+00 -7.930800310539231290e+00 3.830000000000000000e+02
6.442365067837789283e+00 -7.130511927393760274e+00 3.830000000000000000e+02
5.276372570519556326e+00 -6.330223544248290146e+00 3.830000000000000000e+02
4.110380073201323370e+00 -5.529935161102819130e+00 3.830000000000000000e+02
2.944387575883091301e+00 -4.729646777957349002e+00 3.830000000000000000e+02
1.778395078564858345e+00 -3.929358394811878430e+00 3.830000000000000000e+02
6.124025812466262764e-01 -3.129070011666407858e+00 3.830000000000000000e+02
-5.535899160716066802e-01 -2.328781628520938174e+00 3.830000000000000000e+02
9.940342559792487265e+00 -9.531377076830171546e+00 3.840000000000000000e+02
8.774350062474255196e+00 -8.731088693684700530e+00 3.840000000000000000e+02
7.608357565156021352e+00 -7.930800310539231290e+00 3.840000000000000000e+02
6.442365067837789283e+00 -7.130511927393760274e+00 3.840000000000000000e+02
5.276372570519556326e+00 -6.330223544248290146e+00 3.840000000000000000e+02
4.110380073201323370e+00 -5.529935161102819130e+00 3.840000000000000000e+02
2.944387575883091301e+00 -4.729646777957349002e+00 3.840000000000000000e+02
1.778395078564858345e+00 -3.929358394811878430e+00 3.840000000000000000e+02
6.124025812466262764e-01 -3.129070011666407858e+00 3.840000000000000000e+02
-5.535899160716066802e-01 -2.328781628520938174e+00 3.840000000000000000e+02
9.940342559792487265e+00 -9.531377076830171546e+00 3.850000000000000000e+02
8.774350062474255196e+00 -8.731088693684700530e+00 3.850000000000000000e+02
7.608357565156021352e+00 -7.930800310539231290e+00 3.850000000000000000e+02
6.442365067837789283e+00 -7.130511927393760274e+00 3.850000000000000000e+02
5.276372570519556326e+00 -6.330223544248290146e+00 3.850000000000000000e+02
4.110380073201323370e+00 -5.529935161102819130e+00 3.850000000000000000e+02
2.944387575883091301e+00 -4.729646777957349002e+00 3.850000000000000000e+02
1.778395078564858345e+00 -3.929358394811878430e+00 3.850000000000000000e+02
6.124025812466262764e-01 -3.129070011666407858e+00 3.850000000000000000e+02
-5.535899160716066802e-01 -2.328781628520938174e+00 3.850000000000000000e+02
9.940342559792487265e+00 -9.531377076830171546e+00 3.860000000000000000e+02
8.774350062474255196e+00 -8.731088693684700530e+00 3.860000000000000000e+02
7.608357565156021352e+00 -7.930800310539231290e+00 3.860000000000000000e+02
6.442365067837789283e+00 -7.130511927393760274e+00 3.860000000000000000e+02
5.276372570519556326e+00 -6.330223544248290146e+00 3.860000000000000000e+02
4.110380073201323370e+00 -5.529935161102819130e+00 3.860000000000000000e+02
2.944387575883091301e+00 -4.729646777957349002e+00 3.860000000000000000e+02
1.778395078564858345e+00 -3.929358394811878430e+00 3.860000000000000000e+02
6.124025812466262764e-01 -3.129070011666407858e+00 3.860000000000000000e+02
-5.535899160716066802e-01 -2.328781628520938174e+00 3.860000000000000000e+02
9.940342559792487265e+00 -9.531377076830171546e+00 3.870000000000000000e+02
8.774350062474255196e+00 -8.731088693684700530e+00 3.870000000000000000e+02
7.608357565156021352e+00 -7.930800310539231290e+00 3.870000000000000000e+02
6.442365067837789283e+00 -7.130511927393760274e+00 3.870000000000000000e+02
5.276372570519556326e+00 -6.330223544248290146e+00 3.870000000000000000e+02
4.110380073201323370e+00 -5.529935161102819130e+00 3.870000000000000000e+02
2.944387575883091301e+00 -4.729646777957349002e+00 3.870000000000000000e+02
1.778395078564858345e+00 -3.929358394811878430e+00 3.870000000000000000e+02
6.124025812466262764e-01 -3.129070011666407858e+00 3.870000000000000000e+02
-5.535899160716066802e-01 -2.328781628520938174e+00 3.870000000000000000e+02
9.940342559792487265e+00 -9.531377076830171546e+00 3.880000000000000000e+02
8.774350062474255196e+00 -8.731088693684700530e+00 3.880000000000000000e+02
7.608357565156021352e+00 -7.930800310539231290e+00 3.880000000000000000e+02
6.442365067837789283e+00 -7.130511927393760274e+00 3.880000000000000000e+02
5.276372570519556326e+00 -6.330223544248290146e+00 3.880000000000000000e+02
4.110380073201323370e+00 -5.529935161102819130e+00 3.880000000000000000e+02
2.944387575883091301e+00 -4.729646777957349002e+00 3.880000000000000000e+02
1.778395078564858345e+00 -3.929358394811878430e+00 3.880000000000000000e+02
6.124025812466262764e-01 -3.129070011666407858e+00 3.880000000000000000e+02
-5.535899160716066802e-01 -2.328781628520938174e+00 3.880000000000000000e+02
9.940342559792487265e+00 -9.531377076830171546e+00 3.890000000000000000e+02
8.774350062474255196e+00 -8.731088693684700530e+00 3.890000000000000000e+02
7.608357565156021352e+00 -7.930800310539231290e+00 3.890000000000000000e+02
6.442365067837789283e+00 -7.130511927393760274e+00 3.890000000000000000e+02
5.276372570519556326e+00 -6.330223544248290146e+00 3.890000000000000000e+02
4.110380073201323370e+00 -5.529935161102819130e+00 3.890000000000000000e+02
2.944387575883091301e+00 -4.729646777957349002e+00 3.890000000000000000e+02
1.778395078564858345e+00 -3.929358394811878430e+00 3.890000000000000000e+02
6.124025812466262764e-01 -3.129070011666407858e+00 3.890000000000000000e+02
-5.535899160716066802e-01 -2.328781628520938174e+00 3.890000000000000000e+02
9.940342559792487265e+00 -9.531377076830171546e+00 3.900000000000000000e+02
8.774350062474255196e+00 -8.731088693684700530e+00 3.900000000000000000e+02
7.608357565156021352e+00 -7.930800310539231290e+00 3.900000000000000000e+02
6.442365067837789283e+00 -7.130511927393760274e+00 3.900000000000000000e+02
5.276372570519556326e+00 -6.330223544248290146e+00 3.900000000000000000e+02
4.110380073201323370e+00 -5.529935161102819130e+00 3.900000000000000000e+02
2.944387575883091301e+00 -4.729646777957349002e+00 3.900000000000000000e+02
1.778395078564858345e+00 -3.929358394811878430e+00 3.900000000000000000e+02
6.124025812466262764e-01 -3.129070011666407858e+00 3.900000000000000000e+02
-5.535899160716066802e-01 -2.328781628520938174e+00 3.900000000000000000e+02
9.940342559792487265e+00 -9.531377076830171546e+00 3.910000000000000000e+02
8.774350062474255196e+00 -8.731088693684700530e+00 3.910000000000000000e+02
7.608357565156021352e+00 -7.930800310539231290e+00 3.910000000000000000e+02
6.442365067837789283e+00 -7.130511927393760274e+00 3.910000000000000000e+02
5.276372570519556326e+00 -6.330223544248290146e+00 3.910000000000000000e+02
4.110380073201323370e+00 -5.529935161102819130e+00 3.910000000000000000e+02
2.944387575883091301e+00 -4.729646777957349002e+00 3.910000000000000000e+02
1.778395078564858345e+00 -3.929358394811878430e+00 3.910000000000000000e+02
6.124025812466262764e-01 -3.129070011666407858e+00 3.910000000000000000e+02
-5.535899160716066802e-01 -2.328781628520938174e+00 3.910000000000000000e+02
9.940342559792487265e+00 -9.531377076830171546e+00 3.920000000000000000e+02
8.774350062474255196e+00 -8.731088693684700530e+00 3.920000000000000000e+02
7.608357565156021352e+00 -7.930800310539231290e+00 3.920000000000000000e+02
6.442365067837789283e+00 -7.130511927393760274e+00 3.920000000000000000e+02
5.276372570519556326e+00 -6.330223544248290146e+00 3.920000000000000000e+02
4.110380073201323370e+00 -5.529935161102819130e+00 3.920000000000000000e+02
2.944387575883091301e+00 -4.729646777957349002e+00 3.920000000000000000e+02
1.778395078564858345e+00 -3.929358394811878430e+00 3.920000000000000000e+02
6.124025812466262764e-01 -3.129070011666407858e+00 3.920000000000000000e+02
-5.535899160716066802e-01 -2.328781628520938174e+00 3.920000000000000000e+02
9.940342559792487265e+00 -9.531377076830171546e+00 3.930000000000000000e+02
8.774350062474255196e+00 -8.731088693684700530e+00 3.930000000000000000e+02
7.608357565156021352e+00 -7.930800310539231290e+00 3.930000000000000000e+02
6.442365067837789283e+00 -7.130511927393760274e+00 3.930000000000000000e+02
5.276372570519556326e+00 -6.330223544248290146e+00 3.930000000000000000e+02
4.110380073201323370e+00 -5.529935161102819130e+00 3.930000000000000000e+02
2.944387575883091301e+00 -4.729646777957349002e+00 3.930000000000000000e+02
1.778395078564858345e+00 -3.929358394811878430e+00 3.930000000000000000e+02
6.124025812466262764e-01 -3.129070011666407858e+00 3.930000000000000000e+02
-5.535899160716066802e-01 -2.328781628520938174e+00 3.930000000000000000e+02
9.940342559792487265e+00 -9.531377076830171546e+00 3.940000000000000000e+02
8.774350062474255196e+00 -8.731088693684700530e+00 3.940000000000000000e+02
7.608357565156021352e+00 -7.930800310539231290e+00 3.940000000000000000e+02
6.442365067837789283e+00 -7.130511927393760274e+00 3.940000000000000000e+02
5.276372570519556326e+00 -6.330223544248290146e+00 3.940000000000000000e+02
4.110380073201323370e+00 -5.529935161102819130e+00 3.940000000000000000e+02
2.944387575883091301e+00 -4.729646777957349002e+00 3.940000000000000000e+02
1.778395078564858345e+00 -3.929358394811878430e+00 3.940000000000000000e+02
6.124025812466262764e-01 -3.129070011666407858e+00 3.940000000000000000e+02
-5.535899160716066802e-01 -2.328781628520938174e+00 3.940000000000000000e+02
9.940342559792487265e+00 -9.531377076830171546e+00 3.950000000000000000e+02
8.774350062474255196e+00 -8.731088693684700530e+00 3.950000000000000000e+02
7.608357565156021352e+00 -7.930800310539231290e+00 3.950000000000000000e+02
6.442365067837789283e+00 -7.130511927393760274e+00 3.950000000000000000e+02
5.276372570519556326e+00 -6.330223544248290146e+00 3.950000000000000000e+02
4.110380073201323370e+00 -5.529935161102819130e+00 3.950000000000000000e+02
2.944387575883091301e+00 -4.729646777957349002e+00 3.950000000000000000e+02
1.778395078564858345e+00 -3.929358394811878430e+00 3.950000000000000000e+02
6.124025812466262764e-01 -3.129070011666407858e+00 3.950000000000000000e+02
-5.535899160716066802e-01 -2.328781628520938174e+00 3.950000000000000000e+02
9.940342559792487265e+00 -9.531377076830171546e+00 3.960000000000000000e+02
8.774350062474255196e+00 -8.731088693684700530e+00 3.960000000000000000e+02
7.608357565156021352e+00 -7.930800310539231290e+00 3.960000000000000000e+02
6.442365067837789283e+00 -7.130511927393760274e+00 3.960000000000000000e+02
5.276372570519556326e+00 -6.330223544248290146e+00 3.960000000000000000e+02
4.110380073201323370e+00 -5.529935161102819130e+00 3.960000000000000000e+02
2.944387575883091301e+00 -4.729646777957349002e+00 3.960000000000000000e+02
1.778395078564858345e+00 -3.929358394811878430e+00 3.960000000000000000e+02
6.124025812466262764e-01 -3.129070011666407858e+00 3.960000000000000000e+02
-5.535899160716066802e-01 -2.328781628520938174e+00 3.960000000000000000e+02
9.940342559792487265e+00 -9.531377076830171546e+00 3.970000000000000000e+02
8.774350062474255196e+00 -8.731088693684700530e+00 3.970000000000000000e+02
7.608357565156021352e+00 -7.930800310539231290e+00 3.970000000000000000e+02
6.442365067837789283e+00 -7.130511927393760274e+00 3.970000000000000000e+02
5.276372570519556326e+00 -6.330223544248290146e+00 3.970000000000000000e+02
4.110380073201323370e+00 -5.529935161102819130e+00 3.970000000000000000e+02
2.944387575883091301e+00 -4.729646777957349002e+00 3.970000000000000000e+02
1.778395078564858345e+00 -3.929358394811878430e+00 3.970000000000000000e+02
6.124025812466262764e-01 -3.129070011666407858e+00 3.970000000000000000e+02
-5.535899160716066802e-01 -2.328781628520938174e+00 3.970000000000000000e+02
9.940342559792487265e+00 -9.531377076830171546e+00 3.980000000000000000e+02
8.774350062474255196e+00 -8.731088693684700530e+00 3.980000000000000000e+02
7.608357565156021352e+00 -7.930800310539231290e+00 3.980000000000000000e+02
6.442365067837789283e+00 -7.130511927393760274e+00 3.980000000000000000e+02
5.276372570519556326e+00 -6.330223544248290146e+00 3.980000000000000000e+02
4.110380073201323370e+00 -5.529935161102819130e+00 3.980000000000000000e+02
2.944387575883091301e+00 -4.729646777957349002e+00 3.980000000000000000e+02
1.778395078564858345e+00 -3.929358394811878430e+00 3.980000000000000000e+02
6.124025812466262764e-01 -3.129070011666407858e+00 3.980000000000000000e+02
-5.535899160716066802e-01 -2.328781628520938174e+00 3.980000000000000000e+02
9.940342559792487265e+00 -9.531377076830171546e+00 3.990000000000000000e+02
8.774350062474255196e+00 -8.731088693684700530e+00 3.990000000000000000e+02
7.608357565156021352e+00 -7.930800310539231290e+00 3.990000000000000000e+02
6.442365067837789283e+00 -7.130511927393760274e+00 3.990000000000000000e+02
5.276372570519556326e+00 -6.330223544248290146e+00 3.990000000000000000e+02
4.110380073201323370e+00 -5.529935161102819130e+00 3.990000000000000000e+02
2.944387575883091301e+00 -4.729646777957349002e+00 3.990000000000000000e+02
1.778395078564858345e+00 -3.929358394811878430e+00 3.990000000000000000e+02
6.124025812466262764e-01 -3.129070011666407858e+00 3.990000000000000000e+02
-5.535899160716066802e-01 -2.328781628520938174e+00 3.990000000000000000e+02
1.012319461687886779e+01 -1.051451751706202487e+01 4.000000000000000000e+02
8.957202119560635722e+00 -9.714229133916553849e+00 4.000000000000000000e+02
7.791209622242402766e+00 -8.913940750771082833e+00 4.000000000000000000e+02
6.625217124924169809e+00 -8.113652367625611816e+00 4.000000000000000000e+02
5.459224627605937741e+00 -7.313363984480141688e+00 4.000000000000000000e+02
4.293232130287704784e+00 -6.513075601334670672e+00 4.000000000000000000e+02
3.127239632969472272e+00 -5.712787218189200544e+00 4.000000000000000000e+02
1.961247135651239759e+00 -4.912498835043729528e+00 4.000000000000000000e+02
7.952546383330068025e-01 -4.112210451898259400e+00 4.000000000000000000e+02
-3.707378589852252659e-01 -3.311922068752789272e+00 4.000000000000000000e+02
-1.536730356303458223e+00 -2.511633685607319144e+00 4.000000000000000000e+02
9.940342559792487265e+00 -9.531377076830171546e+00 4.010000000000000000e+02
8.774350062474255196e+00 -8.731088693684700530e+00 4.010000000000000000e+02
7.608357565156021352e+00 -7.930800310539231290e+00 4.010000000000000000e+02
6.442365067837789283e+00 -7.130511927393760274e+00 4.010000000000000000e+02
5.276372570519556326e+00 -6.330223544248290146e+00 4.010000000000000000e+02
4.110380073201323370e+00 -5.529935161102819130e+00 4.010000000000000000e+02
2.944387575883091301e+00 -4.729646777957349002e+00 4.010000000000000000e+02
1.778395078564858345e+00 -3.929358394811878430e+00 4.010000000000000000e+02
6.124025812466262764e-01 -3.129070011666407858e+00 4.010000000000000000e+02
9.940342559792487265e+00 -9.531377076830171546e+00 4.020000000000000000e+02
8.774350062474255196e+00 -8.731088693684700530e+00 4.020000000000000000e+02
7.608357565156021352e+00 -7.930800310539231290e+00 4.020000000000000000e+02
6.442365067837789283e+00 -7.130511927393760274e+00 4.020000000000000000e+02
5.276372570519556326e+00 -6.330223544248290146e+00 4.020000000000000000e+02
4.110380073201323370e+00 -5.529935161102819130e+00 4.020000000000000000e+02
2.944387575883091301e+00 -4.729646777957349002e+00 4.020000000000000000e+02
1.778395078564858345e+00 -3.929358394811878430e+00 4.020000000000000000e+02
6.124025812466262764e-01 -3.129070011666407858e+00 4.020000000000000000e+02
9.940342559792487265e+00 -9.531377076830171546e+00 4.030000000000000000e+02
8.774350062474255196e+00 -8.731088693684700530e+00 4.030000000000000000e+02
7.608357565156021352e+00 -7.930800310539231290e+00 4.030000000000000000e+02
6.442365067837789283e+00 -7.130511927393760274e+00 4.030000000000000000e+02
5.276372570519556326e+00 -6.330223544248290146e+00 4.030000000000000000e+02
4.110380073201323370e+00 -5.529935161102819130e+00 4.030000000000000000e+02
2.944387575883091301e+00 -4.729646777957349002e+00 4.030000000000000000e+02
1.778395078564858345e+00 -3.929358394811878430e+00 4.030000000000000000e+02
6.124025812466262764e-01 -3.129070011666407858e+00 4.030000000000000000e+02
9.940342559792487265e+00 -9.531377076830171546e+00 4.040000000000000000e+02
8.774350062474255196e+00 -8.731088693684700530e+00 4.040000000000000000e+02
7.608357565156021352e+00 -7.930800310539231290e+00 4.040000000000000000e+02
6.442365067837789283e+00 -7.130511927393760274e+00 4.040000000000000000e+02
5.276372570519556326e+00 -6.330223544248290146e+00 4.040000000000000000e+02
4.110380073201323370e+00 -5.529935161102819130e+00 4.040000000000000000e+02
2.944387575883091301e+00 -4.729646777957349002e+00 4.040000000000000000e+02
1.778395078564858345e+00 -3.929358394811878430e+00 4.040000000000000000e+02
6.124025812466262764e-01 -3.129070011666407858e+00 4.040000000000000000e+02
9.940342559792487265e+00 -9.531377076830171546e+00 4.050000000000000000e+02
8.774350062474255196e+00 -8.731088693684700530e+00 4.050000000000000000e+02
7.608357565156021352e+00 -7.930800310539231290e+00 4.050000000000000000e+02
6.442365067837789283e+00 -7.130511927393760274e+00 4.050000000000000000e+02
5.276372570519556326e+00 -6.330223544248290146e+00 4.050000000000000000e+02
4.110380073201323370e+00 -5.529935161102819130e+00 4.050000000000000000e+02
2.944387575883091301e+00 -4.729646777957349002e+00 4.050000000000000000e+02
1.778395078564858345e+00 -3.929358394811878430e+00 4.050000000000000000e+02
6.124025812466262764e-01 -3.129070011666407858e+00 4.050000000000000000e+02
9.940342559792487265e+00 -9.531377076830171546e+00 4.060000000000000000e+02
8.774350062474255196e+00 -8.731088693684700530e+00 4.060000000000000000e+02
7.608357565156021352e+00 -7.930800310539231290e+00 4.060000000000000000e+02
6.442365067837789283e+00 -7.130511927393760274e+00 4.060000000000000000e+02
5.276372570519556326e+00 -6.330223544248290146e+00 4.060000000000000000e+02
4.110380073201323370e+00 -5.529935161102819130e+00 4.060000000000000000e+02
2.944387575883091301e+00 -4.729646777957349002e+00 4.060000000000000000e+02
1.778395078564858345e+00 -3.929358394811878430e+00 4.060000000000000000e+02
6.124025812466262764e-01 -3.129070011666407858e+00 4.060000000000000000e+02
1.012319461687886779e+01 -1.051451751706202487e+01 4.070000000000000000e+02
8.957202119560635722e+00 -9.714229133916553849e+00 4.070000000000000000e+02
7.791209622242402766e+00 -8.913940750771082833e+00 4.070000000000000000e+02
6.625217124924169809e+00 -8.113652367625611816e+00 4.070000000000000000e+02
5.459224627605937741e+00 -7.313363984480141688e+00 4.070000000000000000e+02
4.293232130287704784e+00 -6.513075601334670672e+00 4.070000000000000000e+02
3.127239632969472272e+00 -5.712787218189200544e+00 4.070000000000000000e+02
1.961247135651239759e+00 -4.912498835043729528e+00 4.070000000000000000e+02
7.952546383330068025e-01 -4.112210451898259400e+00 4.070000000000000000e+02
-3.707378589852252659e-01 -3.311922068752789272e+00 4.070000000000000000e+02
1.012319461687886779e+01 -1.051451751706202487e+01 4.080000000000000000e+02
8.957202119560635722e+00 -9.714229133916553849e+00 4.080000000000000000e+02
7.791209622242402766e+00 -8.913940750771082833e+00 4.080000000000000000e+02
6.625217124924169809e+00 -8.113652367625611816e+00 4.080000000000000000e+02
5.459224627605937741e+00 -7.313363984480141688e+00 4.080000000000000000e+02
4.293232130287704784e+00 -6.513075601334670672e+00 4.080000000000000000e+02
3.127239632969472272e+00 -5.712787218189200544e+00 4.080000000000000000e+02
1.961247135651239759e+00 -4.912498835043729528e+00 4.080000000000000000e+02
7.952546383330068025e-01 -4.112210451898259400e+00 4.080000000000000000e+02
-3.707378589852252659e-01 -3.311922068752789272e+00 4.080000000000000000e+02
1.012319461687886779e+01 -1.051451751706202487e+01 4.090000000000000000e+02
8.957202119560635722e+00 -9.714229133916553849e+00 4.090000000000000000e+02
7.791209622242402766e+00 -8.913940750771082833e+00 4.090000000000000000e+02
6.625217124924169809e+00 -8.113652367625611816e+00 4.090000000000000000e+02
5.459224627605937741e+00 -7.313363984480141688e+00 4.090000000000000000e+02
4.293232130287704784e+00 -6.513075601334670672e+00 4.090000000000000000e+02
3.127239632969472272e+00 -5.712787218189200544e+00 4.090000000000000000e+02
1.961247135651239759e+00 -4.912498835043729528e+00 4.090000000000000000e+02
7.952546383330068025e-01 -4.112210451898259400e+00 4.090000000000000000e+02
-3.707378589852252659e-01 -3.311922068752789272e+00 4.090000000000000000e+02
1.012319461687886779e+01 -1.051451751706202487e+01 4.100000000000000000e+02
8.957202119560635722e+00 -9.714229133916553849e+00 4.100000000000000000e+02
7.791209622242402766e+00 -8.913940750771082833e+00 4.100000000000000000e+02
6.625217124924169809e+00 -8.113652367625611816e+00 4.100000000000000000e+02
5.459224627605937741e+00 -7.313363984480141688e+00 4.100000000000000000e+02
4.293232130287704784e+00 -6.513075601334670672e+00 4.100000000000000000e+02
3.127239632969472272e+00 -5.712787218189200544e+00 4.100000000000000000e+02
1.961247135651239759e+00 -4.912498835043729528e+00 4.100000000000000000e+02
7.952546383330068025e-01 -4.112210451898259400e+00 4.100000000000000000e+02
-3.707378589852252659e-01 -3.311922068752789272e+00 4.100000000000000000e+02
1.012319461687886779e+01 -1.051451751706202487e+01 4.110000000000000000e+02
8.957202119560635722e+00 -9.714229133916553849e+00 4.110000000000000000e+02
7.791209622242402766e+00 -8.913940750771082833e+00 4.110000000000000000e+02
6.625217124924169809e+00 -8.113652367625611816e+00 4.110000000000000000e+02
5.459224627605937741e+00 -7.313363984480141688e+00 4.110000000000000000e+02
4.293232130287704784e+00 -6.513075601334670672e+00 4.110000000000000000e+02
3.127239632969472272e+00 -5.712787218189200544e+00 4.110000000000000000e+02
1.961247135651239759e+00 -4.912498835043729528e+00 4.110000000000000000e+02
7.952546383330068025e-01 -4.112210451898259400e+00 4.110000000000000000e+02
-3.707378589852252659e-01 -3.311922068752789272e+00 4.110000000000000000e+02
1.012319461687886779e+01 -1.051451751706202487e+01 4.120000000000000000e+02
8.957202119560635722e+00 -9.714229133916553849e+00 4.120000000000000000e+02
7.791209622242402766e+00 -8.913940750771082833e+00 4.120000000000000000e+02
6.625217124924169809e+00 -8.113652367625611816e+00 4.120000000000000000e+02
5.459224627605937741e+00 -7.313363984480141688e+00 4.120000000000000000e+02
4.293232130287704784e+00 -6.513075601334670672e+00 4.120000000000000000e+02
3.127239632969472272e+00 -5.712787218189200544e+00 4.120000000000000000e+02
1.961247135651239759e+00 -4.912498835043729528e+00 4.120000000000000000e+02
7.952546383330068025e-01 -4.112210451898259400e+00 4.120000000000000000e+02
1.012319461687886779e+01 -1.051451751706202487e+01 4.130000000000000000e+02
8.957202119560635722e+00 -9.714229133916553849e+00 4.130000000000000000e+02
7.791209622242402766e+00 -8.913940750771082833e+00 4.130000000000000000e+02
6.625217124924169809e+00 -8.113652367625611816e+00 4.130000000000000000e+02
5.459224627605937741e+00 -7.313363984480141688e+00 4.130000000000000000e+02
4.293232130287704784e+00 -6.513075601334670672e+00 4.130000000000000000e+02
3.127239632969472272e+00 -5.712787218189200544e+00 4.130000000000000000e+02
1.961247135651239759e+00 -4.912498835043729528e+00 4.130000000000000000e+02
7.952546383330068025e-01 -4.112210451898259400e+00 4.130000000000000000e+02
1.012319461687886779e+01 -1.051451751706202487e+01 4.140000000000000000e+02
8.957202119560635722e+00 -9.714229133916553849e+00 4.140000000000000000e+02
7.791209622242402766e+00 -8.913940750771082833e+00 4.140000000000000000e+02
6.625217124924169809e+00 -8.113652367625611816e+00 4.140000000000000000e+02
5.459224627605937741e+00 -7.313363984480141688e+00 4.140000000000000000e+02
4.293232130287704784e+00 -6.513075601334670672e+00 4.140000000000000000e+02
3.127239632969472272e+00 -5.712787218189200544e+00 4.140000000000000000e+02
1.961247135651239759e+00 -4.912498835043729528e+00 4.140000000000000000e+02
7.952546383330068025e-01 -4.112210451898259400e+00 4.140000000000000000e+02
1.030604667396524832e+01 -1.149765795729387463e+01 4.150000000000000000e+02
9.140054176647016249e+00 -1.069736957414840361e+01 4.150000000000000000e+02
7.974061679328784180e+00 -9.897081191002934375e+00 4.150000000000000000e+02
6.808069182010551224e+00 -9.096792807857463359e+00 4.150000000000000000e+02
5.642076684692318267e+00 -8.296504424711994119e+00 4.150000000000000000e+02
4.476084187374086198e+00 -7.496216041566523103e+00 4.150000000000000000e+02
3.310091690055853242e+00 -6.695927658421052087e+00 4.150000000000000000e+02
2.144099192737620729e+00 -5.895639275275581959e+00 4.150000000000000000e+02
9.781066954193882168e-01 -5.095350892130110942e+00 4.150000000000000000e+02
-1.878858018988447398e-01 -4.295062508984640814e+00 4.150000000000000000e+02
1.030604667396524832e+01 -1.149765795729387463e+01 4.160000000000000000e+02
9.140054176647016249e+00 -1.069736957414840361e+01 4.160000000000000000e+02
7.974061679328784180e+00 -9.897081191002934375e+00 4.160000000000000000e+02
6.808069182010551224e+00 -9.096792807857463359e+00 4.160000000000000000e+02
5.642076684692318267e+00 -8.296504424711994119e+00 4.160000000000000000e+02
4.476084187374086198e+00 -7.496216041566523103e+00 4.160000000000000000e+02
3.310091690055853242e+00 -6.695927658421052087e+00 4.160000000000000000e+02
2.144099192737620729e+00 -5.895639275275581959e+00 4.160000000000000000e+02
9.781066954193882168e-01 -5.095350892130110942e+00 4.160000000000000000e+02
-1.878858018988447398e-01 -4.295062508984640814e+00 4.160000000000000000e+02
1.030604667396524832e+01 -1.149765795729387463e+01 4.170000000000000000e+02
9.140054176647016249e+00 -1.069736957414840361e+01 4.170000000000000000e+02
7.974061679328784180e+00 -9.897081191002934375e+00 4.170000000000000000e+02
6.808069182010551224e+00 -9.096792807857463359e+00 4.170000000000000000e+02
5.642076684692318267e+00 -8.296504424711994119e+00 4.170000000000000000e+02
4.476084187374086198e+00 -7.496216041566523103e+00 4.170000000000000000e+02
3.310091690055853242e+00 -6.695927658421052087e+00 4.170000000000000000e+02
2.144099192737620729e+00 -5.895639275275581959e+00 4.170000000000000000e+02
9.781066954193882168e-01 -5.095350892130110942e+00 4.170000000000000000e+02
-1.878858018988447398e-01 -4.295062508984640814e+00 4.170000000000000000e+02
1.030604667396524832e+01 -1.149765795729387463e+01 4.180000000000000000e+02
9.140054176647016249e+00 -1.069736957414840361e+01 4.180000000000000000e+02
7.974061679328784180e+00 -9.897081191002934375e+00 4.180000000000000000e+02
6.808069182010551224e+00 -9.096792807857463359e+00 4.180000000000000000e+02
5.642076684692318267e+00 -8.296504424711994119e+00 4.180000000000000000e+02
4.476084187374086198e+00 -7.496216041566523103e+00 4.180000000000000000e+02
3.310091690055853242e+00 -6.695927658421052087e+00 4.180000000000000000e+02
2.144099192737620729e+00 -5.895639275275581959e+00 4.180000000000000000e+02
9.781066954193882168e-01 -5.095350892130110942e+00 4.180000000000000000e+02
-1.878858018988447398e-01 -4.295062508984640814e+00 4.180000000000000000e+02
1.030604667396524832e+01 -1.149765795729387463e+01 4.190000000000000000e+02
9.140054176647016249e+00 -1.069736957414840361e+01 4.190000000000000000e+02
7.974061679328784180e+00 -9.897081191002934375e+00 4.190000000000000000e+02
6.808069182010551224e+00 -9.096792807857463359e+00 4.190000000000000000e+02
5.642076684692318267e+00 -8.296504424711994119e+00 4.190000000000000000e+02
4.476084187374086198e+00 -7.496216041566523103e+00 4.190000000000000000e+02
3.310091690055853242e+00 -6.695927658421052087e+00 4.190000000000000000e+02
2.144099192737620729e+00 -5.895639275275581959e+00 4.190000000000000000e+02
9.781066954193882168e-01 -5.095350892130110942e+00 4.190000000000000000e+02
-1.878858018988447398e-01 -4.295062508984640814e+00 4.190000000000000000e+02
1.030604667396524832e+01 -1.149765795729387463e+01 4.200000000000000000e+02
9.140054176647016249e+00 -1.069736957414840361e+01 4.200000000000000000e+02
7.974061679328784180e+00 -9.897081191002934375e+00 4.200000000000000000e+02
6.808069182010551224e+00 -9.096792807857463359e+00 4.200000000000000000e+02
5.642076684692318267e+00 -8.296504424711994119e+00 4.200000000000000000e+02
4.476084187374086198e+00 -7.496216041566523103e+00 4.200000000000000000e+02
3.310091690055853242e+00 -6.695927658421052087e+00 4.200000000000000000e+02
2.144099192737620729e+00 -5.895639275275581959e+00 4.200000000000000000e+02
9.781066954193882168e-01 -5.095350892130110942e+00 4.200000000000000000e+02
-1.878858018988447398e-01 -4.295062508984640814e+00 4.200000000000000000e+02
1.030604667396524832e+01 -1.149765795729387463e+01 4.210000000000000000e+02
9.140054176647016249e+00 -1.069736957414840361e+01 4.210000000000000000e+02
7.974061679328784180e+00 -9.897081191002934375e+00 4.210000000000000000e+02
6.808069182010551224e+00 -9.096792807857463359e+00 4.210000000000000000e+02
5.642076684692318267e+00 -8.296504424711994119e+00 4.210000000000000000e+02
4.476084187374086198e+00 -7.496216041566523103e+00 4.210000000000000000e+02
