5.276808852447128828e+00 6.461299891136290796e+01 2.610000000000000000e+02
5.783620511498652306e+00 6.593327992018240025e+01 2.610000000000000000e+02
6.290432170550175783e+00 6.725356092900190674e+01 2.610000000000000000e+02
6.797243829601699261e+00 6.857384193782141324e+01 2.610000000000000000e+02
7.304055488653222739e+00 6.989412294664090552e+01 2.610000000000000000e+02
7.810867147704746216e+00 7.121440395546041202e+01 2.610000000000000000e+02
8.317678806756269694e+00 7.253468496427991852e+01 2.610000000000000000e+02
8.824490465807793171e+00 7.385496597309941080e+01 2.610000000000000000e+02
4.769997193395605350e+00 6.329271790254340146e+01 2.620000000000000000e+02
5.276808852447128828e+00 6.461299891136290796e+01 2.620000000000000000e+02
5.783620511498652306e+00 6.593327992018240025e+01 2.620000000000000000e+02
6.290432170550175783e+00 6.725356092900190674e+01 2.620000000000000000e+02
6.797243829601699261e+00 6.857384193782141324e+01 2.620000000000000000e+02
7.304055488653222739e+00 6.989412294664090552e+01 2.620000000000000000e+02
7.810867147704746216e+00 7.121440395546041202e+01 2.620000000000000000e+02
8.317678806756269694e+00 7.253468496427991852e+01 2.620000000000000000e+02
8.824490465807793171e+00 7.385496597309941080e+01 2.620000000000000000e+02
9.331302124859316649e+00 7.517524698191891730e+01 2.620000000000000000e+02
4.769997193395605350e+00 6.329271790254340146e+01 2.630000000000000000e+02
5.276808852447128828e+00 6.461299891136290796e+01 2.630000000000000000e+02
5.783620511498652306e+00 6.593327992018240025e+01 2.630000000000000000e+02
6.290432170550175783e+00 6.725356092900190674e+01 2.630000000000000000e+02
6.797243829601699261e+00 6.857384193782141324e+01 2.630000000000000000e+02
7.304055488653222739e+00 6.989412294664090552e+01 2.630000000000000000e+02
7.810867147704746216e+00 7.121440395546041202e+01 2.630000000000000000e+02
8.317678806756269694e+00 7.253468496427991852e+01 2.630000000000000000e+02
8.824490465807793171e+00 7.385496597309941080e+01 2.630000000000000000e+02
9.331302124859316649e+00 7.517524698191891730e+01 2.630000000000000000e+02
4.769997193395605350e+00 6.329271790254340146e+01 2.640000000000000000e+02
5.276808852447128828e+00 6.461299891136290796e+01 2.640000000000000000e+02
5.783620511498652306e+00 6.593327992018240025e+01 2.640000000000000000e+02
6.290432170550175783e+00 6.725356092900190674e+01 2.640000000000000000e+02
6.797243829601699261e+00 6.857384193782141324e+01 2.640000000000000000e+02
7.304055488653222739e+00 6.989412294664090552e+01 2.640000000000000000e+02
7.810867147704746216e+00 7.121440395546041202e+01 2.640000000000000000e+02
8.317678806756269694e+00 7.253468496427991852e+01 2.640000000000000000e+02
8.824490465807793171e+00 7.385496597309941080e+01 2.640000000000000000e+02
4.769997193395605350e+00 6.329271790254340146e+01 2.650000000000000000e+02
5.276808852447128828e+00 6.461299891136290796e+01 2.650000000000000000e+02
5.783620511498652306e+00 6.593327992018240025e+01 2.650000000000000000e+02
6.290432170550175783e+00 6.725356092900190674e+01 2.650000000000000000e+02
6.797243829601699261e+00 6.857384193782141324e+01 2.650000000000000000e+02
7.304055488653222739e+00 6.989412294664090552e+01 2.650000000000000000e+02
7.810867147704746216e+00 7.121440395546041202e+01 2.650000000000000000e+02
8.317678806756269694e+00 7.253468496427991852e+01 2.650000000000000000e+02
8.824490465807793171e+00 7.385496597309941080e+01 2.650000000000000000e+02
5.683543527331118561e+00 6.369945257742739386e+01 2.660000000000000000e+02
6.190355186382642039e+00 6.501973358624688615e+01 2.660000000000000000e+02
6.697166845434164628e+00 6.634001459506639264e+01 2.660000000000000000e+02
7.203978504485688106e+00 6.766029560388589914e+01 2.660000000000000000e+02
7.710790163537211583e+00 6.898057661270540564e+01 2.660000000000000000e+02
8.217601822588735061e+00 7.030085762152489792e+01 2.660000000000000000e+02
8.724413481640258539e+00 7.162113863034440442e+01 2.660000000000000000e+02
9.231225140691782016e+00 7.294141963916391092e+01 2.660000000000000000e+02
4.769997193395605350e+00 6.329271790254340146e+01 2.670000000000000000e+02
5.276808852447128828e+00 6.461299891136290796e+01 2.670000000000000000e+02
5.783620511498652306e+00 6.593327992018240025e+01 2.670000000000000000e+02
6.290432170550175783e+00 6.725356092900190674e+01 2.670000000000000000e+02
6.797243829601699261e+00 6.857384193782141324e+01 2.670000000000000000e+02
7.304055488653222739e+00 6.989412294664090552e+01 2.670000000000000000e+02
7.810867147704746216e+00 7.121440395546041202e+01 2.670000000000000000e+02
8.317678806756269694e+00 7.253468496427991852e+01 2.670000000000000000e+02
8.824490465807793171e+00 7.385496597309941080e+01 2.670000000000000000e+02
4.769997193395605350e+00 6.329271790254340146e+01 2.680000000000000000e+02
5.276808852447128828e+00 6.461299891136290796e+01 2.680000000000000000e+02
5.783620511498652306e+00 6.593327992018240025e+01 2.680000000000000000e+02
6.290432170550175783e+00 6.725356092900190674e+01 2.680000000000000000e+02
6.797243829601699261e+00 6.857384193782141324e+01 2.680000000000000000e+02
7.304055488653222739e+00 6.989412294664090552e+01 2.680000000000000000e+02
7.810867147704746216e+00 7.121440395546041202e+01 2.680000000000000000e+02
8.317678806756269694e+00 7.253468496427991852e+01 2.680000000000000000e+02
8.824490465807793171e+00 7.385496597309941080e+01 2.680000000000000000e+02
4.769997193395605350e+00 6.329271790254340146e+01 2.690000000000000000e+02
5.276808852447128828e+00 6.461299891136290796e+01 2.690000000000000000e+02
5.783620511498652306e+00 6.593327992018240025e+01 2.690000000000000000e+02
6.290432170550175783e+00 6.725356092900190674e+01 2.690000000000000000e+02
6.797243829601699261e+00 6.857384193782141324e+01 2.690000000000000000e+02
7.304055488653222739e+00 6.989412294664090552e+01 2.690000000000000000e+02
7.810867147704746216e+00 7.121440395546041202e+01 2.690000000000000000e+02
8.317678806756269694e+00 7.253468496427991852e+01 2.690000000000000000e+02
8.824490465807793171e+00 7.385496597309941080e+01 2.690000000000000000e+02
4.769997193395605350e+00 6.329271790254340146e+01 2.700000000000000000e+02
5.276808852447128828e+00 6.461299891136290796e+01 2.700000000000000000e+02
5.783620511498652306e+00 6.593327992018240025e+01 2.700000000000000000e+02
6.290432170550175783e+00 6.725356092900190674e+01 2.700000000000000000e+02
6.797243829601699261e+00 6.857384193782141324e+01 2.700000000000000000e+02
7.304055488653222739e+00 6.989412294664090552e+01 2.700000000000000000e+02
7.810867147704746216e+00 7.121440395546041202e+01 2.700000000000000000e+02
8.317678806756269694e+00 7.253468496427991852e+01 2.700000000000000000e+02
8.824490465807793171e+00 7.385496597309941080e+01 2.700000000000000000e+02
4.769997193395605350e+00 6.329271790254340146e+01 2.710000000000000000e+02
5.276808852447128828e+00 6.461299891136290796e+01 2.710000000000000000e+02
5.783620511498652306e+00 6.593327992018240025e+01 2.710000000000000000e+02
6.290432170550175783e+00 6.725356092900190674e+01 2.710000000000000000e+02
6.797243829601699261e+00 6.857384193782141324e+01 2.710000000000000000e+02
7.304055488653222739e+00 6.989412294664090552e+01 2.710000000000000000e+02
7.810867147704746216e+00 7.121440395546041202e+01 2.710000000000000000e+02
8.317678806756269694e+00 7.253468496427991852e+01 2.710000000000000000e+02
8.824490465807793171e+00 7.385496597309941080e+01 2.710000000000000000e+02
4.769997193395605350e+00 6.329271790254340146e+01 2.720000000000000000e+02
5.276808852447128828e+00 6.461299891136290796e+01 2.720000000000000000e+02
5.783620511498652306e+00 6.593327992018240025e+01 2.720000000000000000e+02
6.290432170550175783e+00 6.725356092900190674e+01 2.720000000000000000e+02
6.797243829601699261e+00 6.857384193782141324e+01 2.720000000000000000e+02
7.304055488653222739e+00 6.989412294664090552e+01 2.720000000000000000e+02
7.810867147704746216e+00 7.121440395546041202e+01 2.720000000000000000e+02
8.317678806756269694e+00 7.253468496427991852e+01 2.720000000000000000e+02
8.824490465807793171e+00 7.385496597309941080e+01 2.720000000000000000e+02
4.769997193395605350e+00 6.329271790254340146e+01 2.730000000000000000e+02
5.276808852447128828e+00 6.461299891136290796e+01 2.730000000000000000e+02
5.783620511498652306e+00 6.593327992018240025e+01 2.730000000000000000e+02
6.290432170550175783e+00 6.725356092900190674e+01 2.730000000000000000e+02
6.797243829601699261e+00 6.857384193782141324e+01 2.730000000000000000e+02
7.304055488653222739e+00 6.989412294664090552e+01 2.730000000000000000e+02
7.810867147704746216e+00 7.121440395546041202e+01 2.730000000000000000e+02
8.317678806756269694e+00 7.253468496427991852e+01 2.730000000000000000e+02
8.824490465807793171e+00 7.385496597309941080e+01 2.730000000000000000e+02
9.331302124859316649e+00 7.517524698191891730e+01 2.730000000000000000e+02
4.769997193395605350e+00 6.329271790254340146e+01 2.740000000000000000e+02
5.276808852447128828e+00 6.461299891136290796e+01 2.740000000000000000e+02
5.783620511498652306e+00 6.593327992018240025e+01 2.740000000000000000e+02
6.290432170550175783e+00 6.725356092900190674e+01 2.740000000000000000e+02
6.797243829601699261e+00 6.857384193782141324e+01 2.740000000000000000e+02
7.304055488653222739e+00 6.989412294664090552e+01 2.740000000000000000e+02
7.810867147704746216e+00 7.121440395546041202e+01 2.740000000000000000e+02
8.317678806756269694e+00 7.253468496427991852e+01 2.740000000000000000e+02
8.824490465807793171e+00 7.385496597309941080e+01 2.740000000000000000e+02
9.331302124859316649e+00 7.517524698191891730e+01 2.740000000000000000e+02
4.769997193395605350e+00 6.329271790254340146e+01 2.750000000000000000e+02
5.276808852447128828e+00 6.461299891136290796e+01 2.750000000000000000e+02
5.783620511498652306e+00 6.593327992018240025e+01 2.750000000000000000e+02
6.290432170550175783e+00 6.725356092900190674e+01 2.750000000000000000e+02
6.797243829601699261e+00 6.857384193782141324e+01 2.750000000000000000e+02
7.304055488653222739e+00 6.989412294664090552e+01 2.750000000000000000e+02
7.810867147704746216e+00 7.121440395546041202e+01 2.750000000000000000e+02
8.317678806756269694e+00 7.253468496427991852e+01 2.750000000000000000e+02
8.824490465807793171e+00 7.385496597309941080e+01 2.750000000000000000e+02
4.769997193395605350e+00 6.329271790254340146e+01 2.760000000000000000e+02
5.276808852447128828e+00 6.461299891136290796e+01 2.760000000000000000e+02
5.783620511498652306e+00 6.593327992018240025e+01 2.760000000000000000e+02
6.290432170550175783e+00 6.725356092900190674e+01 2.760000000000000000e+02
6.797243829601699261e+00 6.857384193782141324e+01 2.760000000000000000e+02
7.304055488653222739e+00 6.989412294664090552e+01 2.760000000000000000e+02
7.810867147704746216e+00 7.121440395546041202e+01 2.760000000000000000e+02
8.317678806756269694e+00 7.253468496427991852e+01 2.760000000000000000e+02
8.824490465807793171e+00 7.385496597309941080e+01 2.760000000000000000e+02
4.769997193395605350e+00 6.329271790254340146e+01 2.770000000000000000e+02
5.276808852447128828e+00 6.461299891136290796e+01 2.770000000000000000e+02
5.783620511498652306e+00 6.593327992018240025e+01 2.770000000000000000e+02
6.290432170550175783e+00 6.725356092900190674e+01 2.770000000000000000e+02
6.797243829601699261e+00 6.857384193782141324e+01 2.770000000000000000e+02
7.304055488653222739e+00 6.989412294664090552e+01 2.770000000000000000e+02
7.810867147704746216e+00 7.121440395546041202e+01 2.770000000000000000e+02
8.317678806756269694e+00 7.253468496427991852e+01 2.770000000000000000e+02
8.824490465807793171e+00 7.385496597309941080e+01 2.770000000000000000e+02
4.769997193395605350e+00 6.329271790254340146e+01 2.780000000000000000e+02
5.276808852447128828e+00 6.461299891136290796e+01 2.780000000000000000e+02
5.783620511498652306e+00 6.593327992018240025e+01 2.780000000000000000e+02
6.290432170550175783e+00 6.725356092900190674e+01 2.780000000000000000e+02
6.797243829601699261e+00 6.857384193782141324e+01 2.780000000000000000e+02
7.304055488653222739e+00 6.989412294664090552e+01 2.780000000000000000e+02
7.810867147704746216e+00 7.121440395546041202e+01 2.780000000000000000e+02
8.317678806756269694e+00 7.253468496427991852e+01 2.780000000000000000e+02
8.824490465807793171e+00 7.385496597309941080e+01 2.780000000000000000e+02
4.769997193395605350e+00 6.329271790254340146e+01 2.790000000000000000e+02
5.276808852447128828e+00 6.461299891136290796e+01 2.790000000000000000e+02
5.783620511498652306e+00 6.593327992018240025e+01 2.790000000000000000e+02
6.290432170550175783e+00 6.725356092900190674e+01 2.790000000000000000e+02
6.797243829601699261e+00 6.857384193782141324e+01 2.790000000000000000e+02
7.304055488653222739e+00 6.989412294664090552e+01 2.790000000000000000e+02
7.810867147704746216e+00 7.121440395546041202e+01 2.790000000000000000e+02
8.317678806756269694e+00 7.253468496427991852e+01 2.790000000000000000e+02
8.824490465807793171e+00 7.385496597309941080e+01 2.790000000000000000e+02
4.769997193395605350e+00 6.329271790254340146e+01 2.800000000000000000e+02
5.276808852447128828e+00 6.461299891136290796e+01 2.800000000000000000e+02
5.783620511498652306e+00 6.593327992018240025e+01 2.800000000000000000e+02
6.290432170550175783e+00 6.725356092900190674e+01 2.800000000000000000e+02
6.797243829601699261e+00 6.857384193782141324e+01 2.800000000000000000e+02
7.304055488653222739e+00 6.989412294664090552e+01 2.800000000000000000e+02
7.810867147704746216e+00 7.121440395546041202e+01 2.800000000000000000e+02
8.317678806756269694e+00 7.253468496427991852e+01 2.800000000000000000e+02
8.824490465807793171e+00 7.385496597309941080e+01 2.800000000000000000e+02
4.769997193395605350e+00 6.329271790254340146e+01 2.810000000000000000e+02
5.276808852447128828e+00 6.461299891136290796e+01 2.810000000000000000e+02
5.783620511498652306e+00 6.593327992018240025e+01 2.810000000000000000e+02
6.290432170550175783e+00 6.725356092900190674e+01 2.810000000000000000e+02
6.797243829601699261e+00 6.857384193782141324e+01 2.810000000000000000e+02
7.304055488653222739e+00 6.989412294664090552e+01 2.810000000000000000e+02
7.810867147704746216e+00 7.121440395546041202e+01 2.810000000000000000e+02
8.317678806756269694e+00 7.253468496427991852e+01 2.810000000000000000e+02
8.824490465807793171e+00 7.385496597309941080e+01 2.810000000000000000e+02
4.769997193395605350e+00 6.329271790254340146e+01 2.820000000000000000e+02
5.276808852447128828e+00 6.461299891136290796e+01 2.820000000000000000e+02
5.783620511498652306e+00 6.593327992018240025e+01 2.820000000000000000e+02
6.290432170550175783e+00 6.725356092900190674e+01 2.820000000000000000e+02
6.797243829601699261e+00 6.857384193782141324e+01 2.820000000000000000e+02
7.304055488653222739e+00 6.989412294664090552e+01 2.820000000000000000e+02
7.810867147704746216e+00 7.121440395546041202e+01 2.820000000000000000e+02
8.317678806756269694e+00 7.253468496427991852e+01 2.820000000000000000e+02
8.824490465807793171e+00 7.385496597309941080e+01 2.820000000000000000e+02
4.769997193395605350e+00 6.329271790254340146e+01 2.830000000000000000e+02
5.276808852447128828e+00 6.461299891136290796e+01 2.830000000000000000e+02
5.783620511498652306e+00 6.593327992018240025e+01 2.830000000000000000e+02
6.290432170550175783e+00 6.725356092900190674e+01 2.830000000000000000e+02
6.797243829601699261e+00 6.857384193782141324e+01 2.830000000000000000e+02
7.304055488653222739e+00 6.989412294664090552e+01 2.830000000000000000e+02
7.810867147704746216e+00 7.121440395546041202e+01 2.830000000000000000e+02
8.317678806756269694e+00 7.253468496427991852e+01 2.830000000000000000e+02
8.824490465807793171e+00 7.385496597309941080e+01 2.830000000000000000e+02
4.769997193395605350e+00 6.329271790254340146e+01 2.840000000000000000e+02
5.276808852447128828e+00 6.461299891136290796e+01 2.840000000000000000e+02
5.783620511498652306e+00 6.593327992018240025e+01 2.840000000000000000e+02
6.290432170550175783e+00 6.725356092900190674e+01 2.840000000000000000e+02
6.797243829601699261e+00 6.857384193782141324e+01 2.840000000000000000e+02
7.304055488653222739e+00 6.989412294664090552e+01 2.840000000000000000e+02
7.810867147704746216e+00 7.121440395546041202e+01 2.840000000000000000e+02
8.317678806756269694e+00 7.253468496427991852e+01 2.840000000000000000e+02
8.824490465807793171e+00 7.385496597309941080e+01 2.840000000000000000e+02
4.769997193395605350e+00 6.329271790254340146e+01 2.850000000000000000e+02
5.276808852447128828e+00 6.461299891136290796e+01 2.850000000000000000e+02
5.783620511498652306e+00 6.593327992018240025e+01 2.850000000000000000e+02
6.290432170550175783e+00 6.725356092900190674e+01 2.850000000000000000e+02
6.797243829601699261e+00 6.857384193782141324e+01 2.850000000000000000e+02
7.304055488653222739e+00 6.989412294664090552e+01 2.850000000000000000e+02
7.810867147704746216e+00 7.121440395546041202e+01 2.850000000000000000e+02
8.317678806756269694e+00 7.253468496427991852e+01 2.850000000000000000e+02
8.824490465807793171e+00 7.385496597309941080e+01 2.850000000000000000e+02
4.769997193395605350e+00 6.329271790254340146e+01 2.860000000000000000e+02
5.276808852447128828e+00 6.461299891136290796e+01 2.860000000000000000e+02
5.783620511498652306e+00 6.593327992018240025e+01 2.860000000000000000e+02
6.290432170550175783e+00 6.725356092900190674e+01 2.860000000000000000e+02
6.797243829601699261e+00 6.857384193782141324e+01 2.860000000000000000e+02
7.304055488653222739e+00 6.989412294664090552e+01 2.860000000000000000e+02
7.810867147704746216e+00 7.121440395546041202e+01 2.860000000000000000e+02
8.317678806756269694e+00 7.253468496427991852e+01 2.860000000000000000e+02
8.824490465807793171e+00 7.385496597309941080e+01 2.860000000000000000e+02
4.769997193395605350e+00 6.329271790254340146e+01 2.870000000000000000e+02
5.276808852447128828e+00 6.461299891136290796e+01 2.870000000000000000e+02
5.783620511498652306e+00 6.593327992018240025e+01 2.870000000000000000e+02
6.290432170550175783e+00 6.725356092900190674e+01 2.870000000000000000e+02
6.797243829601699261e+00 6.857384193782141324e+01 2.870000000000000000e+02
7.304055488653222739e+00 6.989412294664090552e+01 2.870000000000000000e+02
7.810867147704746216e+00 7.121440395546041202e+01 2.870000000000000000e+02
8.317678806756269694e+00 7.253468496427991852e+01 2.870000000000000000e+02
8.824490465807793171e+00 7.385496597309941080e+01 2.870000000000000000e+02
4.769997193395605350e+00 6.329271790254340146e+01 2.880000000000000000e+02
5.276808852447128828e+00 6.461299891136290796e+01 2.880000000000000000e+02
5.783620511498652306e+00 6.593327992018240025e+01 2.880000000000000000e+02
6.290432170550175783e+00 6.725356092900190674e+01 2.880000000000000000e+02
6.797243829601699261e+00 6.857384193782141324e+01 2.880000000000000000e+02
7.304055488653222739e+00 6.989412294664090552e+01 2.880000000000000000e+02
7.810867147704746216e+00 7.121440395546041202e+01 2.880000000000000000e+02
8.317678806756269694e+00 7.253468496427991852e+01 2.880000000000000000e+02
8.824490465807793171e+00 7.385496597309941080e+01 2.880000000000000000e+02
4.769997193395605350e+00 6.329271790254340146e+01 2.890000000000000000e+02
5.276808852447128828e+00 6.461299891136290796e+01 2.890000000000000000e+02
5.783620511498652306e+00 6.593327992018240025e+01 2.890000000000000000e+02
6.290432170550175783e+00 6.725356092900190674e+01 2.890000000000000000e+02
6.797243829601699261e+00 6.857384193782141324e+01 2.890000000000000000e+02
7.304055488653222739e+00 6.989412294664090552e+01 2.890000000000000000e+02
7.810867147704746216e+00 7.121440395546041202e+01 2.890000000000000000e+02
8.317678806756269694e+00 7.253468496427991852e+01 2.890000000000000000e+02
8.824490465807793171e+00 7.385496597309941080e+01 2.890000000000000000e+02
4.769997193395605350e+00 6.329271790254340146e+01 2.900000000000000000e+02
5.276808852447128828e+00 6.461299891136290796e+01 2.900000000000000000e+02
5.783620511498652306e+00 6.593327992018240025e+01 2.900000000000000000e+02
6.290432170550175783e+00 6.725356092900190674e+01 2.900000000000000000e+02
6.797243829601699261e+00 6.857384193782141324e+01 2.900000000000000000e+02
7.304055488653222739e+00 6.989412294664090552e+01 2.900000000000000000e+02
7.810867147704746216e+00 7.121440395546041202e+01 2.900000000000000000e+02
8.317678806756269694e+00 7.253468496427991852e+01 2.900000000000000000e+02
8.824490465807793171e+00 7.385496597309941080e+01 2.900000000000000000e+02
4.769997193395605350e+00 6.329271790254340146e+01 2.910000000000000000e+02
5.276808852447128828e+00 6.461299891136290796e+01 2.910000000000000000e+02
5.783620511498652306e+00 6.593327992018240025e+01 2.910000000000000000e+02
6.290432170550175783e+00 6.725356092900190674e+01 2.910000000000000000e+02
6.797243829601699261e+00 6.857384193782141324e+01 2.910000000000000000e+02
7.304055488653222739e+00 6.989412294664090552e+01 2.910000000000000000e+02
7.810867147704746216e+00 7.121440395546041202e+01 2.910000000000000000e+02
8.317678806756269694e+00 7.253468496427991852e+01 2.910000000000000000e+02
8.824490465807793171e+00 7.385496597309941080e+01 2.910000000000000000e+02
4.769997193395605350e+00 6.329271790254340146e+01 2.920000000000000000e+02
5.276808852447128828e+00 6.461299891136290796e+01 2.920000000000000000e+02
5.783620511498652306e+00 6.593327992018240025e+01 2.920000000000000000e+02
6.290432170550175783e+00 6.725356092900190674e+01 2.920000000000000000e+02
6.797243829601699261e+00 6.857384193782141324e+01 2.920000000000000000e+02
7.304055488653222739e+00 6.989412294664090552e+01 2.920000000000000000e+02
7.810867147704746216e+00 7.121440395546041202e+01 2.920000000000000000e+02
8.317678806756269694e+00 7.253468496427991852e+01 2.920000000000000000e+02
8.824490465807793171e+00 7.385496597309941080e+01 2.920000000000000000e+02
4.769997193395605350e+00 6.329271790254340146e+01 2.930000000000000000e+02
5.276808852447128828e+00 6.461299891136290796e+01 2.930000000000000000e+02
5.783620511498652306e+00 6.593327992018240025e+01 2.930000000000000000e+02
6.290432170550175783e+00 6.725356092900190674e+01 2.930000000000000000e+02
6.797243829601699261e+00 6.857384193782141324e+01 2.930000000000000000e+02
7.304055488653222739e+00 6.989412294664090552e+01 2.930000000000000000e+02
7.810867147704746216e+00 7.121440395546041202e+01 2.930000000000000000e+02
8.317678806756269694e+00 7.253468496427991852e+01 2.930000000000000000e+02
8.824490465807793171e+00 7.385496597309941080e+01 2.930000000000000000e+02
4.769997193395605350e+00 6.329271790254340146e+01 2.940000000000000000e+02
5.276808852447128828e+00 6.461299891136290796e+01 2.940000000000000000e+02
5.783620511498652306e+00 6.593327992018240025e+01 2.940000000000000000e+02
6.290432170550175783e+00 6.725356092900190674e+01 2.940000000000000000e+02
6.797243829601699261e+00 6.857384193782141324e+01 2.940000000000000000e+02
7.304055488653222739e+00 6.989412294664090552e+01 2.940000000000000000e+02
7.810867147704746216e+00 7.121440395546041202e+01 2.940000000000000000e+02
8.317678806756269694e+00 7.253468496427991852e+01 2.940000000000000000e+02
8.824490465807793171e+00 7.385496597309941080e+01 2.940000000000000000e+02
3.856450859460093028e+00 6.288598322765940907e+01 2.950000000000000000e+02
4.363262518511616506e+00 6.420626423647891556e+01 2.950000000000000000e+02
4.870074177563139983e+00 6.552654524529842206e+01 2.950000000000000000e+02
5.376885836614662573e+00 6.684682625411791435e+01 2.950000000000000000e+02
5.883697495666186050e+00 6.816710726293742084e+01 2.950000000000000000e+02
6.390509154717709528e+00 6.948738827175692734e+01 2.950000000000000000e+02
6.897320813769233006e+00 7.080766928057641962e+01 2.950000000000000000e+02
7.404132472820756483e+00 7.212795028939592612e+01 2.950000000000000000e+02
7.910944131872279961e+00 7.344823129821543262e+01 2.950000000000000000e+02
8.417755790923802550e+00 7.476851230703492490e+01 2.950000000000000000e+02
4.769997193395605350e+00 6.329271790254340146e+01 2.960000000000000000e+02
5.276808852447128828e+00 6.461299891136290796e+01 2.960000000000000000e+02
5.783620511498652306e+00 6.593327992018240025e+01 2.960000000000000000e+02
6.290432170550175783e+00 6.725356092900190674e+01 2.960000000000000000e+02
6.797243829601699261e+00 6.857384193782141324e+01 2.960000000000000000e+02
7.304055488653222739e+00 6.989412294664090552e+01 2.960000000000000000e+02
7.810867147704746216e+00 7.121440395546041202e+01 2.960000000000000000e+02
8.317678806756269694e+00 7.253468496427991852e+01 2.960000000000000000e+02
8.824490465807793171e+00 7.385496597309941080e+01 2.960000000000000000e+02
4.769997193395605350e+00 6.329271790254340146e+01 2.970000000000000000e+02
5.276808852447128828e+00 6.461299891136290796e+01 2.970000000000000000e+02
5.783620511498652306e+00 6.593327992018240025e+01 2.970000000000000000e+02
6.290432170550175783e+00 6.725356092900190674e+01 2.970000000000000000e+02
6.797243829601699261e+00 6.857384193782141324e+01 2.970000000000000000e+02
7.304055488653222739e+00 6.989412294664090552e+01 2.970000000000000000e+02
7.810867147704746216e+00 7.121440395546041202e+01 2.970000000000000000e+02
8.317678806756269694e+00 7.253468496427991852e+01 2.970000000000000000e+02
8.824490465807793171e+00 7.385496597309941080e+01 2.970000000000000000e+02
5.683543527331118561e+00 6.369945257742739386e+01 2.980000000000000000e+02
6.190355186382642039e+00 6.501973358624688615e+01 2.980000000000000000e+02
6.697166845434164628e+00 6.634001459506639264e+01 2.980000000000000000e+02
7.203978504485688106e+00 6.766029560388589914e+01 2.980000000000000000e+02
7.710790163537211583e+00 6.898057661270540564e+01 2.980000000000000000e+02
8.217601822588735061e+00 7.030085762152489792e+01 2.980000000000000000e+02
8.724413481640258539e+00 7.162113863034440442e+01 2.980000000000000000e+02
9.231225140691782016e+00 7.294141963916391092e+01 2.980000000000000000e+02
4.769997193395605350e+00 6.329271790254340146e+01 2.990000000000000000e+02
5.276808852447128828e+00 6.461299891136290796e+01 2.990000000000000000e+02
5.783620511498652306e+00 6.593327992018240025e+01 2.990000000000000000e+02
6.290432170550175783e+00 6.725356092900190674e+01 2.990000000000000000e+02
6.797243829601699261e+00 6.857384193782141324e+01 2.990000000000000000e+02
7.304055488653222739e+00 6.989412294664090552e+01 2.990000000000000000e+02
7.810867147704746216e+00 7.121440395546041202e+01 2.990000000000000000e+02
8.317678806756269694e+00 7.253468496427991852e+01 2.990000000000000000e+02
8.824490465807793171e+00 7.385496597309941080e+01 2.990000000000000000e+02
4.769997193395605350e+00 6.329271790254340146e+01 3.000000000000000000e+02
5.276808852447128828e+00 6.461299891136290796e+01 3.000000000000000000e+02
5.783620511498652306e+00 6.593327992018240025e+01 3.000000000000000000e+02
6.290432170550175783e+00 6.725356092900190674e+01 3.000000000000000000e+02
6.797243829601699261e+00 6.857384193782141324e+01 3.000000000000000000e+02
7.304055488653222739e+00 6.989412294664090552e+01 3.000000000000000000e+02
7.810867147704746216e+00 7.121440395546041202e+01 3.000000000000000000e+02
8.317678806756269694e+00 7.253468496427991852e+01 3.000000000000000000e+02
8.824490465807793171e+00 7.385496597309941080e+01 3.000000000000000000e+02
4.769997193395605350e+00 6.329271790254340146e+01 3.010000000000000000e+02
5.276808852447128828e+00 6.461299891136290796e+01 3.010000000000000000e+02
5.783620511498652306e+00 6.593327992018240025e+01 3.010000000000000000e+02
6.290432170550175783e+00 6.725356092900190674e+01 3.010000000000000000e+02
6.797243829601699261e+00 6.857384193782141324e+01 3.010000000000000000e+02
7.304055488653222739e+00 6.989412294664090552e+01 3.010000000000000000e+02
7.810867147704746216e+00 7.121440395546041202e+01 3.010000000000000000e+02
8.317678806756269694e+00 7.253468496427991852e+01 3.010000000000000000e+02
8.824490465807793171e+00 7.385496597309941080e+01 3.010000000000000000e+02
4.769997193395605350e+00 6.329271790254340146e+01 3.020000000000000000e+02
5.276808852447128828e+00 6.461299891136290796e+01 3.020000000000000000e+02
5.783620511498652306e+00 6.593327992018240025e+01 3.020000000000000000e+02
6.290432170550175783e+00 6.725356092900190674e+01 3.020000000000000000e+02
6.797243829601699261e+00 6.857384193782141324e+01 3.020000000000000000e+02
7.304055488653222739e+00 6.989412294664090552e+01 3.020000000000000000e+02
7.810867147704746216e+00 7.121440395546041202e+01 3.020000000000000000e+02
8.317678806756269694e+00 7.253468496427991852e+01 3.020000000000000000e+02
8.824490465807793171e+00 7.385496597309941080e+01 3.020000000000000000e+02
4.769997193395605350e+00 6.329271790254340146e+01 3.030000000000000000e+02
5.276808852447128828e+00 6.461299891136290796e+01 3.030000000000000000e+02
5.783620511498652306e+00 6.593327992018240025e+01 3.030000000000000000e+02
6.290432170550175783e+00 6.725356092900190674e+01 3.030000000000000000e+02
6.797243829601699261e+00 6.857384193782141324e+01 3.030000000000000000e+02
7.304055488653222739e+00 6.989412294664090552e+01 3.030000000000000000e+02
7.810867147704746216e+00 7.121440395546041202e+01 3.030000000000000000e+02
8.317678806756269694e+00 7.253468496427991852e+01 3.030000000000000000e+02
8.824490465807793171e+00 7.385496597309941080e+01 3.030000000000000000e+02
9.331302124859316649e+00 7.517524698191891730e+01 3.030000000000000000e+02
4.769997193395605350e+00 6.329271790254340146e+01 3.040000000000000000e+02
5.276808852447128828e+00 6.461299891136290796e+01 3.040000000000000000e+02
5.783620511498652306e+00 6.593327992018240025e+01 3.040000000000000000e+02
6.290432170550175783e+00 6.725356092900190674e+01 3.040000000000000000e+02
6.797243829601699261e+00 6.857384193782141324e+01 3.040000000000000000e+02
7.304055488653222739e+00 6.989412294664090552e+01 3.040000000000000000e+02
7.810867147704746216e+00 7.121440395546041202e+01 3.040000000000000000e+02
8.317678806756269694e+00 7.253468496427991852e+01 3.040000000000000000e+02
8.824490465807793171e+00 7.385496597309941080e+01 3.040000000000000000e+02
4.769997193395605350e+00 6.329271790254340146e+01 3.050000000000000000e+02
5.276808852447128828e+00 6.461299891136290796e+01 3.050000000000000000e+02
5.783620511498652306e+00 6.593327992018240025e+01 3.050000000000000000e+02
6.290432170550175783e+00 6.725356092900190674e+01 3.050000000000000000e+02
6.797243829601699261e+00 6.857384193782141324e+01 3.050000000000000000e+02
7.304055488653222739e+00 6.989412294664090552e+01 3.050000000000000000e+02
7.810867147704746216e+00 7.121440395546041202e+01 3.050000000000000000e+02
8.317678806756269694e+00 7.253468496427991852e+01 3.050000000000000000e+02
8.824490465807793171e+00 7.385496597309941080e+01 3.050000000000000000e+02
4.769997193395605350e+00 6.329271790254340146e+01 3.060000000000000000e+02
5.276808852447128828e+00 6.461299891136290796e+01 3.060000000000000000e+02
5.783620511498652306e+00 6.593327992018240025e+01 3.060000000000000000e+02
6.290432170550175783e+00 6.725356092900190674e+01 3.060000000000000000e+02
6.797243829601699261e+00 6.857384193782141324e+01 3.060000000000000000e+02
7.304055488653222739e+00 6.989412294664090552e+01 3.060000000000000000e+02
7.810867147704746216e+00 7.121440395546041202e+01 3.060000000000000000e+02
8.317678806756269694e+00 7.253468496427991852e+01 3.060000000000000000e+02
8.824490465807793171e+00 7.385496597309941080e+01 3.060000000000000000e+02
4.769997193395605350e+00 6.329271790254340146e+01 3.070000000000000000e+02
5.276808852447128828e+00 6.461299891136290796e+01 3.070000000000000000e+02
5.783620511498652306e+00 6.593327992018240025e+01 3.070000000000000000e+02
6.290432170550175783e+00 6.725356092900190674e+01 3.070000000000000000e+02
6.797243829601699261e+00 6.857384193782141324e+01 3.070000000000000000e+02
7.304055488653222739e+00 6.989412294664090552e+01 3.070000000000000000e+02
7.810867147704746216e+00 7.121440395546041202e+01 3.070000000000000000e+02
8.317678806756269694e+00 7.253468496427991852e+01 3.070000000000000000e+02
8.824490465807793171e+00 7.385496597309941080e+01 3.070000000000000000e+02
4.769997193395605350e+00 6.329271790254340146e+01 3.080000000000000000e+02
5.276808852447128828e+00 6.461299891136290796e+01 3.080000000000000000e+02
5.783620511498652306e+00 6.593327992018240025e+01 3.080000000000000000e+02
6.290432170550175783e+00 6.725356092900190674e+01 3.080000000000000000e+02
6.797243829601699261e+00 6.857384193782141324e+01 3.080000000000000000e+02
7.304055488653222739e+00 6.989412294664090552e+01 3.080000000000000000e+02
7.810867147704746216e+00 7.121440395546041202e+01 3.080000000000000000e+02
8.317678806756269694e+00 7.253468496427991852e+01 3.080000000000000000e+02
8.824490465807793171e+00 7.385496597309941080e+01 3.080000000000000000e+02
4.769997193395605350e+00 6.329271790254340146e+01 3.090000000000000000e+02
5.276808852447128828e+00 6.461299891136290796e+01 3.090000000000000000e+02
5.783620511498652306e+00 6.593327992018240025e+01 3.090000000000000000e+02
6.290432170550175783e+00 6.725356092900190674e+01 3.090000000000000000e+02
6.797243829601699261e+00 6.857384193782141324e+01 3.090000000000000000e+02
7.304055488653222739e+00 6.989412294664090552e+01 3.090000000000000000e+02
7.810867147704746216e+00 7.121440395546041202e+01 3.090000000000000000e+02
8.317678806756269694e+00 7.253468496427991852e+01 3.090000000000000000e+02
8.824490465807793171e+00 7.385496597309941080e+01 3.090000000000000000e+02
4.769997193395605350e+00 6.329271790254340146e+01 3.100000000000000000e+02
5.276808852447128828e+00 6.461299891136290796e+01 3.100000000000000000e+02
5.783620511498652306e+00 6.593327992018240025e+01 3.100000000000000000e+02
6.290432170550175783e+00 6.725356092900190674e+01 3.100000000000000000e+02
6.797243829601699261e+00 6.857384193782141324e+01 3.100000000000000000e+02
7.304055488653222739e+00 6.989412294664090552e+01 3.100000000000000000e+02
7.810867147704746216e+00 7.121440395546041202e+01 3.100000000000000000e+02
8.317678806756269694e+00 7.253468496427991852e+01 3.100000000000000000e+02
8.824490465807793171e+00 7.385496597309941080e+01 3.100000000000000000e+02
4.769997193395605350e+00 6.329271790254340146e+01 3.110000000000000000e+02
5.276808852447128828e+00 6.461299891136290796e+01 3.110000000000000000e+02
5.783620511498652306e+00 6.593327992018240025e+01 3.110000000000000000e+02
6.290432170550175783e+00 6.725356092900190674e+01 3.110000000000000000e+02
6.797243829601699261e+00 6.857384193782141324e+01 3.110000000000000000e+02
7.304055488653222739e+00 6.989412294664090552e+01 3.110000000000000000e+02
7.810867147704746216e+00 7.121440395546041202e+01 3.110000000000000000e+02
8.317678806756269694e+00 7.253468496427991852e+01 3.110000000000000000e+02
8.824490465807793171e+00 7.385496597309941080e+01 3.110000000000000000e+02
4.769997193395605350e+00 6.329271790254340146e+01 3.120000000000000000e+02
5.276808852447128828e+00 6.461299891136290796e+01 3.120000000000000000e+02
5.783620511498652306e+00 6.593327992018240025e+01 3.120000000000000000e+02
6.290432170550175783e+00 6.725356092900190674e+01 3.120000000000000000e+02
6.797243829601699261e+00 6.857384193782141324e+01 3.120000000000000000e+02
7.304055488653222739e+00 6.989412294664090552e+01 3.120000000000000000e+02
7.810867147704746216e+00 7.121440395546041202e+01 3.120000000000000000e+02
8.317678806756269694e+00 7.253468496427991852e+01 3.120000000000000000e+02
8.824490465807793171e+00 7.385496597309941080e+01 3.120000000000000000e+02
5.683543527331118561e+00 6.369945257742739386e+01 3.130000000000000000e+02
6.190355186382642039e+00 6.501973358624688615e+01 3.130000000000000000e+02
6.697166845434164628e+00 6.634001459506639264e+01 3.130000000000000000e+02
7.203978504485688106e+00 6.766029560388589914e+01 3.130000000000000000e+02
7.710790163537211583e+00 6.898057661270540564e+01 3.130000000000000000e+02
8.217601822588735061e+00 7.030085762152489792e+01 3.130000000000000000e+02
8.724413481640258539e+00 7.162113863034440442e+01 3.130000000000000000e+02
9.231225140691782016e+00 7.294141963916391092e+01 3.130000000000000000e+02
5.683543527331118561e+00 6.369945257742739386e+01 3.140000000000000000e+02
6.190355186382642039e+00 6.501973358624688615e+01 3.140000000000000000e+02
6.697166845434164628e+00 6.634001459506639264e+01 3.140000000000000000e+02
7.203978504485688106e+00 6.766029560388589914e+01 3.140000000000000000e+02
7.710790163537211583e+00 6.898057661270540564e+01 3.140000000000000000e+02
8.217601822588735061e+00 7.030085762152489792e+01 3.140000000000000000e+02
8.724413481640258539e+00 7.162113863034440442e+01 3.140000000000000000e+02
9.231225140691782016e+00 7.294141963916391092e+01 3.140000000000000000e+02
5.683543527331118561e+00 6.369945257742739386e+01 3.150000000000000000e+02
6.190355186382642039e+00 6.501973358624688615e+01 3.150000000000000000e+02
6.697166845434164628e+00 6.634001459506639264e+01 3.150000000000000000e+02
7.203978504485688106e+00 6.766029560388589914e+01 3.150000000000000000e+02
7.710790163537211583e+00 6.898057661270540564e+01 3.150000000000000000e+02
8.217601822588735061e+00 7.030085762152489792e+01 3.150000000000000000e+02
8.724413481640258539e+00 7.162113863034440442e+01 3.150000000000000000e+02
9.231225140691782016e+00 7.294141963916391092e+01 3.150000000000000000e+02
4.769997193395605350e+00 6.329271790254340146e+01 3.160000000000000000e+02
5.276808852447128828e+00 6.461299891136290796e+01 3.160000000000000000e+02
5.783620511498652306e+00 6.593327992018240025e+01 3.160000000000000000e+02
6.290432170550175783e+00 6.725356092900190674e+01 3.160000000000000000e+02
6.797243829601699261e+00 6.857384193782141324e+01 3.160000000000000000e+02
7.304055488653222739e+00 6.989412294664090552e+01 3.160000000000000000e+02
7.810867147704746216e+00 7.121440395546041202e+01 3.160000000000000000e+02
8.317678806756269694e+00 7.253468496427991852e+01 3.160000000000000000e+02
8.824490465807793171e+00 7.385496597309941080e+01 3.160000000000000000e+02
5.683543527331118561e+00 6.369945257742739386e+01 3.170000000000000000e+02
6.190355186382642039e+00 6.501973358624688615e+01 3.170000000000000000e+02
6.697166845434164628e+00 6.634001459506639264e+01 3.170000000000000000e+02
7.203978504485688106e+00 6.766029560388589914e+01 3.170000000000000000e+02
7.710790163537211583e+00 6.898057661270540564e+01 3.170000000000000000e+02
8.217601822588735061e+00 7.030085762152489792e+01 3.170000000000000000e+02
8.724413481640258539e+00 7.162113863034440442e+01 3.170000000000000000e+02
9.231225140691782016e+00 7.294141963916391092e+01 3.170000000000000000e+02
5.683543527331118561e+00 6.369945257742739386e+01 3.180000000000000000e+02
6.190355186382642039e+00 6.501973358624688615e+01 3.180000000000000000e+02
6.697166845434164628e+00 6.634001459506639264e+01 3.180000000000000000e+02
7.203978504485688106e+00 6.766029560388589914e+01 3.180000000000000000e+02
7.710790163537211583e+00 6.898057661270540564e+01 3.180000000000000000e+02
8.217601822588735061e+00 7.030085762152489792e+01 3.180000000000000000e+02
8.724413481640258539e+00 7.162113863034440442e+01 3.180000000000000000e+02
9.231225140691782016e+00 7.294141963916391092e+01 3.180000000000000000e+02
5.683543527331118561e+00 6.369945257742739386e+01 3.190000000000000000e+02
6.190355186382642039e+00 6.501973358624688615e+01 3.190000000000000000e+02
6.697166845434164628e+00 6.634001459506639264e+01 3.190000000000000000e+02
7.203978504485688106e+00 6.766029560388589914e+01 3.190000000000000000e+02
7.710790163537211583e+00 6.898057661270540564e+01 3.190000000000000000e+02
8.217601822588735061e+00 7.030085762152489792e+01 3.190000000000000000e+02
8.724413481640258539e+00 7.162113863034440442e+01 3.190000000000000000e+02
9.231225140691782016e+00 7.294141963916391092e+01 3.190000000000000000e+02
4.769997193395605350e+00 6.329271790254340146e+01 3.200000000000000000e+02
5.276808852447128828e+00 6.461299891136290796e+01 3.200000000000000000e+02
5.783620511498652306e+00 6.593327992018240025e+01 3.200000000000000000e+02
6.290432170550175783e+00 6.725356092900190674e+01 3.200000000000000000e+02
6.797243829601699261e+00 6.857384193782141324e+01 3.200000000000000000e+02
7.304055488653222739e+00 6.989412294664090552e+01 3.200000000000000000e+02
7.810867147704746216e+00 7.121440395546041202e+01 3.200000000000000000e+02
8.317678806756269694e+00 7.253468496427991852e+01 3.200000000000000000e+02
8.824490465807793171e+00 7.385496597309941080e+01 3.200000000000000000e+02
4.769997193395605350e+00 6.329271790254340146e+01 3.210000000000000000e+02
5.276808852447128828e+00 6.461299891136290796e+01 3.210000000000000000e+02
5.783620511498652306e+00 6.593327992018240025e+01 3.210000000000000000e+02
6.290432170550175783e+00 6.725356092900190674e+01 3.210000000000000000e+02
6.797243829601699261e+00 6.857384193782141324e+01 3.210000000000000000e+02
7.304055488653222739e+00 6.989412294664090552e+01 3.210000000000000000e+02
7.810867147704746216e+00 7.121440395546041202e+01 3.210000000000000000e+02
8.317678806756269694e+00 7.253468496427991852e+01 3.210000000000000000e+02
8.824490465807793171e+00 7.385496597309941080e+01 3.210000000000000000e+02
4.769997193395605350e+00 6.329271790254340146e+01 3.220000000000000000e+02
5.276808852447128828e+00 6.461299891136290796e+01 3.220000000000000000e+02
5.783620511498652306e+00 6.593327992018240025e+01 3.220000000000000000e+02
6.290432170550175783e+00 6.725356092900190674e+01 3.220000000000000000e+02
6.797243829601699261e+00 6.857384193782141324e+01 3.220000000000000000e+02
7.304055488653222739e+00 6.989412294664090552e+01 3.220000000000000000e+02
7.810867147704746216e+00 7.121440395546041202e+01 3.220000000000000000e+02
8.317678806756269694e+00 7.253468496427991852e+01 3.220000000000000000e+02
8.824490465807793171e+00 7.385496597309941080e+01 3.220000000000000000e+02
4.769997193395605350e+00 6.329271790254340146e+01 3.230000000000000000e+02
5.276808852447128828e+00 6.461299891136290796e+01 3.230000000000000000e+02
5.783620511498652306e+00 6.593327992018240025e+01 3.230000000000000000e+02
6.290432170550175783e+00 6.725356092900190674e+01 3.230000000000000000e+02
6.797243829601699261e+00 6.857384193782141324e+01 3.230000000000000000e+02
7.304055488653222739e+00 6.989412294664090552e+01 3.230000000000000000e+02
7.810867147704746216e+00 7.121440395546041202e+01 3.230000000000000000e+02
8.317678806756269694e+00 7.253468496427991852e+01 3.230000000000000000e+02
8.824490465807793171e+00 7.385496597309941080e+01 3.230000000000000000e+02
4.769997193395605350e+00 6.329271790254340146e+01 3.240000000000000000e+02
5.276808852447128828e+00 6.461299891136290796e+01 3.240000000000000000e+02
5.783620511498652306e+00 6.593327992018240025e+01 3.240000000000000000e+02
6.290432170550175783e+00 6.725356092900190674e+01 3.240000000000000000e+02
6.797243829601699261e+00 6.857384193782141324e+01 3.240000000000000000e+02
7.304055488653222739e+00 6.989412294664090552e+01 3.240000000000000000e+02
7.810867147704746216e+00 7.121440395546041202e+01 3.240000000000000000e+02
8.317678806756269694e+00 7.253468496427991852e+01 3.240000000000000000e+02
8.824490465807793171e+00 7.385496597309941080e+01 3.240000000000000000e+02
4.769997193395605350e+00 6.329271790254340146e+01 3.250000000000000000e+02
5.276808852447128828e+00 6.461299891136290796e+01 3.250000000000000000e+02
5.783620511498652306e+00 6.593327992018240025e+01 3.250000000000000000e+02
6.290432170550175783e+00 6.725356092900190674e+01 3.250000000000000000e+02
6.797243829601699261e+00 6.857384193782141324e+01 3.250000000000000000e+02
7.304055488653222739e+00 6.989412294664090552e+01 3.250000000000000000e+02
7.810867147704746216e+00 7.121440395546041202e+01 3.250000000000000000e+02
8.317678806756269694e+00 7.253468496427991852e+01 3.250000000000000000e+02
8.824490465807793171e+00 7.385496597309941080e+01 3.250000000000000000e+02
4.769997193395605350e+00 6.329271790254340146e+01 3.260000000000000000e+02
5.276808852447128828e+00 6.461299891136290796e+01 3.260000000000000000e+02
5.783620511498652306e+00 6.593327992018240025e+01 3.260000000000000000e+02
6.290432170550175783e+00 6.725356092900190674e+01 3.260000000000000000e+02
6.797243829601699261e+00 6.857384193782141324e+01 3.260000000000000000e+02
7.304055488653222739e+00 6.989412294664090552e+01 3.260000000000000000e+02
7.810867147704746216e+00 7.121440395546041202e+01 3.260000000000000000e+02
8.317678806756269694e+00 7.253468496427991852e+01 3.260000000000000000e+02
8.824490465807793171e+00 7.385496597309941080e+01 3.260000000000000000e+02
4.769997193395605350e+00 6.329271790254340146e+01 3.270000000000000000e+02
5.276808852447128828e+00 6.461299891136290796e+01 3.270000000000000000e+02
5.783620511498652306e+00 6.593327992018240025e+01 3.270000000000000000e+02
6.290432170550175783e+00 6.725356092900190674e+01 3.270000000000000000e+02
6.797243829601699261e+00 6.857384193782141324e+01 3.270000000000000000e+02
7.304055488653222739e+00 6.989412294664090552e+01 3.270000000000000000e+02
7.810867147704746216e+00 7.121440395546041202e+01 3.270000000000000000e+02
8.317678806756269694e+00 7.253468496427991852e+01 3.270000000000000000e+02
8.824490465807793171e+00 7.385496597309941080e+01 3.270000000000000000e+02
4.769997193395605350e+00 6.329271790254340146e+01 3.280000000000000000e+02
5.276808852447128828e+00 6.461299891136290796e+01 3.280000000000000000e+02
5.783620511498652306e+00 6.593327992018240025e+01 3.280000000000000000e+02
6.290432170550175783e+00 6.725356092900190674e+01 3.280000000000000000e+02
6.797243829601699261e+00 6.857384193782141324e+01 3.280000000000000000e+02
7.304055488653222739e+00 6.989412294664090552e+01 3.280000000000000000e+02
7.810867147704746216e+00 7.121440395546041202e+01 3.280000000000000000e+02
8.317678806756269694e+00 7.253468496427991852e+01 3.280000000000000000e+02
8.824490465807793171e+00 7.385496597309941080e+01 3.280000000000000000e+02
5.683543527331118561e+00 6.369945257742739386e+01 3.290000000000000000e+02
6.190355186382642039e+00 6.501973358624688615e+01 3.290000000000000000e+02
6.697166845434164628e+00 6.634001459506639264e+01 3.290000000000000000e+02
7.203978504485688106e+00 6.766029560388589914e+01 3.290000000000000000e+02
7.710790163537211583e+00 6.898057661270540564e+01 3.290000000000000000e+02
8.217601822588735061e+00 7.030085762152489792e+01 3.290000000000000000e+02
8.724413481640258539e+00 7.162113863034440442e+01 3.290000000000000000e+02
9.231225140691782016e+00 7.294141963916391092e+01 3.290000000000000000e+02
5.683543527331118561e+00 6.369945257742739386e+01 3.300000000000000000e+02
6.190355186382642039e+00 6.501973358624688615e+01 3.300000000000000000e+02
6.697166845434164628e+00 6.634001459506639264e+01 3.300000000000000000e+02
7.203978504485688106e+00 6.766029560388589914e+01 3.300000000000000000e+02
7.710790163537211583e+00 6.898057661270540564e+01 3.300000000000000000e+02
8.217601822588735061e+00 7.030085762152489792e+01 3.300000000000000000e+02
8.724413481640258539e+00 7.162113863034440442e+01 3.300000000000000000e+02
9.231225140691782016e+00 7.294141963916391092e+01 3.300000000000000000e+02
5.683543527331118561e+00 6.369945257742739386e+01 3.310000000000000000e+02
6.190355186382642039e+00 6.501973358624688615e+01 3.310000000000000000e+02
6.697166845434164628e+00 6.634001459506639264e+01 3.310000000000000000e+02
7.203978504485688106e+00 6.766029560388589914e+01 3.310000000000000000e+02
7.710790163537211583e+00 6.898057661270540564e+01 3.310000000000000000e+02
8.217601822588735061e+00 7.030085762152489792e+01 3.310000000000000000e+02
8.724413481640258539e+00 7.162113863034440442e+01 3.310000000000000000e+02
9.231225140691782016e+00 7.294141963916391092e+01 3.310000000000000000e+02
5.683543527331118561e+00 6.369945257742739386e+01 3.320000000000000000e+02
6.190355186382642039e+00 6.501973358624688615e+01 3.320000000000000000e+02
6.697166845434164628e+00 6.634001459506639264e+01 3.320000000000000000e+02
7.203978504485688106e+00 6.766029560388589914e+01 3.320000000000000000e+02
7.710790163537211583e+00 6.898057661270540564e+01 3.320000000000000000e+02
8.217601822588735061e+00 7.030085762152489792e+01 3.320000000000000000e+02
8.724413481640258539e+00 7.162113863034440442e+01 3.320000000000000000e+02
