6.490872594919526506e+00 -9.606877700348530169e+00 3.460000000000000000e+02
7.537827631743473589e+00 -8.656148953087269504e+00 3.460000000000000000e+02
8.584782668567424224e+00 -7.705420205826009727e+00 3.460000000000000000e+02
9.631737705391371307e+00 -6.754691458564749951e+00 3.460000000000000000e+02
1.067869274221532017e+01 -5.803962711303490174e+00 3.460000000000000000e+02
1.172564777903926725e+01 -4.853233964042230397e+00 3.460000000000000000e+02
1.277260281586321788e+01 -3.902505216780971065e+00 3.460000000000000000e+02
5.443917558095576759e+00 -1.055760644760978906e+01 3.470000000000000000e+02
6.490872594919526506e+00 -9.606877700348530169e+00 3.470000000000000000e+02
7.537827631743473589e+00 -8.656148953087269504e+00 3.470000000000000000e+02
8.584782668567424224e+00 -7.705420205826009727e+00 3.470000000000000000e+02
9.631737705391371307e+00 -6.754691458564749951e+00 3.470000000000000000e+02
1.067869274221532017e+01 -5.803962711303490174e+00 3.470000000000000000e+02
1.172564777903926725e+01 -4.853233964042230397e+00 3.470000000000000000e+02
1.277260281586321788e+01 -3.902505216780971065e+00 3.470000000000000000e+02
5.443917558095576759e+00 -1.055760644760978906e+01 3.480000000000000000e+02
6.490872594919526506e+00 -9.606877700348530169e+00 3.480000000000000000e+02
7.537827631743473589e+00 -8.656148953087269504e+00 3.480000000000000000e+02
8.584782668567424224e+00 -7.705420205826009727e+00 3.480000000000000000e+02
9.631737705391371307e+00 -6.754691458564749951e+00 3.480000000000000000e+02
1.067869274221532017e+01 -5.803962711303490174e+00 3.480000000000000000e+02
1.172564777903926725e+01 -4.853233964042230397e+00 3.480000000000000000e+02
1.277260281586321788e+01 -3.902505216780971065e+00 3.480000000000000000e+02
5.443917558095576759e+00 -1.055760644760978906e+01 3.490000000000000000e+02
6.490872594919526506e+00 -9.606877700348530169e+00 3.490000000000000000e+02
7.537827631743473589e+00 -8.656148953087269504e+00 3.490000000000000000e+02
8.584782668567424224e+00 -7.705420205826009727e+00 3.490000000000000000e+02
9.631737705391371307e+00 -6.754691458564749951e+00 3.490000000000000000e+02
1.067869274221532017e+01 -5.803962711303490174e+00 3.490000000000000000e+02
1.172564777903926725e+01 -4.853233964042230397e+00 3.490000000000000000e+02
1.277260281586321788e+01 -3.902505216780971065e+00 3.490000000000000000e+02
5.443917558095576759e+00 -1.055760644760978906e+01 3.500000000000000000e+02
6.490872594919526506e+00 -9.606877700348530169e+00 3.500000000000000000e+02
7.537827631743473589e+00 -8.656148953087269504e+00 3.500000000000000000e+02
8.584782668567424224e+00 -7.705420205826009727e+00 3.500000000000000000e+02
9.631737705391371307e+00 -6.754691458564749951e+00 3.500000000000000000e+02
1.067869274221532017e+01 -5.803962711303490174e+00 3.500000000000000000e+02
1.172564777903926725e+01 -4.853233964042230397e+00 3.500000000000000000e+02
1.277260281586321788e+01 -3.902505216780971065e+00 3.500000000000000000e+02
5.443917558095576759e+00 -1.055760644760978906e+01 3.510000000000000000e+02
6.490872594919526506e+00 -9.606877700348530169e+00 3.510000000000000000e+02
7.537827631743473589e+00 -8.656148953087269504e+00 3.510000000000000000e+02
8.584782668567424224e+00 -7.705420205826009727e+00 3.510000000000000000e+02
9.631737705391371307e+00 -6.754691458564749951e+00 3.510000000000000000e+02
1.067869274221532017e+01 -5.803962711303490174e+00 3.510000000000000000e+02
1.172564777903926725e+01 -4.853233964042230397e+00 3.510000000000000000e+02
1.277260281586321788e+01 -3.902505216780971065e+00 3.510000000000000000e+02
5.443917558095576759e+00 -1.055760644760978906e+01 3.520000000000000000e+02
6.490872594919526506e+00 -9.606877700348530169e+00 3.520000000000000000e+02
7.537827631743473589e+00 -8.656148953087269504e+00 3.520000000000000000e+02
8.584782668567424224e+00 -7.705420205826009727e+00 3.520000000000000000e+02
9.631737705391371307e+00 -6.754691458564749951e+00 3.520000000000000000e+02
1.067869274221532017e+01 -5.803962711303490174e+00 3.520000000000000000e+02
1.172564777903926725e+01 -4.853233964042230397e+00 3.520000000000000000e+02
1.277260281586321788e+01 -3.902505216780971065e+00 3.520000000000000000e+02
5.443917558095576759e+00 -1.055760644760978906e+01 3.530000000000000000e+02
6.490872594919526506e+00 -9.606877700348530169e+00 3.530000000000000000e+02
7.537827631743473589e+00 -8.656148953087269504e+00 3.530000000000000000e+02
8.584782668567424224e+00 -7.705420205826009727e+00 3.530000000000000000e+02
9.631737705391371307e+00 -6.754691458564749951e+00 3.530000000000000000e+02
1.067869274221532017e+01 -5.803962711303490174e+00 3.530000000000000000e+02
1.172564777903926725e+01 -4.853233964042230397e+00 3.530000000000000000e+02
1.277260281586321788e+01 -3.902505216780971065e+00 3.530000000000000000e+02
5.443917558095576759e+00 -1.055760644760978906e+01 3.540000000000000000e+02
6.490872594919526506e+00 -9.606877700348530169e+00 3.540000000000000000e+02
7.537827631743473589e+00 -8.656148953087269504e+00 3.540000000000000000e+02
8.584782668567424224e+00 -7.705420205826009727e+00 3.540000000000000000e+02
9.631737705391371307e+00 -6.754691458564749951e+00 3.540000000000000000e+02
1.067869274221532017e+01 -5.803962711303490174e+00 3.540000000000000000e+02
1.172564777903926725e+01 -4.853233964042230397e+00 3.540000000000000000e+02
1.277260281586321788e+01 -3.902505216780971065e+00 3.540000000000000000e+02
4.445075666052972885e+00 -1.050949330282844407e+01 3.550000000000000000e+02
5.492030702876921744e+00 -9.558764555567185184e+00 3.550000000000000000e+02
6.538985739700869715e+00 -8.608035808305924519e+00 3.550000000000000000e+02
7.585940776524818574e+00 -7.657307061044665630e+00 3.550000000000000000e+02
8.632895813348767433e+00 -6.706578313783405854e+00 3.550000000000000000e+02
9.679850850172716292e+00 -5.755849566522146077e+00 3.550000000000000000e+02
1.072680588699666515e+01 -4.805120819260886300e+00 3.550000000000000000e+02
1.177376092382061223e+01 -3.854392071999626523e+00 3.550000000000000000e+02
1.282071596064456287e+01 -2.903663324738365858e+00 3.550000000000000000e+02
4.445075666052972885e+00 -1.050949330282844407e+01 3.560000000000000000e+02
5.492030702876921744e+00 -9.558764555567185184e+00 3.560000000000000000e+02
6.538985739700869715e+00 -8.608035808305924519e+00 3.560000000000000000e+02
7.585940776524818574e+00 -7.657307061044665630e+00 3.560000000000000000e+02
8.632895813348767433e+00 -6.706578313783405854e+00 3.560000000000000000e+02
9.679850850172716292e+00 -5.755849566522146077e+00 3.560000000000000000e+02
1.072680588699666515e+01 -4.805120819260886300e+00 3.560000000000000000e+02
1.177376092382061223e+01 -3.854392071999626523e+00 3.560000000000000000e+02
1.282071596064456287e+01 -2.903663324738365858e+00 3.560000000000000000e+02
4.445075666052972885e+00 -1.050949330282844407e+01 3.570000000000000000e+02
5.492030702876921744e+00 -9.558764555567185184e+00 3.570000000000000000e+02
6.538985739700869715e+00 -8.608035808305924519e+00 3.570000000000000000e+02
7.585940776524818574e+00 -7.657307061044665630e+00 3.570000000000000000e+02
8.632895813348767433e+00 -6.706578313783405854e+00 3.570000000000000000e+02
9.679850850172716292e+00 -5.755849566522146077e+00 3.570000000000000000e+02
1.072680588699666515e+01 -4.805120819260886300e+00 3.570000000000000000e+02
1.177376092382061223e+01 -3.854392071999626523e+00 3.570000000000000000e+02
1.282071596064456287e+01 -2.903663324738365858e+00 3.570000000000000000e+02
4.445075666052972885e+00 -1.050949330282844407e+01 3.580000000000000000e+02
5.492030702876921744e+00 -9.558764555567185184e+00 3.580000000000000000e+02
6.538985739700869715e+00 -8.608035808305924519e+00 3.580000000000000000e+02
7.585940776524818574e+00 -7.657307061044665630e+00 3.580000000000000000e+02
8.632895813348767433e+00 -6.706578313783405854e+00 3.580000000000000000e+02
9.679850850172716292e+00 -5.755849566522146077e+00 3.580000000000000000e+02
1.072680588699666515e+01 -4.805120819260886300e+00 3.580000000000000000e+02
1.177376092382061223e+01 -3.854392071999626523e+00 3.580000000000000000e+02
1.282071596064456287e+01 -2.903663324738365858e+00 3.580000000000000000e+02
4.445075666052972885e+00 -1.050949330282844407e+01 3.590000000000000000e+02
5.492030702876921744e+00 -9.558764555567185184e+00 3.590000000000000000e+02
6.538985739700869715e+00 -8.608035808305924519e+00 3.590000000000000000e+02
7.585940776524818574e+00 -7.657307061044665630e+00 3.590000000000000000e+02
8.632895813348767433e+00 -6.706578313783405854e+00 3.590000000000000000e+02
9.679850850172716292e+00 -5.755849566522146077e+00 3.590000000000000000e+02
1.072680588699666515e+01 -4.805120819260886300e+00 3.590000000000000000e+02
1.177376092382061223e+01 -3.854392071999626523e+00 3.590000000000000000e+02
1.282071596064456287e+01 -2.903663324738365858e+00 3.590000000000000000e+02
5.443917558095576759e+00 -1.055760644760978906e+01 3.600000000000000000e+02
6.490872594919526506e+00 -9.606877700348530169e+00 3.600000000000000000e+02
7.537827631743473589e+00 -8.656148953087269504e+00 3.600000000000000000e+02
8.584782668567424224e+00 -7.705420205826009727e+00 3.600000000000000000e+02
9.631737705391371307e+00 -6.754691458564749951e+00 3.600000000000000000e+02
1.067869274221532017e+01 -5.803962711303490174e+00 3.600000000000000000e+02
1.172564777903926725e+01 -4.853233964042230397e+00 3.600000000000000000e+02
1.277260281586321788e+01 -3.902505216780971065e+00 3.600000000000000000e+02
5.443917558095576759e+00 -1.055760644760978906e+01 3.610000000000000000e+02
6.490872594919526506e+00 -9.606877700348530169e+00 3.610000000000000000e+02
7.537827631743473589e+00 -8.656148953087269504e+00 3.610000000000000000e+02
8.584782668567424224e+00 -7.705420205826009727e+00 3.610000000000000000e+02
9.631737705391371307e+00 -6.754691458564749951e+00 3.610000000000000000e+02
1.067869274221532017e+01 -5.803962711303490174e+00 3.610000000000000000e+02
1.172564777903926725e+01 -4.853233964042230397e+00 3.610000000000000000e+02
1.277260281586321788e+01 -3.902505216780971065e+00 3.610000000000000000e+02
4.445075666052972885e+00 -1.050949330282844407e+01 3.620000000000000000e+02
5.492030702876921744e+00 -9.558764555567185184e+00 3.620000000000000000e+02
6.538985739700869715e+00 -8.608035808305924519e+00 3.620000000000000000e+02
7.585940776524818574e+00 -7.657307061044665630e+00 3.620000000000000000e+02
8.632895813348767433e+00 -6.706578313783405854e+00 3.620000000000000000e+02
9.679850850172716292e+00 -5.755849566522146077e+00 3.620000000000000000e+02
1.072680588699666515e+01 -4.805120819260886300e+00 3.620000000000000000e+02
1.177376092382061223e+01 -3.854392071999626523e+00 3.620000000000000000e+02
4.445075666052972885e+00 -1.050949330282844407e+01 3.630000000000000000e+02
5.492030702876921744e+00 -9.558764555567185184e+00 3.630000000000000000e+02
6.538985739700869715e+00 -8.608035808305924519e+00 3.630000000000000000e+02
7.585940776524818574e+00 -7.657307061044665630e+00 3.630000000000000000e+02
8.632895813348767433e+00 -6.706578313783405854e+00 3.630000000000000000e+02
9.679850850172716292e+00 -5.755849566522146077e+00 3.630000000000000000e+02
1.072680588699666515e+01 -4.805120819260886300e+00 3.630000000000000000e+02
1.177376092382061223e+01 -3.854392071999626523e+00 3.630000000000000000e+02
4.445075666052972885e+00 -1.050949330282844407e+01 3.640000000000000000e+02
5.492030702876921744e+00 -9.558764555567185184e+00 3.640000000000000000e+02
6.538985739700869715e+00 -8.608035808305924519e+00 3.640000000000000000e+02
7.585940776524818574e+00 -7.657307061044665630e+00 3.640000000000000000e+02
8.632895813348767433e+00 -6.706578313783405854e+00 3.640000000000000000e+02
9.679850850172716292e+00 -5.755849566522146077e+00 3.640000000000000000e+02
1.072680588699666515e+01 -4.805120819260886300e+00 3.640000000000000000e+02
1.177376092382061223e+01 -3.854392071999626523e+00 3.640000000000000000e+02
4.445075666052972885e+00 -1.050949330282844407e+01 3.650000000000000000e+02
5.492030702876921744e+00 -9.558764555567185184e+00 3.650000000000000000e+02
6.538985739700869715e+00 -8.608035808305924519e+00 3.650000000000000000e+02
7.585940776524818574e+00 -7.657307061044665630e+00 3.650000000000000000e+02
8.632895813348767433e+00 -6.706578313783405854e+00 3.650000000000000000e+02
9.679850850172716292e+00 -5.755849566522146077e+00 3.650000000000000000e+02
1.072680588699666515e+01 -4.805120819260886300e+00 3.650000000000000000e+02
1.177376092382061223e+01 -3.854392071999626523e+00 3.650000000000000000e+02
4.445075666052972885e+00 -1.050949330282844407e+01 3.660000000000000000e+02
5.492030702876921744e+00 -9.558764555567185184e+00 3.660000000000000000e+02
6.538985739700869715e+00 -8.608035808305924519e+00 3.660000000000000000e+02
7.585940776524818574e+00 -7.657307061044665630e+00 3.660000000000000000e+02
8.632895813348767433e+00 -6.706578313783405854e+00 3.660000000000000000e+02
9.679850850172716292e+00 -5.755849566522146077e+00 3.660000000000000000e+02
1.072680588699666515e+01 -4.805120819260886300e+00 3.660000000000000000e+02
1.177376092382061223e+01 -3.854392071999626523e+00 3.660000000000000000e+02
4.445075666052972885e+00 -1.050949330282844407e+01 3.670000000000000000e+02
5.492030702876921744e+00 -9.558764555567185184e+00 3.670000000000000000e+02
6.538985739700869715e+00 -8.608035808305924519e+00 3.670000000000000000e+02
7.585940776524818574e+00 -7.657307061044665630e+00 3.670000000000000000e+02
8.632895813348767433e+00 -6.706578313783405854e+00 3.670000000000000000e+02
9.679850850172716292e+00 -5.755849566522146077e+00 3.670000000000000000e+02
1.072680588699666515e+01 -4.805120819260886300e+00 3.670000000000000000e+02
1.177376092382061223e+01 -3.854392071999626523e+00 3.670000000000000000e+02
4.445075666052972885e+00 -1.050949330282844407e+01 3.680000000000000000e+02
5.492030702876921744e+00 -9.558764555567185184e+00 3.680000000000000000e+02
6.538985739700869715e+00 -8.608035808305924519e+00 3.680000000000000000e+02
7.585940776524818574e+00 -7.657307061044665630e+00 3.680000000000000000e+02
8.632895813348767433e+00 -6.706578313783405854e+00 3.680000000000000000e+02
9.679850850172716292e+00 -5.755849566522146077e+00 3.680000000000000000e+02
1.072680588699666515e+01 -4.805120819260886300e+00 3.680000000000000000e+02
1.177376092382061223e+01 -3.854392071999626523e+00 3.680000000000000000e+02
4.445075666052972885e+00 -1.050949330282844407e+01 3.690000000000000000e+02
5.492030702876921744e+00 -9.558764555567185184e+00 3.690000000000000000e+02
6.538985739700869715e+00 -8.608035808305924519e+00 3.690000000000000000e+02
7.585940776524818574e+00 -7.657307061044665630e+00 3.690000000000000000e+02
8.632895813348767433e+00 -6.706578313783405854e+00 3.690000000000000000e+02
9.679850850172716292e+00 -5.755849566522146077e+00 3.690000000000000000e+02
1.072680588699666515e+01 -4.805120819260886300e+00 3.690000000000000000e+02
1.177376092382061223e+01 -3.854392071999626523e+00 3.690000000000000000e+02
4.445075666052972885e+00 -1.050949330282844407e+01 3.700000000000000000e+02
5.492030702876921744e+00 -9.558764555567185184e+00 3.700000000000000000e+02
6.538985739700869715e+00 -8.608035808305924519e+00 3.700000000000000000e+02
7.585940776524818574e+00 -7.657307061044665630e+00 3.700000000000000000e+02
8.632895813348767433e+00 -6.706578313783405854e+00 3.700000000000000000e+02
9.679850850172716292e+00 -5.755849566522146077e+00 3.700000000000000000e+02
1.072680588699666515e+01 -4.805120819260886300e+00 3.700000000000000000e+02
3.446233774010368567e+00 -1.046138015804709909e+01 3.710000000000000000e+02
4.493188810834316982e+00 -9.510651410785840199e+00 3.710000000000000000e+02
5.540143847658265841e+00 -8.559922663524581310e+00 3.710000000000000000e+02
6.587098884482214700e+00 -7.609193916263320645e+00 3.710000000000000000e+02
7.634053921306163559e+00 -6.658465169002061756e+00 3.710000000000000000e+02
8.681008958130112418e+00 -5.707736421740801092e+00 3.710000000000000000e+02
9.727963994954061278e+00 -4.757007674479542203e+00 3.710000000000000000e+02
1.077491903177800836e+01 -3.806278927218281982e+00 3.710000000000000000e+02
3.446233774010368567e+00 -1.046138015804709909e+01 3.720000000000000000e+02
4.493188810834316982e+00 -9.510651410785840199e+00 3.720000000000000000e+02
5.540143847658265841e+00 -8.559922663524581310e+00 3.720000000000000000e+02
6.587098884482214700e+00 -7.609193916263320645e+00 3.720000000000000000e+02
7.634053921306163559e+00 -6.658465169002061756e+00 3.720000000000000000e+02
8.681008958130112418e+00 -5.707736421740801092e+00 3.720000000000000000e+02
9.727963994954061278e+00 -4.757007674479542203e+00 3.720000000000000000e+02
1.077491903177800836e+01 -3.806278927218281982e+00 3.720000000000000000e+02
1.182187406860195722e+01 -2.855550179957021761e+00 3.720000000000000000e+02
3.446233774010368567e+00 -1.046138015804709909e+01 3.730000000000000000e+02
4.493188810834316982e+00 -9.510651410785840199e+00 3.730000000000000000e+02
5.540143847658265841e+00 -8.559922663524581310e+00 3.730000000000000000e+02
6.587098884482214700e+00 -7.609193916263320645e+00 3.730000000000000000e+02
7.634053921306163559e+00 -6.658465169002061756e+00 3.730000000000000000e+02
8.681008958130112418e+00 -5.707736421740801092e+00 3.730000000000000000e+02
9.727963994954061278e+00 -4.757007674479542203e+00 3.730000000000000000e+02
1.077491903177800836e+01 -3.806278927218281982e+00 3.730000000000000000e+02
1.182187406860195722e+01 -2.855550179957021761e+00 3.730000000000000000e+02
3.446233774010368567e+00 -1.046138015804709909e+01 3.740000000000000000e+02
4.493188810834316982e+00 -9.510651410785840199e+00 3.740000000000000000e+02
5.540143847658265841e+00 -8.559922663524581310e+00 3.740000000000000000e+02
6.587098884482214700e+00 -7.609193916263320645e+00 3.740000000000000000e+02
7.634053921306163559e+00 -6.658465169002061756e+00 3.740000000000000000e+02
8.681008958130112418e+00 -5.707736421740801092e+00 3.740000000000000000e+02
9.727963994954061278e+00 -4.757007674479542203e+00 3.740000000000000000e+02
1.077491903177800836e+01 -3.806278927218281982e+00 3.740000000000000000e+02
1.182187406860195722e+01 -2.855550179957021761e+00 3.740000000000000000e+02
3.446233774010368567e+00 -1.046138015804709909e+01 3.750000000000000000e+02
4.493188810834316982e+00 -9.510651410785840199e+00 3.750000000000000000e+02
5.540143847658265841e+00 -8.559922663524581310e+00 3.750000000000000000e+02
6.587098884482214700e+00 -7.609193916263320645e+00 3.750000000000000000e+02
7.634053921306163559e+00 -6.658465169002061756e+00 3.750000000000000000e+02
8.681008958130112418e+00 -5.707736421740801092e+00 3.750000000000000000e+02
9.727963994954061278e+00 -4.757007674479542203e+00 3.750000000000000000e+02
1.077491903177800836e+01 -3.806278927218281982e+00 3.750000000000000000e+02
3.446233774010368567e+00 -1.046138015804709909e+01 3.760000000000000000e+02
4.493188810834316982e+00 -9.510651410785840199e+00 3.760000000000000000e+02
5.540143847658265841e+00 -8.559922663524581310e+00 3.760000000000000000e+02
6.587098884482214700e+00 -7.609193916263320645e+00 3.760000000000000000e+02
7.634053921306163559e+00 -6.658465169002061756e+00 3.760000000000000000e+02
8.681008958130112418e+00 -5.707736421740801092e+00 3.760000000000000000e+02
9.727963994954061278e+00 -4.757007674479542203e+00 3.760000000000000000e+02
1.077491903177800836e+01 -3.806278927218281982e+00 3.760000000000000000e+02
3.446233774010368567e+00 -1.046138015804709909e+01 3.770000000000000000e+02
4.493188810834316982e+00 -9.510651410785840199e+00 3.770000000000000000e+02
5.540143847658265841e+00 -8.559922663524581310e+00 3.770000000000000000e+02
6.587098884482214700e+00 -7.609193916263320645e+00 3.770000000000000000e+02
7.634053921306163559e+00 -6.658465169002061756e+00 3.770000000000000000e+02
8.681008958130112418e+00 -5.707736421740801092e+00 3.770000000000000000e+02
9.727963994954061278e+00 -4.757007674479542203e+00 3.770000000000000000e+02
1.077491903177800836e+01 -3.806278927218281982e+00 3.770000000000000000e+02
3.446233774010368567e+00 -1.046138015804709909e+01 3.780000000000000000e+02
4.493188810834316982e+00 -9.510651410785840199e+00 3.780000000000000000e+02
5.540143847658265841e+00 -8.559922663524581310e+00 3.780000000000000000e+02
6.587098884482214700e+00 -7.609193916263320645e+00 3.780000000000000000e+02
7.634053921306163559e+00 -6.658465169002061756e+00 3.780000000000000000e+02
8.681008958130112418e+00 -5.707736421740801092e+00 3.780000000000000000e+02
9.727963994954061278e+00 -4.757007674479542203e+00 3.780000000000000000e+02
1.077491903177800836e+01 -3.806278927218281982e+00 3.780000000000000000e+02
3.446233774010368567e+00 -1.046138015804709909e+01 3.790000000000000000e+02
4.493188810834316982e+00 -9.510651410785840199e+00 3.790000000000000000e+02
5.540143847658265841e+00 -8.559922663524581310e+00 3.790000000000000000e+02
6.587098884482214700e+00 -7.609193916263320645e+00 3.790000000000000000e+02
7.634053921306163559e+00 -6.658465169002061756e+00 3.790000000000000000e+02
8.681008958130112418e+00 -5.707736421740801092e+00 3.790000000000000000e+02
9.727963994954061278e+00 -4.757007674479542203e+00 3.790000000000000000e+02
1.077491903177800836e+01 -3.806278927218281982e+00 3.790000000000000000e+02
3.446233774010368567e+00 -1.046138015804709909e+01 3.800000000000000000e+02
4.493188810834316982e+00 -9.510651410785840199e+00 3.800000000000000000e+02
5.540143847658265841e+00 -8.559922663524581310e+00 3.800000000000000000e+02
6.587098884482214700e+00 -7.609193916263320645e+00 3.800000000000000000e+02
7.634053921306163559e+00 -6.658465169002061756e+00 3.800000000000000000e+02
8.681008958130112418e+00 -5.707736421740801092e+00 3.800000000000000000e+02
9.727963994954061278e+00 -4.757007674479542203e+00 3.800000000000000000e+02
1.077491903177800836e+01 -3.806278927218281982e+00 3.800000000000000000e+02
2.447391881967764249e+00 -1.041326701326575588e+01 3.810000000000000000e+02
3.494346918791713108e+00 -9.462538266004496990e+00 3.810000000000000000e+02
4.541301955615661967e+00 -8.511809518743236325e+00 3.810000000000000000e+02
5.588256992439610826e+00 -7.561080771481976548e+00 3.810000000000000000e+02
6.635212029263559685e+00 -6.610352024220716771e+00 3.810000000000000000e+02
7.682167066087506768e+00 -5.659623276959456994e+00 3.810000000000000000e+02
8.729122102911457404e+00 -4.708894529698197218e+00 3.810000000000000000e+02
9.776077139735404486e+00 -3.758165782436937441e+00 3.810000000000000000e+02
2.447391881967764249e+00 -1.041326701326575588e+01 3.820000000000000000e+02
3.494346918791713108e+00 -9.462538266004496990e+00 3.820000000000000000e+02
4.541301955615661967e+00 -8.511809518743236325e+00 3.820000000000000000e+02
5.588256992439610826e+00 -7.561080771481976548e+00 3.820000000000000000e+02
6.635212029263559685e+00 -6.610352024220716771e+00 3.820000000000000000e+02
7.682167066087506768e+00 -5.659623276959456994e+00 3.820000000000000000e+02
8.729122102911457404e+00 -4.708894529698197218e+00 3.820000000000000000e+02
9.776077139735404486e+00 -3.758165782436937441e+00 3.820000000000000000e+02
2.447391881967764249e+00 -1.041326701326575588e+01 3.830000000000000000e+02
3.494346918791713108e+00 -9.462538266004496990e+00 3.830000000000000000e+02
4.541301955615661967e+00 -8.511809518743236325e+00 3.830000000000000000e+02
5.588256992439610826e+00 -7.561080771481976548e+00 3.830000000000000000e+02
6.635212029263559685e+00 -6.610352024220716771e+00 3.830000000000000000e+02
7.682167066087506768e+00 -5.659623276959456994e+00 3.830000000000000000e+02
8.729122102911457404e+00 -4.708894529698197218e+00 3.830000000000000000e+02
9.776077139735404486e+00 -3.758165782436937441e+00 3.830000000000000000e+02
2.447391881967764249e+00 -1.041326701326575588e+01 3.840000000000000000e+02
3.494346918791713108e+00 -9.462538266004496990e+00 3.840000000000000000e+02
4.541301955615661967e+00 -8.511809518743236325e+00 3.840000000000000000e+02
5.588256992439610826e+00 -7.561080771481976548e+00 3.840000000000000000e+02
6.635212029263559685e+00 -6.610352024220716771e+00 3.840000000000000000e+02
7.682167066087506768e+00 -5.659623276959456994e+00 3.840000000000000000e+02
8.729122102911457404e+00 -4.708894529698197218e+00 3.840000000000000000e+02
9.776077139735404486e+00 -3.758165782436937441e+00 3.840000000000000000e+02
3.446233774010368567e+00 -1.046138015804709909e+01 3.850000000000000000e+02
4.493188810834316982e+00 -9.510651410785840199e+00 3.850000000000000000e+02
5.540143847658265841e+00 -8.559922663524581310e+00 3.850000000000000000e+02
6.587098884482214700e+00 -7.609193916263320645e+00 3.850000000000000000e+02
7.634053921306163559e+00 -6.658465169002061756e+00 3.850000000000000000e+02
8.681008958130112418e+00 -5.707736421740801092e+00 3.850000000000000000e+02
9.727963994954061278e+00 -4.757007674479542203e+00 3.850000000000000000e+02
3.446233774010368567e+00 -1.046138015804709909e+01 3.860000000000000000e+02
4.493188810834316982e+00 -9.510651410785840199e+00 3.860000000000000000e+02
5.540143847658265841e+00 -8.559922663524581310e+00 3.860000000000000000e+02
6.587098884482214700e+00 -7.609193916263320645e+00 3.860000000000000000e+02
7.634053921306163559e+00 -6.658465169002061756e+00 3.860000000000000000e+02
8.681008958130112418e+00 -5.707736421740801092e+00 3.860000000000000000e+02
3.446233774010368567e+00 -1.046138015804709909e+01 3.870000000000000000e+02
4.493188810834316982e+00 -9.510651410785840199e+00 3.870000000000000000e+02
5.540143847658265841e+00 -8.559922663524581310e+00 3.870000000000000000e+02
6.587098884482214700e+00 -7.609193916263320645e+00 3.870000000000000000e+02
7.634053921306163559e+00 -6.658465169002061756e+00 3.870000000000000000e+02
8.681008958130112418e+00 -5.707736421740801092e+00 3.870000000000000000e+02
3.446233774010368567e+00 -1.046138015804709909e+01 3.880000000000000000e+02
4.493188810834316982e+00 -9.510651410785840199e+00 3.880000000000000000e+02
5.540143847658265841e+00 -8.559922663524581310e+00 3.880000000000000000e+02
6.587098884482214700e+00 -7.609193916263320645e+00 3.880000000000000000e+02
7.634053921306163559e+00 -6.658465169002061756e+00 3.880000000000000000e+02
1.448549989925160375e+00 -1.036515386848441089e+01 3.890000000000000000e+02
2.495505026749109234e+00 -9.414425121223152004e+00 3.890000000000000000e+02
3.542460063573057649e+00 -8.463696373961891339e+00 3.890000000000000000e+02
4.589415100397006064e+00 -7.512967626700632451e+00 3.890000000000000000e+02
5.636370137220954923e+00 -6.562238879439372674e+00 3.890000000000000000e+02
6.683325174044903783e+00 -5.611510132178112897e+00 3.890000000000000000e+02
7.730280210868851754e+00 -4.660781384916853121e+00 3.890000000000000000e+02
-5.491337941600478167e-01 -1.026892757892172270e+01 3.900000000000000000e+02
4.978212426639005983e-01 -9.318198831660463810e+00 3.900000000000000000e+02
1.544776279487849235e+00 -8.367470084399203145e+00 3.900000000000000000e+02
2.591731316311797872e+00 -7.416741337137943368e+00 3.900000000000000000e+02
3.638686353135746732e+00 -6.466012589876683592e+00 3.900000000000000000e+02
4.685641389959695147e+00 -5.515283842615423815e+00 3.900000000000000000e+02
-5.491337941600478167e-01 -1.026892757892172270e+01 3.910000000000000000e+02
4.978212426639005983e-01 -9.318198831660463810e+00 3.910000000000000000e+02
1.544776279487849235e+00 -8.367470084399203145e+00 3.910000000000000000e+02
2.591731316311797872e+00 -7.416741337137943368e+00 3.910000000000000000e+02
3.638686353135746732e+00 -6.466012589876683592e+00 3.910000000000000000e+02
4.685641389959695147e+00 -5.515283842615423815e+00 3.910000000000000000e+02
-1.547975686202652579e+00 -1.022081443414037771e+01 3.920000000000000000e+02
-5.010206493787037196e-01 -9.270085686879118825e+00 3.920000000000000000e+02
5.459343874452446954e-01 -8.319356939617858160e+00 3.920000000000000000e+02
1.592889424269193555e+00 -7.368628192356598383e+00 3.920000000000000000e+02
2.639844461093142414e+00 -6.417899445095338606e+00 3.920000000000000000e+02
3.686799497917091273e+00 -5.467170697834078830e+00 3.920000000000000000e+02
4.733754534741040132e+00 -4.516441950572819053e+00 3.920000000000000000e+02
-2.546817578245256453e+00 -1.017270128935903273e+01 3.930000000000000000e+02
-1.499862541421307593e+00 -9.221972542097773839e+00 3.930000000000000000e+02
-4.529075045973591784e-01 -8.271243794836514951e+00 3.930000000000000000e+02
5.940475322265892366e-01 -7.320515047575254286e+00 3.930000000000000000e+02
1.641002569050538096e+00 -6.369786300313994509e+00 3.930000000000000000e+02
2.687957605874486955e+00 -5.419057553052734733e+00 3.930000000000000000e+02
3.734912642698435370e+00 -4.468328805791474956e+00 3.930000000000000000e+02
4.781867679522384229e+00 -3.517600058530215179e+00 3.930000000000000000e+02
-2.546817578245256453e+00 -1.017270128935903273e+01 3.940000000000000000e+02
-1.499862541421307593e+00 -9.221972542097773839e+00 3.940000000000000000e+02
-4.529075045973591784e-01 -8.271243794836514951e+00 3.940000000000000000e+02
5.940475322265892366e-01 -7.320515047575254286e+00 3.940000000000000000e+02
1.641002569050538096e+00 -6.369786300313994509e+00 3.940000000000000000e+02
2.687957605874486955e+00 -5.419057553052734733e+00 3.940000000000000000e+02
3.734912642698435370e+00 -4.468328805791474956e+00 3.940000000000000000e+02
4.781867679522384229e+00 -3.517600058530215179e+00 3.940000000000000000e+02
-2.546817578245256453e+00 -1.017270128935903273e+01 3.950000000000000000e+02
-1.499862541421307593e+00 -9.221972542097773839e+00 3.950000000000000000e+02
-4.529075045973591784e-01 -8.271243794836514951e+00 3.950000000000000000e+02
5.940475322265892366e-01 -7.320515047575254286e+00 3.950000000000000000e+02
1.641002569050538096e+00 -6.369786300313994509e+00 3.950000000000000000e+02
2.687957605874486955e+00 -5.419057553052734733e+00 3.950000000000000000e+02
3.734912642698435370e+00 -4.468328805791474956e+00 3.950000000000000000e+02
4.781867679522384229e+00 -3.517600058530215179e+00 3.950000000000000000e+02
-1.547975686202652579e+00 -1.022081443414037771e+01 3.960000000000000000e+02
-5.010206493787037196e-01 -9.270085686879118825e+00 3.960000000000000000e+02
5.459343874452446954e-01 -8.319356939617858160e+00 3.960000000000000000e+02
1.592889424269193555e+00 -7.368628192356598383e+00 3.960000000000000000e+02
2.639844461093142414e+00 -6.417899445095338606e+00 3.960000000000000000e+02
3.686799497917091273e+00 -5.467170697834078830e+00 3.960000000000000000e+02
4.733754534741040132e+00 -4.516441950572819053e+00 3.960000000000000000e+02
-1.547975686202652579e+00 -1.022081443414037771e+01 3.970000000000000000e+02
-5.010206493787037196e-01 -9.270085686879118825e+00 3.970000000000000000e+02
5.459343874452446954e-01 -8.319356939617858160e+00 3.970000000000000000e+02
1.592889424269193555e+00 -7.368628192356598383e+00 3.970000000000000000e+02
2.639844461093142414e+00 -6.417899445095338606e+00 3.970000000000000000e+02
3.686799497917091273e+00 -5.467170697834078830e+00 3.970000000000000000e+02
4.733754534741040132e+00 -4.516441950572819053e+00 3.970000000000000000e+02
-2.546817578245256453e+00 -1.017270128935903273e+01 3.980000000000000000e+02
-1.499862541421307593e+00 -9.221972542097773839e+00 3.980000000000000000e+02
-4.529075045973591784e-01 -8.271243794836514951e+00 3.980000000000000000e+02
5.940475322265892366e-01 -7.320515047575254286e+00 3.980000000000000000e+02
1.641002569050538096e+00 -6.369786300313994509e+00 3.980000000000000000e+02
2.687957605874486955e+00 -5.419057553052734733e+00 3.980000000000000000e+02
3.734912642698435370e+00 -4.468328805791474956e+00 3.980000000000000000e+02
4.781867679522384229e+00 -3.517600058530215179e+00 3.980000000000000000e+02
-2.546817578245256453e+00 -1.017270128935903273e+01 3.990000000000000000e+02
-1.499862541421307593e+00 -9.221972542097773839e+00 3.990000000000000000e+02
-4.529075045973591784e-01 -8.271243794836514951e+00 3.990000000000000000e+02
5.940475322265892366e-01 -7.320515047575254286e+00 3.990000000000000000e+02
1.641002569050538096e+00 -6.369786300313994509e+00 3.990000000000000000e+02
2.687957605874486955e+00 -5.419057553052734733e+00 3.990000000000000000e+02
3.734912642698435370e+00 -4.468328805791474956e+00 3.990000000000000000e+02
4.781867679522384229e+00 -3.517600058530215179e+00 3.990000000000000000e+02
-2.546817578245256453e+00 -1.017270128935903273e+01 4.000000000000000000e+02
-1.499862541421307593e+00 -9.221972542097773839e+00 4.000000000000000000e+02
-4.529075045973591784e-01 -8.271243794836514951e+00 4.000000000000000000e+02
5.940475322265892366e-01 -7.320515047575254286e+00 4.000000000000000000e+02
1.641002569050538096e+00 -6.369786300313994509e+00 4.000000000000000000e+02
2.687957605874486955e+00 -5.419057553052734733e+00 4.000000000000000000e+02
3.734912642698435370e+00 -4.468328805791474956e+00 4.000000000000000000e+02
4.781867679522384229e+00 -3.517600058530215179e+00 4.000000000000000000e+02
-2.546817578245256453e+00 -1.017270128935903273e+01 4.010000000000000000e+02
-1.499862541421307593e+00 -9.221972542097773839e+00 4.010000000000000000e+02
-4.529075045973591784e-01 -8.271243794836514951e+00 4.010000000000000000e+02
5.940475322265892366e-01 -7.320515047575254286e+00 4.010000000000000000e+02
1.641002569050538096e+00 -6.369786300313994509e+00 4.010000000000000000e+02
2.687957605874486955e+00 -5.419057553052734733e+00 4.010000000000000000e+02
3.734912642698435370e+00 -4.468328805791474956e+00 4.010000000000000000e+02
4.781867679522384229e+00 -3.517600058530215179e+00 4.010000000000000000e+02
-2.546817578245256453e+00 -1.017270128935903273e+01 4.020000000000000000e+02
-1.499862541421307593e+00 -9.221972542097773839e+00 4.020000000000000000e+02
-4.529075045973591784e-01 -8.271243794836514951e+00 4.020000000000000000e+02
5.940475322265892366e-01 -7.320515047575254286e+00 4.020000000000000000e+02
1.641002569050538096e+00 -6.369786300313994509e+00 4.020000000000000000e+02
2.687957605874486955e+00 -5.419057553052734733e+00 4.020000000000000000e+02
3.734912642698435370e+00 -4.468328805791474956e+00 4.020000000000000000e+02
4.781867679522384229e+00 -3.517600058530215179e+00 4.020000000000000000e+02
-2.546817578245256453e+00 -1.017270128935903273e+01 4.030000000000000000e+02
-1.499862541421307593e+00 -9.221972542097773839e+00 4.030000000000000000e+02
-4.529075045973591784e-01 -8.271243794836514951e+00 4.030000000000000000e+02
5.940475322265892366e-01 -7.320515047575254286e+00 4.030000000000000000e+02
1.641002569050538096e+00 -6.369786300313994509e+00 4.030000000000000000e+02
2.687957605874486955e+00 -5.419057553052734733e+00 4.030000000000000000e+02
3.734912642698435370e+00 -4.468328805791474956e+00 4.030000000000000000e+02
4.781867679522384229e+00 -3.517600058530215179e+00 4.030000000000000000e+02
-2.546817578245256453e+00 -1.017270128935903273e+01 4.040000000000000000e+02
-1.499862541421307593e+00 -9.221972542097773839e+00 4.040000000000000000e+02
-4.529075045973591784e-01 -8.271243794836514951e+00 4.040000000000000000e+02
5.940475322265892366e-01 -7.320515047575254286e+00 4.040000000000000000e+02
1.641002569050538096e+00 -6.369786300313994509e+00 4.040000000000000000e+02
2.687957605874486955e+00 -5.419057553052734733e+00 4.040000000000000000e+02
3.734912642698435370e+00 -4.468328805791474956e+00 4.040000000000000000e+02
4.781867679522384229e+00 -3.517600058530215179e+00 4.040000000000000000e+02
-2.546817578245256453e+00 -1.017270128935903273e+01 4.050000000000000000e+02
-1.499862541421307593e+00 -9.221972542097773839e+00 4.050000000000000000e+02
-4.529075045973591784e-01 -8.271243794836514951e+00 4.050000000000000000e+02
5.940475322265892366e-01 -7.320515047575254286e+00 4.050000000000000000e+02
1.641002569050538096e+00 -6.369786300313994509e+00 4.050000000000000000e+02
2.687957605874486955e+00 -5.419057553052734733e+00 4.050000000000000000e+02
3.734912642698435370e+00 -4.468328805791474956e+00 4.050000000000000000e+02
-2.546817578245256453e+00 -1.017270128935903273e+01 4.060000000000000000e+02
-1.499862541421307593e+00 -9.221972542097773839e+00 4.060000000000000000e+02
-4.529075045973591784e-01 -8.271243794836514951e+00 4.060000000000000000e+02
5.940475322265892366e-01 -7.320515047575254286e+00 4.060000000000000000e+02
1.641002569050538096e+00 -6.369786300313994509e+00 4.060000000000000000e+02
2.687957605874486955e+00 -5.419057553052734733e+00 4.060000000000000000e+02
3.734912642698435370e+00 -4.468328805791474956e+00 4.060000000000000000e+02
-2.546817578245256453e+00 -1.017270128935903273e+01 4.070000000000000000e+02
-1.499862541421307593e+00 -9.221972542097773839e+00 4.070000000000000000e+02
-4.529075045973591784e-01 -8.271243794836514951e+00 4.070000000000000000e+02
5.940475322265892366e-01 -7.320515047575254286e+00 4.070000000000000000e+02
1.641002569050538096e+00 -6.369786300313994509e+00 4.070000000000000000e+02
2.687957605874486955e+00 -5.419057553052734733e+00 4.070000000000000000e+02
3.734912642698435370e+00 -4.468328805791474956e+00 4.070000000000000000e+02
-2.546817578245256453e+00 -1.017270128935903273e+01 4.080000000000000000e+02
-1.499862541421307593e+00 -9.221972542097773839e+00 4.080000000000000000e+02
-4.529075045973591784e-01 -8.271243794836514951e+00 4.080000000000000000e+02
5.940475322265892366e-01 -7.320515047575254286e+00 4.080000000000000000e+02
1.641002569050538096e+00 -6.369786300313994509e+00 4.080000000000000000e+02
2.687957605874486955e+00 -5.419057553052734733e+00 4.080000000000000000e+02
3.734912642698435370e+00 -4.468328805791474956e+00 4.080000000000000000e+02
-2.546817578245256453e+00 -1.017270128935903273e+01 4.090000000000000000e+02
-1.499862541421307593e+00 -9.221972542097773839e+00 4.090000000000000000e+02
-4.529075045973591784e-01 -8.271243794836514951e+00 4.090000000000000000e+02
5.940475322265892366e-01 -7.320515047575254286e+00 4.090000000000000000e+02
1.641002569050538096e+00 -6.369786300313994509e+00 4.090000000000000000e+02
2.687957605874486955e+00 -5.419057553052734733e+00 4.090000000000000000e+02
3.734912642698435370e+00 -4.468328805791474956e+00 4.090000000000000000e+02
-2.546817578245256453e+00 -1.017270128935903273e+01 4.100000000000000000e+02
-1.499862541421307593e+00 -9.221972542097773839e+00 4.100000000000000000e+02
-4.529075045973591784e-01 -8.271243794836514951e+00 4.100000000000000000e+02
5.940475322265892366e-01 -7.320515047575254286e+00 4.100000000000000000e+02
1.641002569050538096e+00 -6.369786300313994509e+00 4.100000000000000000e+02
2.687957605874486955e+00 -5.419057553052734733e+00 4.100000000000000000e+02
3.734912642698435370e+00 -4.468328805791474956e+00 4.100000000000000000e+02
-2.546817578245256453e+00 -1.017270128935903273e+01 4.110000000000000000e+02
-1.499862541421307593e+00 -9.221972542097773839e+00 4.110000000000000000e+02
-4.529075045973591784e-01 -8.271243794836514951e+00 4.110000000000000000e+02
5.940475322265892366e-01 -7.320515047575254286e+00 4.110000000000000000e+02
1.641002569050538096e+00 -6.369786300313994509e+00 4.110000000000000000e+02
2.687957605874486955e+00 -5.419057553052734733e+00 4.110000000000000000e+02
3.734912642698435370e+00 -4.468328805791474956e+00 4.110000000000000000e+02
-3.545659470287861215e+00 -1.012458814457768952e+01 4.120000000000000000e+02
-2.498704433463911467e+00 -9.173859397316428854e+00 4.120000000000000000e+02
-1.451749396639963496e+00 -8.223130650055169966e+00 4.120000000000000000e+02
-4.047943598160146372e-01 -7.272401902793909301e+00 4.120000000000000000e+02
6.421606770079337778e-01 -6.321673155532650412e+00 4.120000000000000000e+02
1.689115713831882637e+00 -5.370944408271389747e+00 4.120000000000000000e+02
2.736070750655831496e+00 -4.420215661010130859e+00 4.120000000000000000e+02
3.783025787479779911e+00 -3.469486913748870638e+00 4.120000000000000000e+02
-3.545659470287861215e+00 -1.012458814457768952e+01 4.130000000000000000e+02
-2.498704433463911467e+00 -9.173859397316428854e+00 4.130000000000000000e+02
-1.451749396639963496e+00 -8.223130650055169966e+00 4.130000000000000000e+02
-4.047943598160146372e-01 -7.272401902793909301e+00 4.130000000000000000e+02
6.421606770079337778e-01 -6.321673155532650412e+00 4.130000000000000000e+02
1.689115713831882637e+00 -5.370944408271389747e+00 4.130000000000000000e+02
2.736070750655831496e+00 -4.420215661010130859e+00 4.130000000000000000e+02
3.783025787479779911e+00 -3.469486913748870638e+00 4.130000000000000000e+02
-3.545659470287861215e+00 -1.012458814457768952e+01 4.140000000000000000e+02
-2.498704433463911467e+00 -9.173859397316428854e+00 4.140000000000000000e+02
-1.451749396639963496e+00 -8.223130650055169966e+00 4.140000000000000000e+02
-4.047943598160146372e-01 -7.272401902793909301e+00 4.140000000000000000e+02
6.421606770079337778e-01 -6.321673155532650412e+00 4.140000000000000000e+02
1.689115713831882637e+00 -5.370944408271389747e+00 4.140000000000000000e+02
2.736070750655831496e+00 -4.420215661010130859e+00 4.140000000000000000e+02
3.783025787479779911e+00 -3.469486913748870638e+00 4.140000000000000000e+02
-3.545659470287861215e+00 -1.012458814457768952e+01 4.150000000000000000e+02
-2.498704433463911467e+00 -9.173859397316428854e+00 4.150000000000000000e+02
-1.451749396639963496e+00 -8.223130650055169966e+00 4.150000000000000000e+02
-4.047943598160146372e-01 -7.272401902793909301e+00 4.150000000000000000e+02
6.421606770079337778e-01 -6.321673155532650412e+00 4.150000000000000000e+02
1.689115713831882637e+00 -5.370944408271389747e+00 4.150000000000000000e+02
2.736070750655831496e+00 -4.420215661010130859e+00 4.150000000000000000e+02
3.783025787479779911e+00 -3.469486913748870638e+00 4.150000000000000000e+02
-3.545659470287861215e+00 -1.012458814457768952e+01 4.160000000000000000e+02
-2.498704433463911467e+00 -9.173859397316428854e+00 4.160000000000000000e+02
-1.451749396639963496e+00 -8.223130650055169966e+00 4.160000000000000000e+02
-4.047943598160146372e-01 -7.272401902793909301e+00 4.160000000000000000e+02
6.421606770079337778e-01 -6.321673155532650412e+00 4.160000000000000000e+02
1.689115713831882637e+00 -5.370944408271389747e+00 4.160000000000000000e+02
2.736070750655831496e+00 -4.420215661010130859e+00 4.160000000000000000e+02
3.783025787479779911e+00 -3.469486913748870638e+00 4.160000000000000000e+02
-3.545659470287861215e+00 -1.012458814457768952e+01 4.170000000000000000e+02
-2.498704433463911467e+00 -9.173859397316428854e+00 4.170000000000000000e+02
-1.451749396639963496e+00 -8.223130650055169966e+00 4.170000000000000000e+02
-4.047943598160146372e-01 -7.272401902793909301e+00 4.170000000000000000e+02
6.421606770079337778e-01 -6.321673155532650412e+00 4.170000000000000000e+02
1.689115713831882637e+00 -5.370944408271389747e+00 4.170000000000000000e+02
2.736070750655831496e+00 -4.420215661010130859e+00 4.170000000000000000e+02
-3.545659470287861215e+00 -1.012458814457768952e+01 4.180000000000000000e+02
-2.498704433463911467e+00 -9.173859397316428854e+00 4.180000000000000000e+02
-1.451749396639963496e+00 -8.223130650055169966e+00 4.180000000000000000e+02
-4.047943598160146372e-01 -7.272401902793909301e+00 4.180000000000000000e+02
6.421606770079337778e-01 -6.321673155532650412e+00 4.180000000000000000e+02
1.689115713831882637e+00 -5.370944408271389747e+00 4.180000000000000000e+02
2.736070750655831496e+00 -4.420215661010130859e+00 4.180000000000000000e+02
-3.545659470287861215e+00 -1.012458814457768952e+01 4.190000000000000000e+02
-2.498704433463911467e+00 -9.173859397316428854e+00 4.190000000000000000e+02
-1.451749396639963496e+00 -8.223130650055169966e+00 4.190000000000000000e+02
-4.047943598160146372e-01 -7.272401902793909301e+00 4.190000000000000000e+02
6.421606770079337778e-01 -6.321673155532650412e+00 4.190000000000000000e+02
1.689115713831882637e+00 -5.370944408271389747e+00 4.190000000000000000e+02
2.736070750655831496e+00 -4.420215661010130859e+00 4.190000000000000000e+02
-3.545659470287861215e+00 -1.012458814457768952e+01 4.200000000000000000e+02
-2.498704433463911467e+00 -9.173859397316428854e+00 4.200000000000000000e+02
-1.451749396639963496e+00 -8.223130650055169966e+00 4.200000000000000000e+02
-4.047943598160146372e-01 -7.272401902793909301e+00 4.200000000000000000e+02
6.421606770079337778e-01 -6.321673155532650412e+00 4.200000000000000000e+02
1.689115713831882637e+00 -5.370944408271389747e+00 4.200000000000000000e+02
2.736070750655831496e+00 -4.420215661010130859e+00 4.200000000000000000e+02
-3.545659470287861215e+00 -1.012458814457768952e+01 4.210000000000000000e+02
-2.498704433463911467e+00 -9.173859397316428854e+00 4.210000000000000000e+02
-1.451749396639963496e+00 -8.223130650055169966e+00 4.210000000000000000e+02
-4.047943598160146372e-01 -7.272401902793909301e+00 4.210000000000000000e+02
6.421606770079337778e-01 -6.321673155532650412e+00 4.210000000000000000e+02
1.689115713831882637e+00 -5.370944408271389747e+00 4.210000000000000000e+02
2.736070750655831496e+00 -4.420215661010130859e+00 4.210000000000000000e+02
-3.545659470287861215e+00 -1.012458814457768952e+01 4.220000000000000000e+02
-2.498704433463911467e+00 -9.173859397316428854e+00 4.220000000000000000e+02
-1.451749396639963496e+00 -8.223130650055169966e+00 4.220000000000000000e+02
-4.047943598160146372e-01 -7.272401902793909301e+00 4.220000000000000000e+02
6.421606770079337778e-01 -6.321673155532650412e+00 4.220000000000000000e+02
1.689115713831882637e+00 -5.370944408271389747e+00 4.220000000000000000e+02
2.736070750655831496e+00 -4.420215661010130859e+00 4.220000000000000000e+02
3.783025787479779911e+00 -3.469486913748870638e+00 4.220000000000000000e+02
-4.544501362330464644e+00 -1.007647499979634453e+01 4.230000000000000000e+02
-3.497546325506516229e+00 -9.125746252535083869e+00 4.230000000000000000e+02
-2.450591288682567370e+00 -8.175017505273824980e+00 4.230000000000000000e+02
-1.403636251858618511e+00 -7.224288758012565204e+00 4.230000000000000000e+02
-3.566812150346700960e-01 -6.273560010751305427e+00 4.230000000000000000e+02
6.902738217892783190e-01 -5.322831263490045650e+00 4.230000000000000000e+02
1.737228858613227178e+00 -4.372102516228785873e+00 4.230000000000000000e+02
2.784183895437175593e+00 -3.421373768967526097e+00 4.230000000000000000e+02
3.831138932261124452e+00 -2.470645021706266320e+00 4.230000000000000000e+02
-4.544501362330464644e+00 -1.007647499979634453e+01 4.240000000000000000e+02
-3.497546325506516229e+00 -9.125746252535083869e+00 4.240000000000000000e+02
-2.450591288682567370e+00 -8.175017505273824980e+00 4.240000000000000000e+02
-1.403636251858618511e+00 -7.224288758012565204e+00 4.240000000000000000e+02
-3.566812150346700960e-01 -6.273560010751305427e+00 4.240000000000000000e+02
6.902738217892783190e-01 -5.322831263490045650e+00 4.240000000000000000e+02
1.737228858613227178e+00 -4.372102516228785873e+00 4.240000000000000000e+02
2.784183895437175593e+00 -3.421373768967526097e+00 4.240000000000000000e+02
-4.544501362330464644e+00 -1.007647499979634453e+01 4.250000000000000000e+02
-3.497546325506516229e+00 -9.125746252535083869e+00 4.250000000000000000e+02
-2.450591288682567370e+00 -8.175017505273824980e+00 4.250000000000000000e+02
-1.403636251858618511e+00 -7.224288758012565204e+00 4.250000000000000000e+02
-3.566812150346700960e-01 -6.273560010751305427e+00 4.250000000000000000e+02
6.902738217892783190e-01 -5.322831263490045650e+00 4.250000000000000000e+02
1.737228858613227178e+00 -4.372102516228785873e+00 4.250000000000000000e+02
2.784183895437175593e+00 -3.421373768967526097e+00 4.250000000000000000e+02
-4.544501362330464644e+00 -1.007647499979634453e+01 4.260000000000000000e+02
-3.497546325506516229e+00 -9.125746252535083869e+00 4.260000000000000000e+02
-2.450591288682567370e+00 -8.175017505273824980e+00 4.260000000000000000e+02
-1.403636251858618511e+00 -7.224288758012565204e+00 4.260000000000000000e+02
-3.566812150346700960e-01 -6.273560010751305427e+00 4.260000000000000000e+02
6.902738217892783190e-01 -5.322831263490045650e+00 4.260000000000000000e+02
1.737228858613227178e+00 -4.372102516228785873e+00 4.260000000000000000e+02
2.784183895437175593e+00 -3.421373768967526097e+00 4.260000000000000000e+02
-4.544501362330464644e+00 -1.007647499979634453e+01 4.270000000000000000e+02
-3.497546325506516229e+00 -9.125746252535083869e+00 4.270000000000000000e+02
