8.542499907443586338e+00 -4.872432695344524944e+00 3.710000000000000000e+02
7.130464755856523951e+00 -4.793967858108350910e+00 3.710000000000000000e+02
5.718429604269460675e+00 -4.715503020872175988e+00 3.710000000000000000e+02
4.306394452682397400e+00 -4.637038183636001953e+00 3.710000000000000000e+02
2.894359301095334125e+00 -4.558573346399827031e+00 3.710000000000000000e+02
1.482324149508270850e+00 -4.480108509163652997e+00 3.710000000000000000e+02
7.028899792120757439e-02 -4.401643671927478074e+00 3.710000000000000000e+02
9.954535059030650501e+00 -4.950897532580700755e+00 3.720000000000000000e+02
8.542499907443586338e+00 -4.872432695344524944e+00 3.720000000000000000e+02
7.130464755856523951e+00 -4.793967858108350910e+00 3.720000000000000000e+02
5.718429604269460675e+00 -4.715503020872175988e+00 3.720000000000000000e+02
4.306394452682397400e+00 -4.637038183636001953e+00 3.720000000000000000e+02
2.894359301095334125e+00 -4.558573346399827031e+00 3.720000000000000000e+02
1.482324149508270850e+00 -4.480108509163652997e+00 3.720000000000000000e+02
7.028899792120757439e-02 -4.401643671927478074e+00 3.720000000000000000e+02
9.954535059030650501e+00 -4.950897532580700755e+00 3.730000000000000000e+02
8.542499907443586338e+00 -4.872432695344524944e+00 3.730000000000000000e+02
7.130464755856523951e+00 -4.793967858108350910e+00 3.730000000000000000e+02
5.718429604269460675e+00 -4.715503020872175988e+00 3.730000000000000000e+02
4.306394452682397400e+00 -4.637038183636001953e+00 3.730000000000000000e+02
2.894359301095334125e+00 -4.558573346399827031e+00 3.730000000000000000e+02
1.482324149508270850e+00 -4.480108509163652997e+00 3.730000000000000000e+02
7.028899792120757439e-02 -4.401643671927478074e+00 3.730000000000000000e+02
-1.341746153665855701e+00 -4.323178834691303152e+00 3.730000000000000000e+02
9.954535059030650501e+00 -4.950897532580700755e+00 3.740000000000000000e+02
8.542499907443586338e+00 -4.872432695344524944e+00 3.740000000000000000e+02
7.130464755856523951e+00 -4.793967858108350910e+00 3.740000000000000000e+02
5.718429604269460675e+00 -4.715503020872175988e+00 3.740000000000000000e+02
4.306394452682397400e+00 -4.637038183636001953e+00 3.740000000000000000e+02
2.894359301095334125e+00 -4.558573346399827031e+00 3.740000000000000000e+02
1.482324149508270850e+00 -4.480108509163652997e+00 3.740000000000000000e+02
7.028899792120757439e-02 -4.401643671927478074e+00 3.740000000000000000e+02
-1.341746153665855701e+00 -4.323178834691303152e+00 3.740000000000000000e+02
9.954535059030650501e+00 -4.950897532580700755e+00 3.750000000000000000e+02
8.542499907443586338e+00 -4.872432695344524944e+00 3.750000000000000000e+02
7.130464755856523951e+00 -4.793967858108350910e+00 3.750000000000000000e+02
5.718429604269460675e+00 -4.715503020872175988e+00 3.750000000000000000e+02
4.306394452682397400e+00 -4.637038183636001953e+00 3.750000000000000000e+02
2.894359301095334125e+00 -4.558573346399827031e+00 3.750000000000000000e+02
1.482324149508270850e+00 -4.480108509163652997e+00 3.750000000000000000e+02
7.028899792120757439e-02 -4.401643671927478074e+00 3.750000000000000000e+02
9.954535059030650501e+00 -4.950897532580700755e+00 3.760000000000000000e+02
8.542499907443586338e+00 -4.872432695344524944e+00 3.760000000000000000e+02
7.130464755856523951e+00 -4.793967858108350910e+00 3.760000000000000000e+02
5.718429604269460675e+00 -4.715503020872175988e+00 3.760000000000000000e+02
4.306394452682397400e+00 -4.637038183636001953e+00 3.760000000000000000e+02
2.894359301095334125e+00 -4.558573346399827031e+00 3.760000000000000000e+02
1.482324149508270850e+00 -4.480108509163652997e+00 3.760000000000000000e+02
7.028899792120757439e-02 -4.401643671927478074e+00 3.760000000000000000e+02
-1.341746153665855701e+00 -4.323178834691303152e+00 3.760000000000000000e+02
9.954535059030650501e+00 -4.950897532580700755e+00 3.770000000000000000e+02
8.542499907443586338e+00 -4.872432695344524944e+00 3.770000000000000000e+02
7.130464755856523951e+00 -4.793967858108350910e+00 3.770000000000000000e+02
5.718429604269460675e+00 -4.715503020872175988e+00 3.770000000000000000e+02
4.306394452682397400e+00 -4.637038183636001953e+00 3.770000000000000000e+02
2.894359301095334125e+00 -4.558573346399827031e+00 3.770000000000000000e+02
1.482324149508270850e+00 -4.480108509163652997e+00 3.770000000000000000e+02
7.028899792120757439e-02 -4.401643671927478074e+00 3.770000000000000000e+02
-1.341746153665855701e+00 -4.323178834691303152e+00 3.770000000000000000e+02
9.954535059030650501e+00 -4.950897532580700755e+00 3.780000000000000000e+02
8.542499907443586338e+00 -4.872432695344524944e+00 3.780000000000000000e+02
7.130464755856523951e+00 -4.793967858108350910e+00 3.780000000000000000e+02
5.718429604269460675e+00 -4.715503020872175988e+00 3.780000000000000000e+02
4.306394452682397400e+00 -4.637038183636001953e+00 3.780000000000000000e+02
2.894359301095334125e+00 -4.558573346399827031e+00 3.780000000000000000e+02
1.482324149508270850e+00 -4.480108509163652997e+00 3.780000000000000000e+02
7.028899792120757439e-02 -4.401643671927478074e+00 3.780000000000000000e+02
-1.341746153665855701e+00 -4.323178834691303152e+00 3.780000000000000000e+02
9.954535059030650501e+00 -4.950897532580700755e+00 3.790000000000000000e+02
8.542499907443586338e+00 -4.872432695344524944e+00 3.790000000000000000e+02
7.130464755856523951e+00 -4.793967858108350910e+00 3.790000000000000000e+02
5.718429604269460675e+00 -4.715503020872175988e+00 3.790000000000000000e+02
4.306394452682397400e+00 -4.637038183636001953e+00 3.790000000000000000e+02
2.894359301095334125e+00 -4.558573346399827031e+00 3.790000000000000000e+02
1.482324149508270850e+00 -4.480108509163652997e+00 3.790000000000000000e+02
7.028899792120757439e-02 -4.401643671927478074e+00 3.790000000000000000e+02
-1.341746153665855701e+00 -4.323178834691303152e+00 3.790000000000000000e+02
9.954535059030650501e+00 -4.950897532580700755e+00 3.800000000000000000e+02
8.542499907443586338e+00 -4.872432695344524944e+00 3.800000000000000000e+02
7.130464755856523951e+00 -4.793967858108350910e+00 3.800000000000000000e+02
5.718429604269460675e+00 -4.715503020872175988e+00 3.800000000000000000e+02
4.306394452682397400e+00 -4.637038183636001953e+00 3.800000000000000000e+02
2.894359301095334125e+00 -4.558573346399827031e+00 3.800000000000000000e+02
1.482324149508270850e+00 -4.480108509163652997e+00 3.800000000000000000e+02
7.028899792120757439e-02 -4.401643671927478074e+00 3.800000000000000000e+02
-1.341746153665855701e+00 -4.323178834691303152e+00 3.800000000000000000e+02
9.954535059030650501e+00 -4.950897532580700755e+00 3.810000000000000000e+02
8.542499907443586338e+00 -4.872432695344524944e+00 3.810000000000000000e+02
7.130464755856523951e+00 -4.793967858108350910e+00 3.810000000000000000e+02
5.718429604269460675e+00 -4.715503020872175988e+00 3.810000000000000000e+02
4.306394452682397400e+00 -4.637038183636001953e+00 3.810000000000000000e+02
2.894359301095334125e+00 -4.558573346399827031e+00 3.810000000000000000e+02
1.482324149508270850e+00 -4.480108509163652997e+00 3.810000000000000000e+02
7.028899792120757439e-02 -4.401643671927478074e+00 3.810000000000000000e+02
-1.341746153665855701e+00 -4.323178834691303152e+00 3.810000000000000000e+02
9.954535059030650501e+00 -4.950897532580700755e+00 3.820000000000000000e+02
8.542499907443586338e+00 -4.872432695344524944e+00 3.820000000000000000e+02
7.130464755856523951e+00 -4.793967858108350910e+00 3.820000000000000000e+02
5.718429604269460675e+00 -4.715503020872175988e+00 3.820000000000000000e+02
4.306394452682397400e+00 -4.637038183636001953e+00 3.820000000000000000e+02
2.894359301095334125e+00 -4.558573346399827031e+00 3.820000000000000000e+02
1.482324149508270850e+00 -4.480108509163652997e+00 3.820000000000000000e+02
7.028899792120757439e-02 -4.401643671927478074e+00 3.820000000000000000e+02
-1.341746153665855701e+00 -4.323178834691303152e+00 3.820000000000000000e+02
9.954535059030650501e+00 -4.950897532580700755e+00 3.830000000000000000e+02
8.542499907443586338e+00 -4.872432695344524944e+00 3.830000000000000000e+02
7.130464755856523951e+00 -4.793967858108350910e+00 3.830000000000000000e+02
5.718429604269460675e+00 -4.715503020872175988e+00 3.830000000000000000e+02
4.306394452682397400e+00 -4.637038183636001953e+00 3.830000000000000000e+02
2.894359301095334125e+00 -4.558573346399827031e+00 3.830000000000000000e+02
1.482324149508270850e+00 -4.480108509163652997e+00 3.830000000000000000e+02
7.028899792120757439e-02 -4.401643671927478074e+00 3.830000000000000000e+02
1.062132021620609379e+01 -5.696147526992318966e+00 3.840000000000000000e+02
9.209285064619031402e+00 -5.617682689756144043e+00 3.840000000000000000e+02
7.797249913031968127e+00 -5.539217852519970009e+00 3.840000000000000000e+02
6.385214761444904852e+00 -5.460753015283795087e+00 3.840000000000000000e+02
4.973179609857841577e+00 -5.382288178047621052e+00 3.840000000000000000e+02
3.561144458270778301e+00 -5.303823340811446130e+00 3.840000000000000000e+02
2.149109306683715026e+00 -5.225358503575271207e+00 3.840000000000000000e+02
7.370741550966517508e-01 -5.146893666339096285e+00 3.840000000000000000e+02
-6.749609964904106363e-01 -5.068428829102922251e+00 3.840000000000000000e+02
-2.086996148077474800e+00 -4.989963991866748216e+00 3.840000000000000000e+02
1.062132021620609379e+01 -5.696147526992318966e+00 3.850000000000000000e+02
9.209285064619031402e+00 -5.617682689756144043e+00 3.850000000000000000e+02
7.797249913031968127e+00 -5.539217852519970009e+00 3.850000000000000000e+02
6.385214761444904852e+00 -5.460753015283795087e+00 3.850000000000000000e+02
4.973179609857841577e+00 -5.382288178047621052e+00 3.850000000000000000e+02
3.561144458270778301e+00 -5.303823340811446130e+00 3.850000000000000000e+02
2.149109306683715026e+00 -5.225358503575271207e+00 3.850000000000000000e+02
7.370741550966517508e-01 -5.146893666339096285e+00 3.850000000000000000e+02
-6.749609964904106363e-01 -5.068428829102922251e+00 3.850000000000000000e+02
-2.086996148077474800e+00 -4.989963991866748216e+00 3.850000000000000000e+02
9.954535059030650501e+00 -4.950897532580700755e+00 3.860000000000000000e+02
8.542499907443586338e+00 -4.872432695344524944e+00 3.860000000000000000e+02
7.130464755856523951e+00 -4.793967858108350910e+00 3.860000000000000000e+02
5.718429604269460675e+00 -4.715503020872175988e+00 3.860000000000000000e+02
4.306394452682397400e+00 -4.637038183636001953e+00 3.860000000000000000e+02
2.894359301095334125e+00 -4.558573346399827031e+00 3.860000000000000000e+02
1.482324149508270850e+00 -4.480108509163652997e+00 3.860000000000000000e+02
7.028899792120757439e-02 -4.401643671927478074e+00 3.860000000000000000e+02
-1.341746153665855701e+00 -4.323178834691303152e+00 3.860000000000000000e+02
1.062132021620609379e+01 -5.696147526992318966e+00 3.870000000000000000e+02
9.209285064619031402e+00 -5.617682689756144043e+00 3.870000000000000000e+02
7.797249913031968127e+00 -5.539217852519970009e+00 3.870000000000000000e+02
6.385214761444904852e+00 -5.460753015283795087e+00 3.870000000000000000e+02
4.973179609857841577e+00 -5.382288178047621052e+00 3.870000000000000000e+02
3.561144458270778301e+00 -5.303823340811446130e+00 3.870000000000000000e+02
2.149109306683715026e+00 -5.225358503575271207e+00 3.870000000000000000e+02
7.370741550966517508e-01 -5.146893666339096285e+00 3.870000000000000000e+02
-6.749609964904106363e-01 -5.068428829102922251e+00 3.870000000000000000e+02
-2.086996148077474800e+00 -4.989963991866748216e+00 3.870000000000000000e+02
1.062132021620609379e+01 -5.696147526992318966e+00 3.880000000000000000e+02
9.209285064619031402e+00 -5.617682689756144043e+00 3.880000000000000000e+02
7.797249913031968127e+00 -5.539217852519970009e+00 3.880000000000000000e+02
6.385214761444904852e+00 -5.460753015283795087e+00 3.880000000000000000e+02
4.973179609857841577e+00 -5.382288178047621052e+00 3.880000000000000000e+02
3.561144458270778301e+00 -5.303823340811446130e+00 3.880000000000000000e+02
2.149109306683715026e+00 -5.225358503575271207e+00 3.880000000000000000e+02
7.370741550966517508e-01 -5.146893666339096285e+00 3.880000000000000000e+02
-6.749609964904106363e-01 -5.068428829102922251e+00 3.880000000000000000e+02
-2.086996148077474800e+00 -4.989963991866748216e+00 3.880000000000000000e+02
1.062132021620609379e+01 -5.696147526992318966e+00 3.890000000000000000e+02
9.209285064619031402e+00 -5.617682689756144043e+00 3.890000000000000000e+02
7.797249913031968127e+00 -5.539217852519970009e+00 3.890000000000000000e+02
6.385214761444904852e+00 -5.460753015283795087e+00 3.890000000000000000e+02
4.973179609857841577e+00 -5.382288178047621052e+00 3.890000000000000000e+02
3.561144458270778301e+00 -5.303823340811446130e+00 3.890000000000000000e+02
2.149109306683715026e+00 -5.225358503575271207e+00 3.890000000000000000e+02
7.370741550966517508e-01 -5.146893666339096285e+00 3.890000000000000000e+02
-6.749609964904106363e-01 -5.068428829102922251e+00 3.890000000000000000e+02
-2.086996148077474800e+00 -4.989963991866748216e+00 3.890000000000000000e+02
9.954535059030650501e+00 -4.950897532580700755e+00 3.900000000000000000e+02
8.542499907443586338e+00 -4.872432695344524944e+00 3.900000000000000000e+02
7.130464755856523951e+00 -4.793967858108350910e+00 3.900000000000000000e+02
5.718429604269460675e+00 -4.715503020872175988e+00 3.900000000000000000e+02
4.306394452682397400e+00 -4.637038183636001953e+00 3.900000000000000000e+02
2.894359301095334125e+00 -4.558573346399827031e+00 3.900000000000000000e+02
1.482324149508270850e+00 -4.480108509163652997e+00 3.900000000000000000e+02
7.028899792120757439e-02 -4.401643671927478074e+00 3.900000000000000000e+02
-1.341746153665855701e+00 -4.323178834691303152e+00 3.900000000000000000e+02
1.062132021620609379e+01 -5.696147526992318966e+00 3.910000000000000000e+02
9.209285064619031402e+00 -5.617682689756144043e+00 3.910000000000000000e+02
7.797249913031968127e+00 -5.539217852519970009e+00 3.910000000000000000e+02
6.385214761444904852e+00 -5.460753015283795087e+00 3.910000000000000000e+02
4.973179609857841577e+00 -5.382288178047621052e+00 3.910000000000000000e+02
3.561144458270778301e+00 -5.303823340811446130e+00 3.910000000000000000e+02
2.149109306683715026e+00 -5.225358503575271207e+00 3.910000000000000000e+02
7.370741550966517508e-01 -5.146893666339096285e+00 3.910000000000000000e+02
-6.749609964904106363e-01 -5.068428829102922251e+00 3.910000000000000000e+02
-2.086996148077474800e+00 -4.989963991866748216e+00 3.910000000000000000e+02
9.954535059030650501e+00 -4.950897532580700755e+00 3.920000000000000000e+02
8.542499907443586338e+00 -4.872432695344524944e+00 3.920000000000000000e+02
7.130464755856523951e+00 -4.793967858108350910e+00 3.920000000000000000e+02
5.718429604269460675e+00 -4.715503020872175988e+00 3.920000000000000000e+02
4.306394452682397400e+00 -4.637038183636001953e+00 3.920000000000000000e+02
2.894359301095334125e+00 -4.558573346399827031e+00 3.920000000000000000e+02
1.482324149508270850e+00 -4.480108509163652997e+00 3.920000000000000000e+02
7.028899792120757439e-02 -4.401643671927478074e+00 3.920000000000000000e+02
-1.341746153665855701e+00 -4.323178834691303152e+00 3.920000000000000000e+02
1.062132021620609379e+01 -5.696147526992318966e+00 3.930000000000000000e+02
9.209285064619031402e+00 -5.617682689756144043e+00 3.930000000000000000e+02
7.797249913031968127e+00 -5.539217852519970009e+00 3.930000000000000000e+02
6.385214761444904852e+00 -5.460753015283795087e+00 3.930000000000000000e+02
4.973179609857841577e+00 -5.382288178047621052e+00 3.930000000000000000e+02
3.561144458270778301e+00 -5.303823340811446130e+00 3.930000000000000000e+02
2.149109306683715026e+00 -5.225358503575271207e+00 3.930000000000000000e+02
7.370741550966517508e-01 -5.146893666339096285e+00 3.930000000000000000e+02
-6.749609964904106363e-01 -5.068428829102922251e+00 3.930000000000000000e+02
-2.086996148077474800e+00 -4.989963991866748216e+00 3.930000000000000000e+02
1.062132021620609379e+01 -5.696147526992318966e+00 3.940000000000000000e+02
9.209285064619031402e+00 -5.617682689756144043e+00 3.940000000000000000e+02
7.797249913031968127e+00 -5.539217852519970009e+00 3.940000000000000000e+02
6.385214761444904852e+00 -5.460753015283795087e+00 3.940000000000000000e+02
4.973179609857841577e+00 -5.382288178047621052e+00 3.940000000000000000e+02
3.561144458270778301e+00 -5.303823340811446130e+00 3.940000000000000000e+02
2.149109306683715026e+00 -5.225358503575271207e+00 3.940000000000000000e+02
7.370741550966517508e-01 -5.146893666339096285e+00 3.940000000000000000e+02
-6.749609964904106363e-01 -5.068428829102922251e+00 3.940000000000000000e+02
-2.086996148077474800e+00 -4.989963991866748216e+00 3.940000000000000000e+02
1.062132021620609379e+01 -5.696147526992318966e+00 3.950000000000000000e+02
9.209285064619031402e+00 -5.617682689756144043e+00 3.950000000000000000e+02
7.797249913031968127e+00 -5.539217852519970009e+00 3.950000000000000000e+02
6.385214761444904852e+00 -5.460753015283795087e+00 3.950000000000000000e+02
4.973179609857841577e+00 -5.382288178047621052e+00 3.950000000000000000e+02
3.561144458270778301e+00 -5.303823340811446130e+00 3.950000000000000000e+02
2.149109306683715026e+00 -5.225358503575271207e+00 3.950000000000000000e+02
7.370741550966517508e-01 -5.146893666339096285e+00 3.950000000000000000e+02
-6.749609964904106363e-01 -5.068428829102922251e+00 3.950000000000000000e+02
-2.086996148077474800e+00 -4.989963991866748216e+00 3.950000000000000000e+02
1.062132021620609379e+01 -5.696147526992318966e+00 3.960000000000000000e+02
9.209285064619031402e+00 -5.617682689756144043e+00 3.960000000000000000e+02
7.797249913031968127e+00 -5.539217852519970009e+00 3.960000000000000000e+02
6.385214761444904852e+00 -5.460753015283795087e+00 3.960000000000000000e+02
4.973179609857841577e+00 -5.382288178047621052e+00 3.960000000000000000e+02
3.561144458270778301e+00 -5.303823340811446130e+00 3.960000000000000000e+02
2.149109306683715026e+00 -5.225358503575271207e+00 3.960000000000000000e+02
7.370741550966517508e-01 -5.146893666339096285e+00 3.960000000000000000e+02
-6.749609964904106363e-01 -5.068428829102922251e+00 3.960000000000000000e+02
1.062132021620609379e+01 -5.696147526992318966e+00 3.970000000000000000e+02
9.209285064619031402e+00 -5.617682689756144043e+00 3.970000000000000000e+02
7.797249913031968127e+00 -5.539217852519970009e+00 3.970000000000000000e+02
6.385214761444904852e+00 -5.460753015283795087e+00 3.970000000000000000e+02
4.973179609857841577e+00 -5.382288178047621052e+00 3.970000000000000000e+02
3.561144458270778301e+00 -5.303823340811446130e+00 3.970000000000000000e+02
2.149109306683715026e+00 -5.225358503575271207e+00 3.970000000000000000e+02
7.370741550966517508e-01 -5.146893666339096285e+00 3.970000000000000000e+02
-6.749609964904106363e-01 -5.068428829102922251e+00 3.970000000000000000e+02
1.062132021620609379e+01 -5.696147526992318966e+00 3.980000000000000000e+02
9.209285064619031402e+00 -5.617682689756144043e+00 3.980000000000000000e+02
7.797249913031968127e+00 -5.539217852519970009e+00 3.980000000000000000e+02
6.385214761444904852e+00 -5.460753015283795087e+00 3.980000000000000000e+02
4.973179609857841577e+00 -5.382288178047621052e+00 3.980000000000000000e+02
3.561144458270778301e+00 -5.303823340811446130e+00 3.980000000000000000e+02
2.149109306683715026e+00 -5.225358503575271207e+00 3.980000000000000000e+02
7.370741550966517508e-01 -5.146893666339096285e+00 3.980000000000000000e+02
-6.749609964904106363e-01 -5.068428829102922251e+00 3.980000000000000000e+02
1.062132021620609379e+01 -5.696147526992318966e+00 3.990000000000000000e+02
9.209285064619031402e+00 -5.617682689756144043e+00 3.990000000000000000e+02
7.797249913031968127e+00 -5.539217852519970009e+00 3.990000000000000000e+02
6.385214761444904852e+00 -5.460753015283795087e+00 3.990000000000000000e+02
4.973179609857841577e+00 -5.382288178047621052e+00 3.990000000000000000e+02
3.561144458270778301e+00 -5.303823340811446130e+00 3.990000000000000000e+02
2.149109306683715026e+00 -5.225358503575271207e+00 3.990000000000000000e+02
7.370741550966517508e-01 -5.146893666339096285e+00 3.990000000000000000e+02
-6.749609964904106363e-01 -5.068428829102922251e+00 3.990000000000000000e+02
1.062132021620609379e+01 -5.696147526992318966e+00 4.000000000000000000e+02
9.209285064619031402e+00 -5.617682689756144043e+00 4.000000000000000000e+02
7.797249913031968127e+00 -5.539217852519970009e+00 4.000000000000000000e+02
6.385214761444904852e+00 -5.460753015283795087e+00 4.000000000000000000e+02
4.973179609857841577e+00 -5.382288178047621052e+00 4.000000000000000000e+02
3.561144458270778301e+00 -5.303823340811446130e+00 4.000000000000000000e+02
2.149109306683715026e+00 -5.225358503575271207e+00 4.000000000000000000e+02
7.370741550966517508e-01 -5.146893666339096285e+00 4.000000000000000000e+02
-6.749609964904106363e-01 -5.068428829102922251e+00 4.000000000000000000e+02
1.062132021620609379e+01 -5.696147526992318966e+00 4.010000000000000000e+02
9.209285064619031402e+00 -5.617682689756144043e+00 4.010000000000000000e+02
7.797249913031968127e+00 -5.539217852519970009e+00 4.010000000000000000e+02
6.385214761444904852e+00 -5.460753015283795087e+00 4.010000000000000000e+02
4.973179609857841577e+00 -5.382288178047621052e+00 4.010000000000000000e+02
3.561144458270778301e+00 -5.303823340811446130e+00 4.010000000000000000e+02
2.149109306683715026e+00 -5.225358503575271207e+00 4.010000000000000000e+02
7.370741550966517508e-01 -5.146893666339096285e+00 4.010000000000000000e+02
-6.749609964904106363e-01 -5.068428829102922251e+00 4.010000000000000000e+02
1.062132021620609379e+01 -5.696147526992318966e+00 4.020000000000000000e+02
9.209285064619031402e+00 -5.617682689756144043e+00 4.020000000000000000e+02
7.797249913031968127e+00 -5.539217852519970009e+00 4.020000000000000000e+02
6.385214761444904852e+00 -5.460753015283795087e+00 4.020000000000000000e+02
4.973179609857841577e+00 -5.382288178047621052e+00 4.020000000000000000e+02
3.561144458270778301e+00 -5.303823340811446130e+00 4.020000000000000000e+02
2.149109306683715026e+00 -5.225358503575271207e+00 4.020000000000000000e+02
7.370741550966517508e-01 -5.146893666339096285e+00 4.020000000000000000e+02
-6.749609964904106363e-01 -5.068428829102922251e+00 4.020000000000000000e+02
1.062132021620609379e+01 -5.696147526992318966e+00 4.030000000000000000e+02
9.209285064619031402e+00 -5.617682689756144043e+00 4.030000000000000000e+02
7.797249913031968127e+00 -5.539217852519970009e+00 4.030000000000000000e+02
6.385214761444904852e+00 -5.460753015283795087e+00 4.030000000000000000e+02
4.973179609857841577e+00 -5.382288178047621052e+00 4.030000000000000000e+02
3.561144458270778301e+00 -5.303823340811446130e+00 4.030000000000000000e+02
2.149109306683715026e+00 -5.225358503575271207e+00 4.030000000000000000e+02
7.370741550966517508e-01 -5.146893666339096285e+00 4.030000000000000000e+02
-6.749609964904106363e-01 -5.068428829102922251e+00 4.030000000000000000e+02
1.062132021620609379e+01 -5.696147526992318966e+00 4.040000000000000000e+02
9.209285064619031402e+00 -5.617682689756144043e+00 4.040000000000000000e+02
7.797249913031968127e+00 -5.539217852519970009e+00 4.040000000000000000e+02
6.385214761444904852e+00 -5.460753015283795087e+00 4.040000000000000000e+02
4.973179609857841577e+00 -5.382288178047621052e+00 4.040000000000000000e+02
3.561144458270778301e+00 -5.303823340811446130e+00 4.040000000000000000e+02
2.149109306683715026e+00 -5.225358503575271207e+00 4.040000000000000000e+02
7.370741550966517508e-01 -5.146893666339096285e+00 4.040000000000000000e+02
-6.749609964904106363e-01 -5.068428829102922251e+00 4.040000000000000000e+02
1.062132021620609379e+01 -5.696147526992318966e+00 4.050000000000000000e+02
9.209285064619031402e+00 -5.617682689756144043e+00 4.050000000000000000e+02
7.797249913031968127e+00 -5.539217852519970009e+00 4.050000000000000000e+02
6.385214761444904852e+00 -5.460753015283795087e+00 4.050000000000000000e+02
4.973179609857841577e+00 -5.382288178047621052e+00 4.050000000000000000e+02
3.561144458270778301e+00 -5.303823340811446130e+00 4.050000000000000000e+02
2.149109306683715026e+00 -5.225358503575271207e+00 4.050000000000000000e+02
7.370741550966517508e-01 -5.146893666339096285e+00 4.050000000000000000e+02
-6.749609964904106363e-01 -5.068428829102922251e+00 4.050000000000000000e+02
1.062132021620609379e+01 -5.696147526992318966e+00 4.060000000000000000e+02
9.209285064619031402e+00 -5.617682689756144043e+00 4.060000000000000000e+02
7.797249913031968127e+00 -5.539217852519970009e+00 4.060000000000000000e+02
6.385214761444904852e+00 -5.460753015283795087e+00 4.060000000000000000e+02
4.973179609857841577e+00 -5.382288178047621052e+00 4.060000000000000000e+02
3.561144458270778301e+00 -5.303823340811446130e+00 4.060000000000000000e+02
2.149109306683715026e+00 -5.225358503575271207e+00 4.060000000000000000e+02
7.370741550966517508e-01 -5.146893666339096285e+00 4.060000000000000000e+02
-6.749609964904106363e-01 -5.068428829102922251e+00 4.060000000000000000e+02
1.128810537338153885e+01 -6.441397521403938065e+00 4.070000000000000000e+02
9.876070221794474691e+00 -6.362932684167763142e+00 4.070000000000000000e+02
8.464035070207412303e+00 -6.284467846931589108e+00 4.070000000000000000e+02
7.051999918620349028e+00 -6.206003009695414185e+00 4.070000000000000000e+02
5.639964767033285753e+00 -6.127538172459239263e+00 4.070000000000000000e+02
4.227929615446222478e+00 -6.049073335223065229e+00 4.070000000000000000e+02
2.815894463859159202e+00 -5.970608497986890306e+00 4.070000000000000000e+02
1.403859312272096371e+00 -5.892143660750715384e+00 4.070000000000000000e+02
-8.175839314967348059e-03 -5.813678823514541349e+00 4.070000000000000000e+02
-1.420210990902029735e+00 -5.735213986278366427e+00 4.070000000000000000e+02
1.128810537338153885e+01 -6.441397521403938065e+00 4.080000000000000000e+02
9.876070221794474691e+00 -6.362932684167763142e+00 4.080000000000000000e+02
8.464035070207412303e+00 -6.284467846931589108e+00 4.080000000000000000e+02
7.051999918620349028e+00 -6.206003009695414185e+00 4.080000000000000000e+02
5.639964767033285753e+00 -6.127538172459239263e+00 4.080000000000000000e+02
4.227929615446222478e+00 -6.049073335223065229e+00 4.080000000000000000e+02
2.815894463859159202e+00 -5.970608497986890306e+00 4.080000000000000000e+02
1.403859312272096371e+00 -5.892143660750715384e+00 4.080000000000000000e+02
-8.175839314967348059e-03 -5.813678823514541349e+00 4.080000000000000000e+02
-1.420210990902029735e+00 -5.735213986278366427e+00 4.080000000000000000e+02
1.128810537338153885e+01 -6.441397521403938065e+00 4.090000000000000000e+02
9.876070221794474691e+00 -6.362932684167763142e+00 4.090000000000000000e+02
8.464035070207412303e+00 -6.284467846931589108e+00 4.090000000000000000e+02
7.051999918620349028e+00 -6.206003009695414185e+00 4.090000000000000000e+02
5.639964767033285753e+00 -6.127538172459239263e+00 4.090000000000000000e+02
4.227929615446222478e+00 -6.049073335223065229e+00 4.090000000000000000e+02
2.815894463859159202e+00 -5.970608497986890306e+00 4.090000000000000000e+02
1.403859312272096371e+00 -5.892143660750715384e+00 4.090000000000000000e+02
-8.175839314967348059e-03 -5.813678823514541349e+00 4.090000000000000000e+02
-1.420210990902029735e+00 -5.735213986278366427e+00 4.090000000000000000e+02
1.128810537338153885e+01 -6.441397521403938065e+00 4.100000000000000000e+02
9.876070221794474691e+00 -6.362932684167763142e+00 4.100000000000000000e+02
8.464035070207412303e+00 -6.284467846931589108e+00 4.100000000000000000e+02
7.051999918620349028e+00 -6.206003009695414185e+00 4.100000000000000000e+02
5.639964767033285753e+00 -6.127538172459239263e+00 4.100000000000000000e+02
4.227929615446222478e+00 -6.049073335223065229e+00 4.100000000000000000e+02
2.815894463859159202e+00 -5.970608497986890306e+00 4.100000000000000000e+02
1.403859312272096371e+00 -5.892143660750715384e+00 4.100000000000000000e+02
-8.175839314967348059e-03 -5.813678823514541349e+00 4.100000000000000000e+02
-1.420210990902029735e+00 -5.735213986278366427e+00 4.100000000000000000e+02
1.128810537338153885e+01 -6.441397521403938065e+00 4.110000000000000000e+02
9.876070221794474691e+00 -6.362932684167763142e+00 4.110000000000000000e+02
8.464035070207412303e+00 -6.284467846931589108e+00 4.110000000000000000e+02
7.051999918620349028e+00 -6.206003009695414185e+00 4.110000000000000000e+02
5.639964767033285753e+00 -6.127538172459239263e+00 4.110000000000000000e+02
4.227929615446222478e+00 -6.049073335223065229e+00 4.110000000000000000e+02
2.815894463859159202e+00 -5.970608497986890306e+00 4.110000000000000000e+02
1.403859312272096371e+00 -5.892143660750715384e+00 4.110000000000000000e+02
-8.175839314967348059e-03 -5.813678823514541349e+00 4.110000000000000000e+02
1.128810537338153885e+01 -6.441397521403938065e+00 4.120000000000000000e+02
9.876070221794474691e+00 -6.362932684167763142e+00 4.120000000000000000e+02
8.464035070207412303e+00 -6.284467846931589108e+00 4.120000000000000000e+02
7.051999918620349028e+00 -6.206003009695414185e+00 4.120000000000000000e+02
5.639964767033285753e+00 -6.127538172459239263e+00 4.120000000000000000e+02
4.227929615446222478e+00 -6.049073335223065229e+00 4.120000000000000000e+02
2.815894463859159202e+00 -5.970608497986890306e+00 4.120000000000000000e+02
1.403859312272096371e+00 -5.892143660750715384e+00 4.120000000000000000e+02
-8.175839314967348059e-03 -5.813678823514541349e+00 4.120000000000000000e+02
1.128810537338153885e+01 -6.441397521403938065e+00 4.130000000000000000e+02
9.876070221794474691e+00 -6.362932684167763142e+00 4.130000000000000000e+02
8.464035070207412303e+00 -6.284467846931589108e+00 4.130000000000000000e+02
7.051999918620349028e+00 -6.206003009695414185e+00 4.130000000000000000e+02
5.639964767033285753e+00 -6.127538172459239263e+00 4.130000000000000000e+02
4.227929615446222478e+00 -6.049073335223065229e+00 4.130000000000000000e+02
2.815894463859159202e+00 -5.970608497986890306e+00 4.130000000000000000e+02
1.403859312272096371e+00 -5.892143660750715384e+00 4.130000000000000000e+02
-8.175839314967348059e-03 -5.813678823514541349e+00 4.130000000000000000e+02
1.128810537338153885e+01 -6.441397521403938065e+00 4.140000000000000000e+02
9.876070221794474691e+00 -6.362932684167763142e+00 4.140000000000000000e+02
8.464035070207412303e+00 -6.284467846931589108e+00 4.140000000000000000e+02
7.051999918620349028e+00 -6.206003009695414185e+00 4.140000000000000000e+02
5.639964767033285753e+00 -6.127538172459239263e+00 4.140000000000000000e+02
4.227929615446222478e+00 -6.049073335223065229e+00 4.140000000000000000e+02
2.815894463859159202e+00 -5.970608497986890306e+00 4.140000000000000000e+02
1.403859312272096371e+00 -5.892143660750715384e+00 4.140000000000000000e+02
-8.175839314967348059e-03 -5.813678823514541349e+00 4.140000000000000000e+02
1.128810537338153885e+01 -6.441397521403938065e+00 4.150000000000000000e+02
9.876070221794474691e+00 -6.362932684167763142e+00 4.150000000000000000e+02
8.464035070207412303e+00 -6.284467846931589108e+00 4.150000000000000000e+02
7.051999918620349028e+00 -6.206003009695414185e+00 4.150000000000000000e+02
5.639964767033285753e+00 -6.127538172459239263e+00 4.150000000000000000e+02
4.227929615446222478e+00 -6.049073335223065229e+00 4.150000000000000000e+02
2.815894463859159202e+00 -5.970608497986890306e+00 4.150000000000000000e+02
1.403859312272096371e+00 -5.892143660750715384e+00 4.150000000000000000e+02
-8.175839314967348059e-03 -5.813678823514541349e+00 4.150000000000000000e+02
1.128810537338153885e+01 -6.441397521403938065e+00 4.160000000000000000e+02
9.876070221794474691e+00 -6.362932684167763142e+00 4.160000000000000000e+02
8.464035070207412303e+00 -6.284467846931589108e+00 4.160000000000000000e+02
7.051999918620349028e+00 -6.206003009695414185e+00 4.160000000000000000e+02
5.639964767033285753e+00 -6.127538172459239263e+00 4.160000000000000000e+02
4.227929615446222478e+00 -6.049073335223065229e+00 4.160000000000000000e+02
2.815894463859159202e+00 -5.970608497986890306e+00 4.160000000000000000e+02
1.403859312272096371e+00 -5.892143660750715384e+00 4.160000000000000000e+02
-8.175839314967348059e-03 -5.813678823514541349e+00 4.160000000000000000e+02
1.128810537338153885e+01 -6.441397521403938065e+00 4.170000000000000000e+02
9.876070221794474691e+00 -6.362932684167763142e+00 4.170000000000000000e+02
8.464035070207412303e+00 -6.284467846931589108e+00 4.170000000000000000e+02
7.051999918620349028e+00 -6.206003009695414185e+00 4.170000000000000000e+02
5.639964767033285753e+00 -6.127538172459239263e+00 4.170000000000000000e+02
4.227929615446222478e+00 -6.049073335223065229e+00 4.170000000000000000e+02
2.815894463859159202e+00 -5.970608497986890306e+00 4.170000000000000000e+02
1.403859312272096371e+00 -5.892143660750715384e+00 4.170000000000000000e+02
-8.175839314967348059e-03 -5.813678823514541349e+00 4.170000000000000000e+02
1.128810537338153885e+01 -6.441397521403938065e+00 4.180000000000000000e+02
9.876070221794474691e+00 -6.362932684167763142e+00 4.180000000000000000e+02
8.464035070207412303e+00 -6.284467846931589108e+00 4.180000000000000000e+02
7.051999918620349028e+00 -6.206003009695414185e+00 4.180000000000000000e+02
5.639964767033285753e+00 -6.127538172459239263e+00 4.180000000000000000e+02
4.227929615446222478e+00 -6.049073335223065229e+00 4.180000000000000000e+02
2.815894463859159202e+00 -5.970608497986890306e+00 4.180000000000000000e+02
1.403859312272096371e+00 -5.892143660750715384e+00 4.180000000000000000e+02
-8.175839314967348059e-03 -5.813678823514541349e+00 4.180000000000000000e+02
1.128810537338153885e+01 -6.441397521403938065e+00 4.190000000000000000e+02
9.876070221794474691e+00 -6.362932684167763142e+00 4.190000000000000000e+02
8.464035070207412303e+00 -6.284467846931589108e+00 4.190000000000000000e+02
7.051999918620349028e+00 -6.206003009695414185e+00 4.190000000000000000e+02
5.639964767033285753e+00 -6.127538172459239263e+00 4.190000000000000000e+02
4.227929615446222478e+00 -6.049073335223065229e+00 4.190000000000000000e+02
2.815894463859159202e+00 -5.970608497986890306e+00 4.190000000000000000e+02
1.403859312272096371e+00 -5.892143660750715384e+00 4.190000000000000000e+02
-8.175839314967348059e-03 -5.813678823514541349e+00 4.190000000000000000e+02
1.195489053055698392e+01 -7.186647515815557163e+00 4.200000000000000000e+02
1.054285537896991976e+01 -7.108182678579382241e+00 4.200000000000000000e+02
9.130820227382855592e+00 -7.029717841343207319e+00 4.200000000000000000e+02
7.718785075795793205e+00 -6.951253004107033284e+00 4.200000000000000000e+02
6.306749924208729929e+00 -6.872788166870858362e+00 4.200000000000000000e+02
4.894714772621666654e+00 -6.794323329634683439e+00 4.200000000000000000e+02
3.482679621034603823e+00 -6.715858492398509405e+00 4.200000000000000000e+02
2.070644469447540548e+00 -6.637393655162334483e+00 4.200000000000000000e+02
6.586093178604777165e-01 -6.558928817926160448e+00 4.200000000000000000e+02
-7.534258337265864469e-01 -6.480463980689985526e+00 4.200000000000000000e+02
1.195489053055698392e+01 -7.186647515815557163e+00 4.210000000000000000e+02
1.054285537896991976e+01 -7.108182678579382241e+00 4.210000000000000000e+02
9.130820227382855592e+00 -7.029717841343207319e+00 4.210000000000000000e+02
7.718785075795793205e+00 -6.951253004107033284e+00 4.210000000000000000e+02
6.306749924208729929e+00 -6.872788166870858362e+00 4.210000000000000000e+02
4.894714772621666654e+00 -6.794323329634683439e+00 4.210000000000000000e+02
3.482679621034603823e+00 -6.715858492398509405e+00 4.210000000000000000e+02
2.070644469447540548e+00 -6.637393655162334483e+00 4.210000000000000000e+02
6.586093178604777165e-01 -6.558928817926160448e+00 4.210000000000000000e+02
-7.534258337265864469e-01 -6.480463980689985526e+00 4.210000000000000000e+02
1.195489053055698392e+01 -7.186647515815557163e+00 4.220000000000000000e+02
1.054285537896991976e+01 -7.108182678579382241e+00 4.220000000000000000e+02
9.130820227382855592e+00 -7.029717841343207319e+00 4.220000000000000000e+02
7.718785075795793205e+00 -6.951253004107033284e+00 4.220000000000000000e+02
6.306749924208729929e+00 -6.872788166870858362e+00 4.220000000000000000e+02
4.894714772621666654e+00 -6.794323329634683439e+00 4.220000000000000000e+02
3.482679621034603823e+00 -6.715858492398509405e+00 4.220000000000000000e+02
2.070644469447540548e+00 -6.637393655162334483e+00 4.220000000000000000e+02
6.586093178604777165e-01 -6.558928817926160448e+00 4.220000000000000000e+02
-7.534258337265864469e-01 -6.480463980689985526e+00 4.220000000000000000e+02
1.195489053055698392e+01 -7.186647515815557163e+00 4.230000000000000000e+02
1.054285537896991976e+01 -7.108182678579382241e+00 4.230000000000000000e+02
9.130820227382855592e+00 -7.029717841343207319e+00 4.230000000000000000e+02
7.718785075795793205e+00 -6.951253004107033284e+00 4.230000000000000000e+02
6.306749924208729929e+00 -6.872788166870858362e+00 4.230000000000000000e+02
4.894714772621666654e+00 -6.794323329634683439e+00 4.230000000000000000e+02
3.482679621034603823e+00 -6.715858492398509405e+00 4.230000000000000000e+02
2.070644469447540548e+00 -6.637393655162334483e+00 4.230000000000000000e+02
6.586093178604777165e-01 -6.558928817926160448e+00 4.230000000000000000e+02
-7.534258337265864469e-01 -6.480463980689985526e+00 4.230000000000000000e+02
1.195489053055698392e+01 -7.186647515815557163e+00 4.240000000000000000e+02
1.054285537896991976e+01 -7.108182678579382241e+00 4.240000000000000000e+02
9.130820227382855592e+00 -7.029717841343207319e+00 4.240000000000000000e+02
7.718785075795793205e+00 -6.951253004107033284e+00 4.240000000000000000e+02
6.306749924208729929e+00 -6.872788166870858362e+00 4.240000000000000000e+02
4.894714772621666654e+00 -6.794323329634683439e+00 4.240000000000000000e+02
3.482679621034603823e+00 -6.715858492398509405e+00 4.240000000000000000e+02
2.070644469447540548e+00 -6.637393655162334483e+00 4.240000000000000000e+02
6.586093178604777165e-01 -6.558928817926160448e+00 4.240000000000000000e+02
-7.534258337265864469e-01 -6.480463980689985526e+00 4.240000000000000000e+02
1.195489053055698392e+01 -7.186647515815557163e+00 4.250000000000000000e+02
1.054285537896991976e+01 -7.108182678579382241e+00 4.250000000000000000e+02
9.130820227382855592e+00 -7.029717841343207319e+00 4.250000000000000000e+02
7.718785075795793205e+00 -6.951253004107033284e+00 4.250000000000000000e+02
6.306749924208729929e+00 -6.872788166870858362e+00 4.250000000000000000e+02
4.894714772621666654e+00 -6.794323329634683439e+00 4.250000000000000000e+02
3.482679621034603823e+00 -6.715858492398509405e+00 4.250000000000000000e+02
2.070644469447540548e+00 -6.637393655162334483e+00 4.250000000000000000e+02
6.586093178604777165e-01 -6.558928817926160448e+00 4.250000000000000000e+02
-7.534258337265864469e-01 -6.480463980689985526e+00 4.250000000000000000e+02
1.195489053055698392e+01 -7.186647515815557163e+00 4.260000000000000000e+02
1.054285537896991976e+01 -7.108182678579382241e+00 4.260000000000000000e+02
9.130820227382855592e+00 -7.029717841343207319e+00 4.260000000000000000e+02
7.718785075795793205e+00 -6.951253004107033284e+00 4.260000000000000000e+02
6.306749924208729929e+00 -6.872788166870858362e+00 4.260000000000000000e+02
4.894714772621666654e+00 -6.794323329634683439e+00 4.260000000000000000e+02
3.482679621034603823e+00 -6.715858492398509405e+00 4.260000000000000000e+02
2.070644469447540548e+00 -6.637393655162334483e+00 4.260000000000000000e+02
6.586093178604777165e-01 -6.558928817926160448e+00 4.260000000000000000e+02
-7.534258337265864469e-01 -6.480463980689985526e+00 4.260000000000000000e+02
1.195489053055698392e+01 -7.186647515815557163e+00 4.270000000000000000e+02
1.054285537896991976e+01 -7.108182678579382241e+00 4.270000000000000000e+02
9.130820227382855592e+00 -7.029717841343207319e+00 4.270000000000000000e+02
7.718785075795793205e+00 -6.951253004107033284e+00 4.270000000000000000e+02
6.306749924208729929e+00 -6.872788166870858362e+00 4.270000000000000000e+02
4.894714772621666654e+00 -6.794323329634683439e+00 4.270000000000000000e+02
3.482679621034603823e+00 -6.715858492398509405e+00 4.270000000000000000e+02
2.070644469447540548e+00 -6.637393655162334483e+00 4.270000000000000000e+02
6.586093178604777165e-01 -6.558928817926160448e+00 4.270000000000000000e+02
1.195489053055698392e+01 -7.186647515815557163e+00 4.280000000000000000e+02
1.054285537896991976e+01 -7.108182678579382241e+00 4.280000000000000000e+02
9.130820227382855592e+00 -7.029717841343207319e+00 4.280000000000000000e+02
7.718785075795793205e+00 -6.951253004107033284e+00 4.280000000000000000e+02
6.306749924208729929e+00 -6.872788166870858362e+00 4.280000000000000000e+02
4.894714772621666654e+00 -6.794323329634683439e+00 4.280000000000000000e+02
3.482679621034603823e+00 -6.715858492398509405e+00 4.280000000000000000e+02
2.070644469447540548e+00 -6.637393655162334483e+00 4.280000000000000000e+02
6.586093178604777165e-01 -6.558928817926160448e+00 4.280000000000000000e+02
1.195489053055698392e+01 -7.186647515815557163e+00 4.290000000000000000e+02
1.054285537896991976e+01 -7.108182678579382241e+00 4.290000000000000000e+02
9.130820227382855592e+00 -7.029717841343207319e+00 4.290000000000000000e+02
7.718785075795793205e+00 -6.951253004107033284e+00 4.290000000000000000e+02
6.306749924208729929e+00 -6.872788166870858362e+00 4.290000000000000000e+02
4.894714772621666654e+00 -6.794323329634683439e+00 4.290000000000000000e+02
3.482679621034603823e+00 -6.715858492398509405e+00 4.290000000000000000e+02
2.070644469447540548e+00 -6.637393655162334483e+00 4.290000000000000000e+02
6.586093178604777165e-01 -6.558928817926160448e+00 4.290000000000000000e+02
1.195489053055698392e+01 -7.186647515815557163e+00 4.300000000000000000e+02
1.054285537896991976e+01 -7.108182678579382241e+00 4.300000000000000000e+02
9.130820227382855592e+00 -7.029717841343207319e+00 4.300000000000000000e+02
7.718785075795793205e+00 -6.951253004107033284e+00 4.300000000000000000e+02
6.306749924208729929e+00 -6.872788166870858362e+00 4.300000000000000000e+02
4.894714772621666654e+00 -6.794323329634683439e+00 4.300000000000000000e+02
3.482679621034603823e+00 -6.715858492398509405e+00 4.300000000000000000e+02
2.070644469447540548e+00 -6.637393655162334483e+00 4.300000000000000000e+02
6.586093178604777165e-01 -6.558928817926160448e+00 4.300000000000000000e+02
-7.534258337265864469e-01 -6.480463980689985526e+00 4.300000000000000000e+02
1.262167568773242721e+01 -7.931897510227175374e+00 4.310000000000000000e+02
1.120964053614536482e+01 -7.853432672991001340e+00 4.310000000000000000e+02
9.797605384558300656e+00 -7.774967835754826417e+00 4.310000000000000000e+02
8.385570232971236493e+00 -7.696502998518651495e+00 4.310000000000000000e+02
6.973535081384174106e+00 -7.618038161282477461e+00 4.310000000000000000e+02
5.561499929797111719e+00 -7.539573324046302538e+00 4.310000000000000000e+02
4.149464778210048443e+00 -7.461108486810127616e+00 4.310000000000000000e+02
2.737429626622985168e+00 -7.382643649573953581e+00 4.310000000000000000e+02
1.325394475035921893e+00 -7.304178812337779547e+00 4.310000000000000000e+02
-8.664067655114138233e-02 -7.225713975101603737e+00 4.310000000000000000e+02
-1.498675828138205546e+00 -7.147249137865429702e+00 4.310000000000000000e+02
1.262167568773242721e+01 -7.931897510227175374e+00 4.320000000000000000e+02
1.120964053614536482e+01 -7.853432672991001340e+00 4.320000000000000000e+02
9.797605384558300656e+00 -7.774967835754826417e+00 4.320000000000000000e+02
8.385570232971236493e+00 -7.696502998518651495e+00 4.320000000000000000e+02
6.973535081384174106e+00 -7.618038161282477461e+00 4.320000000000000000e+02
5.561499929797111719e+00 -7.539573324046302538e+00 4.320000000000000000e+02
4.149464778210048443e+00 -7.461108486810127616e+00 4.320000000000000000e+02
2.737429626622985168e+00 -7.382643649573953581e+00 4.320000000000000000e+02
1.325394475035921893e+00 -7.304178812337779547e+00 4.320000000000000000e+02
-8.664067655114138233e-02 -7.225713975101603737e+00 4.320000000000000000e+02
1.262167568773242721e+01 -7.931897510227175374e+00 4.330000000000000000e+02
1.120964053614536482e+01 -7.853432672991001340e+00 4.330000000000000000e+02
9.797605384558300656e+00 -7.774967835754826417e+00 4.330000000000000000e+02
8.385570232971236493e+00 -7.696502998518651495e+00 4.330000000000000000e+02
6.973535081384174106e+00 -7.618038161282477461e+00 4.330000000000000000e+02
5.561499929797111719e+00 -7.539573324046302538e+00 4.330000000000000000e+02
4.149464778210048443e+00 -7.461108486810127616e+00 4.330000000000000000e+02
2.737429626622985168e+00 -7.382643649573953581e+00 4.330000000000000000e+02
1.325394475035921893e+00 -7.304178812337779547e+00 4.330000000000000000e+02
-8.664067655114138233e-02 -7.225713975101603737e+00 4.330000000000000000e+02
1.328846084490787227e+01 -8.677147504638796249e+00 4.340000000000000000e+02
1.187642569332080811e+01 -8.598682667402620439e+00 4.340000000000000000e+02
1.046439054173374572e+01 -8.520217830166444628e+00 4.340000000000000000e+02
9.052355390146681557e+00 -8.441752992930270594e+00 4.340000000000000000e+02
7.640320238559619170e+00 -8.363288155694096560e+00 4.340000000000000000e+02
6.228285086972555895e+00 -8.284823318457920749e+00 4.340000000000000000e+02
4.816249935385492620e+00 -8.206358481221746715e+00 4.340000000000000000e+02
3.404214783798429345e+00 -8.127893643985572680e+00 4.340000000000000000e+02
1.992179632211366069e+00 -8.049428806749396870e+00 4.340000000000000000e+02
5.801444806243027941e-01 -7.970963969513222835e+00 4.340000000000000000e+02
-8.318906709627604812e-01 -7.892499132277048801e+00 4.340000000000000000e+02
1.328846084490787227e+01 -8.677147504638796249e+00 4.350000000000000000e+02
1.187642569332080811e+01 -8.598682667402620439e+00 4.350000000000000000e+02
1.046439054173374572e+01 -8.520217830166444628e+00 4.350000000000000000e+02
9.052355390146681557e+00 -8.441752992930270594e+00 4.350000000000000000e+02
7.640320238559619170e+00 -8.363288155694096560e+00 4.350000000000000000e+02
6.228285086972555895e+00 -8.284823318457920749e+00 4.350000000000000000e+02
4.816249935385492620e+00 -8.206358481221746715e+00 4.350000000000000000e+02
3.404214783798429345e+00 -8.127893643985572680e+00 4.350000000000000000e+02
1.992179632211366069e+00 -8.049428806749396870e+00 4.350000000000000000e+02
5.801444806243027941e-01 -7.970963969513222835e+00 4.350000000000000000e+02
-8.318906709627604812e-01 -7.892499132277048801e+00 4.350000000000000000e+02
1.328846084490787227e+01 -8.677147504638796249e+00 4.360000000000000000e+02
1.187642569332080811e+01 -8.598682667402620439e+00 4.360000000000000000e+02
1.046439054173374572e+01 -8.520217830166444628e+00 4.360000000000000000e+02
9.052355390146681557e+00 -8.441752992930270594e+00 4.360000000000000000e+02
7.640320238559619170e+00 -8.363288155694096560e+00 4.360000000000000000e+02
6.228285086972555895e+00 -8.284823318457920749e+00 4.360000000000000000e+02
4.816249935385492620e+00 -8.206358481221746715e+00 4.360000000000000000e+02
3.404214783798429345e+00 -8.127893643985572680e+00 4.360000000000000000e+02
1.992179632211366069e+00 -8.049428806749396870e+00 4.360000000000000000e+02
5.801444806243027941e-01 -7.970963969513222835e+00 4.360000000000000000e+02
-8.318906709627604812e-01 -7.892499132277048801e+00 4.360000000000000000e+02
1.395524600208331734e+01 -9.422397499050415348e+00 4.370000000000000000e+02
1.254321085049625317e+01 -9.343932661814239538e+00 4.370000000000000000e+02
1.113117569890918901e+01 -9.265467824578063727e+00 4.370000000000000000e+02
9.719140547322126622e+00 -9.187002987341889693e+00 4.370000000000000000e+02
8.307105395735062459e+00 -9.108538150105715658e+00 4.370000000000000000e+02
6.895070244148000072e+00 -9.030073312869539848e+00 4.370000000000000000e+02
5.483035092560936796e+00 -8.951608475633365813e+00 4.370000000000000000e+02
4.070999940973873521e+00 -8.873143638397191779e+00 4.370000000000000000e+02
2.658964789386810246e+00 -8.794678801161015969e+00 4.370000000000000000e+02
1.246929637799746970e+00 -8.716213963924841934e+00 4.370000000000000000e+02
