5.551864449625911746e-01 -5.442704441962305850e+00 2.970000000000000000e+02
1.705600270244123084e+00 -4.620179043812733255e+00 2.970000000000000000e+02
2.856014095525654994e+00 -3.797653645663161104e+00 2.970000000000000000e+02
4.006427920807187348e+00 -2.975128247513588509e+00 2.970000000000000000e+02
5.156841746088718814e+00 -2.152602849364015913e+00 2.970000000000000000e+02
-1.909585419166452525e+00 -8.074224849977003515e+00 2.980000000000000000e+02
-7.591715938849201706e-01 -7.251699451827430920e+00 2.980000000000000000e+02
3.912422313966117393e-01 -6.429174053677858325e+00 2.980000000000000000e+02
1.541656056678143205e+00 -5.606648655528285730e+00 2.980000000000000000e+02
2.692069881959675115e+00 -4.784123257378713134e+00 2.980000000000000000e+02
3.842483707241207469e+00 -3.961597859229140539e+00 2.980000000000000000e+02
4.992897532522739823e+00 -3.139072461079567944e+00 2.980000000000000000e+02
-1.909585419166452525e+00 -8.074224849977003515e+00 2.990000000000000000e+02
-7.591715938849201706e-01 -7.251699451827430920e+00 2.990000000000000000e+02
3.912422313966117393e-01 -6.429174053677858325e+00 2.990000000000000000e+02
1.541656056678143205e+00 -5.606648655528285730e+00 2.990000000000000000e+02
2.692069881959675115e+00 -4.784123257378713134e+00 2.990000000000000000e+02
3.842483707241207469e+00 -3.961597859229140539e+00 2.990000000000000000e+02
-9.231158074509000500e-01 -8.238169063542983395e+00 3.000000000000000000e+02
2.272980178306318599e-01 -7.415643665393410799e+00 3.000000000000000000e+02
1.377711843112163770e+00 -6.593118267243838204e+00 3.000000000000000000e+02
2.528125668393695680e+00 -5.770592869094265609e+00 3.000000000000000000e+02
3.678539493675227590e+00 -4.948067470944693014e+00 3.000000000000000000e+02
-9.231158074509000500e-01 -8.238169063542983395e+00 3.010000000000000000e+02
2.272980178306318599e-01 -7.415643665393410799e+00 3.010000000000000000e+02
1.377711843112163770e+00 -6.593118267243838204e+00 3.010000000000000000e+02
2.528125668393695680e+00 -5.770592869094265609e+00 3.010000000000000000e+02
3.678539493675227590e+00 -4.948067470944693014e+00 3.010000000000000000e+02
4.828953318956759944e+00 -4.125542072795120419e+00 3.010000000000000000e+02
-9.231158074509000500e-01 -8.238169063542983395e+00 3.020000000000000000e+02
2.272980178306318599e-01 -7.415643665393410799e+00 3.020000000000000000e+02
1.377711843112163770e+00 -6.593118267243838204e+00 3.020000000000000000e+02
2.528125668393695680e+00 -5.770592869094265609e+00 3.020000000000000000e+02
3.678539493675227590e+00 -4.948067470944693014e+00 3.020000000000000000e+02
4.828953318956759944e+00 -4.125542072795120419e+00 3.020000000000000000e+02
5.979367144238291409e+00 -3.303016674645547823e+00 3.020000000000000000e+02
7.129780969519823763e+00 -2.480491276495975228e+00 3.020000000000000000e+02
-9.231158074509000500e-01 -8.238169063542983395e+00 3.030000000000000000e+02
2.272980178306318599e-01 -7.415643665393410799e+00 3.030000000000000000e+02
1.377711843112163770e+00 -6.593118267243838204e+00 3.030000000000000000e+02
2.528125668393695680e+00 -5.770592869094265609e+00 3.030000000000000000e+02
3.678539493675227590e+00 -4.948067470944693014e+00 3.030000000000000000e+02
4.828953318956759944e+00 -4.125542072795120419e+00 3.030000000000000000e+02
5.979367144238291409e+00 -3.303016674645547823e+00 3.030000000000000000e+02
7.129780969519823763e+00 -2.480491276495975228e+00 3.030000000000000000e+02
-9.231158074509000500e-01 -8.238169063542983395e+00 3.040000000000000000e+02
2.272980178306318599e-01 -7.415643665393410799e+00 3.040000000000000000e+02
1.377711843112163770e+00 -6.593118267243838204e+00 3.040000000000000000e+02
2.528125668393695680e+00 -5.770592869094265609e+00 3.040000000000000000e+02
3.678539493675227590e+00 -4.948067470944693014e+00 3.040000000000000000e+02
4.828953318956759944e+00 -4.125542072795120419e+00 3.040000000000000000e+02
5.979367144238291409e+00 -3.303016674645547823e+00 3.040000000000000000e+02
7.129780969519823763e+00 -2.480491276495975228e+00 3.040000000000000000e+02
-9.231158074509000500e-01 -8.238169063542983395e+00 3.050000000000000000e+02
2.272980178306318599e-01 -7.415643665393410799e+00 3.050000000000000000e+02
1.377711843112163770e+00 -6.593118267243838204e+00 3.050000000000000000e+02
2.528125668393695680e+00 -5.770592869094265609e+00 3.050000000000000000e+02
3.678539493675227590e+00 -4.948067470944693014e+00 3.050000000000000000e+02
4.828953318956759944e+00 -4.125542072795120419e+00 3.050000000000000000e+02
5.979367144238291409e+00 -3.303016674645547823e+00 3.050000000000000000e+02
7.129780969519823763e+00 -2.480491276495975228e+00 3.050000000000000000e+02
-9.231158074509000500e-01 -8.238169063542983395e+00 3.060000000000000000e+02
2.272980178306318599e-01 -7.415643665393410799e+00 3.060000000000000000e+02
1.377711843112163770e+00 -6.593118267243838204e+00 3.060000000000000000e+02
2.528125668393695680e+00 -5.770592869094265609e+00 3.060000000000000000e+02
3.678539493675227590e+00 -4.948067470944693014e+00 3.060000000000000000e+02
4.828953318956759944e+00 -4.125542072795120419e+00 3.060000000000000000e+02
5.979367144238291409e+00 -3.303016674645547823e+00 3.060000000000000000e+02
7.129780969519823763e+00 -2.480491276495975228e+00 3.060000000000000000e+02
8.280194794801355229e+00 -1.657965878346402633e+00 3.060000000000000000e+02
-9.231158074509000500e-01 -8.238169063542983395e+00 3.070000000000000000e+02
2.272980178306318599e-01 -7.415643665393410799e+00 3.070000000000000000e+02
1.377711843112163770e+00 -6.593118267243838204e+00 3.070000000000000000e+02
2.528125668393695680e+00 -5.770592869094265609e+00 3.070000000000000000e+02
3.678539493675227590e+00 -4.948067470944693014e+00 3.070000000000000000e+02
4.828953318956759944e+00 -4.125542072795120419e+00 3.070000000000000000e+02
5.979367144238291409e+00 -3.303016674645547823e+00 3.070000000000000000e+02
7.129780969519823763e+00 -2.480491276495975228e+00 3.070000000000000000e+02
8.280194794801355229e+00 -1.657965878346402633e+00 3.070000000000000000e+02
-9.231158074509000500e-01 -8.238169063542983395e+00 3.080000000000000000e+02
2.272980178306318599e-01 -7.415643665393410799e+00 3.080000000000000000e+02
1.377711843112163770e+00 -6.593118267243838204e+00 3.080000000000000000e+02
2.528125668393695680e+00 -5.770592869094265609e+00 3.080000000000000000e+02
3.678539493675227590e+00 -4.948067470944693014e+00 3.080000000000000000e+02
4.828953318956759944e+00 -4.125542072795120419e+00 3.080000000000000000e+02
5.979367144238291409e+00 -3.303016674645547823e+00 3.080000000000000000e+02
7.129780969519823763e+00 -2.480491276495975228e+00 3.080000000000000000e+02
8.280194794801355229e+00 -1.657965878346402633e+00 3.080000000000000000e+02
-9.231158074509000500e-01 -8.238169063542983395e+00 3.090000000000000000e+02
2.272980178306318599e-01 -7.415643665393410799e+00 3.090000000000000000e+02
1.377711843112163770e+00 -6.593118267243838204e+00 3.090000000000000000e+02
2.528125668393695680e+00 -5.770592869094265609e+00 3.090000000000000000e+02
3.678539493675227590e+00 -4.948067470944693014e+00 3.090000000000000000e+02
4.828953318956759944e+00 -4.125542072795120419e+00 3.090000000000000000e+02
5.979367144238291409e+00 -3.303016674645547823e+00 3.090000000000000000e+02
7.129780969519823763e+00 -2.480491276495975228e+00 3.090000000000000000e+02
8.280194794801355229e+00 -1.657965878346402633e+00 3.090000000000000000e+02
-9.231158074509000500e-01 -8.238169063542983395e+00 3.100000000000000000e+02
2.272980178306318599e-01 -7.415643665393410799e+00 3.100000000000000000e+02
1.377711843112163770e+00 -6.593118267243838204e+00 3.100000000000000000e+02
2.528125668393695680e+00 -5.770592869094265609e+00 3.100000000000000000e+02
3.678539493675227590e+00 -4.948067470944693014e+00 3.100000000000000000e+02
4.828953318956759944e+00 -4.125542072795120419e+00 3.100000000000000000e+02
5.979367144238291409e+00 -3.303016674645547823e+00 3.100000000000000000e+02
7.129780969519823763e+00 -2.480491276495975228e+00 3.100000000000000000e+02
8.280194794801355229e+00 -1.657965878346402633e+00 3.100000000000000000e+02
-9.231158074509000500e-01 -8.238169063542983395e+00 3.110000000000000000e+02
2.272980178306318599e-01 -7.415643665393410799e+00 3.110000000000000000e+02
1.377711843112163770e+00 -6.593118267243838204e+00 3.110000000000000000e+02
2.528125668393695680e+00 -5.770592869094265609e+00 3.110000000000000000e+02
3.678539493675227590e+00 -4.948067470944693014e+00 3.110000000000000000e+02
4.828953318956759944e+00 -4.125542072795120419e+00 3.110000000000000000e+02
5.979367144238291409e+00 -3.303016674645547823e+00 3.110000000000000000e+02
7.129780969519823763e+00 -2.480491276495975228e+00 3.110000000000000000e+02
8.280194794801355229e+00 -1.657965878346402633e+00 3.110000000000000000e+02
-9.231158074509000500e-01 -8.238169063542983395e+00 3.120000000000000000e+02
2.272980178306318599e-01 -7.415643665393410799e+00 3.120000000000000000e+02
1.377711843112163770e+00 -6.593118267243838204e+00 3.120000000000000000e+02
2.528125668393695680e+00 -5.770592869094265609e+00 3.120000000000000000e+02
3.678539493675227590e+00 -4.948067470944693014e+00 3.120000000000000000e+02
4.828953318956759944e+00 -4.125542072795120419e+00 3.120000000000000000e+02
5.979367144238291409e+00 -3.303016674645547823e+00 3.120000000000000000e+02
7.129780969519823763e+00 -2.480491276495975228e+00 3.120000000000000000e+02
8.280194794801355229e+00 -1.657965878346402633e+00 3.120000000000000000e+02
-9.231158074509000500e-01 -8.238169063542983395e+00 3.130000000000000000e+02
2.272980178306318599e-01 -7.415643665393410799e+00 3.130000000000000000e+02
1.377711843112163770e+00 -6.593118267243838204e+00 3.130000000000000000e+02
2.528125668393695680e+00 -5.770592869094265609e+00 3.130000000000000000e+02
3.678539493675227590e+00 -4.948067470944693014e+00 3.130000000000000000e+02
4.828953318956759944e+00 -4.125542072795120419e+00 3.130000000000000000e+02
5.979367144238291409e+00 -3.303016674645547823e+00 3.130000000000000000e+02
7.129780969519823763e+00 -2.480491276495975228e+00 3.130000000000000000e+02
8.280194794801355229e+00 -1.657965878346402633e+00 3.130000000000000000e+02
-9.231158074509000500e-01 -8.238169063542983395e+00 3.140000000000000000e+02
2.272980178306318599e-01 -7.415643665393410799e+00 3.140000000000000000e+02
1.377711843112163770e+00 -6.593118267243838204e+00 3.140000000000000000e+02
2.528125668393695680e+00 -5.770592869094265609e+00 3.140000000000000000e+02
3.678539493675227590e+00 -4.948067470944693014e+00 3.140000000000000000e+02
4.828953318956759944e+00 -4.125542072795120419e+00 3.140000000000000000e+02
5.979367144238291409e+00 -3.303016674645547823e+00 3.140000000000000000e+02
7.129780969519823763e+00 -2.480491276495975228e+00 3.140000000000000000e+02
8.280194794801355229e+00 -1.657965878346402633e+00 3.140000000000000000e+02
6.335380426465242465e-02 -8.402113277108963274e+00 3.150000000000000000e+02
1.213767629546183890e+00 -7.579587878959390679e+00 3.150000000000000000e+02
2.364181454827716244e+00 -6.757062480809818084e+00 3.150000000000000000e+02
3.514595280109247710e+00 -5.934537082660245488e+00 3.150000000000000000e+02
4.665009105390780064e+00 -5.112011684510672893e+00 3.150000000000000000e+02
5.815422930672311530e+00 -4.289486286361100298e+00 3.150000000000000000e+02
6.965836755953843884e+00 -3.466960888211527703e+00 3.150000000000000000e+02
8.116250581235375350e+00 -2.644435490061955107e+00 3.150000000000000000e+02
6.335380426465242465e-02 -8.402113277108963274e+00 3.160000000000000000e+02
1.213767629546183890e+00 -7.579587878959390679e+00 3.160000000000000000e+02
2.364181454827716244e+00 -6.757062480809818084e+00 3.160000000000000000e+02
3.514595280109247710e+00 -5.934537082660245488e+00 3.160000000000000000e+02
4.665009105390780064e+00 -5.112011684510672893e+00 3.160000000000000000e+02
5.815422930672311530e+00 -4.289486286361100298e+00 3.160000000000000000e+02
6.965836755953843884e+00 -3.466960888211527703e+00 3.160000000000000000e+02
8.116250581235375350e+00 -2.644435490061955107e+00 3.160000000000000000e+02
6.335380426465242465e-02 -8.402113277108963274e+00 3.170000000000000000e+02
1.213767629546183890e+00 -7.579587878959390679e+00 3.170000000000000000e+02
2.364181454827716244e+00 -6.757062480809818084e+00 3.170000000000000000e+02
3.514595280109247710e+00 -5.934537082660245488e+00 3.170000000000000000e+02
4.665009105390780064e+00 -5.112011684510672893e+00 3.170000000000000000e+02
5.815422930672311530e+00 -4.289486286361100298e+00 3.170000000000000000e+02
6.965836755953843884e+00 -3.466960888211527703e+00 3.170000000000000000e+02
8.116250581235375350e+00 -2.644435490061955107e+00 3.170000000000000000e+02
6.335380426465242465e-02 -8.402113277108963274e+00 3.180000000000000000e+02
1.213767629546183890e+00 -7.579587878959390679e+00 3.180000000000000000e+02
2.364181454827716244e+00 -6.757062480809818084e+00 3.180000000000000000e+02
3.514595280109247710e+00 -5.934537082660245488e+00 3.180000000000000000e+02
4.665009105390780064e+00 -5.112011684510672893e+00 3.180000000000000000e+02
5.815422930672311530e+00 -4.289486286361100298e+00 3.180000000000000000e+02
6.965836755953843884e+00 -3.466960888211527703e+00 3.180000000000000000e+02
8.116250581235375350e+00 -2.644435490061955107e+00 3.180000000000000000e+02
6.335380426465242465e-02 -8.402113277108963274e+00 3.190000000000000000e+02
1.213767629546183890e+00 -7.579587878959390679e+00 3.190000000000000000e+02
2.364181454827716244e+00 -6.757062480809818084e+00 3.190000000000000000e+02
3.514595280109247710e+00 -5.934537082660245488e+00 3.190000000000000000e+02
4.665009105390780064e+00 -5.112011684510672893e+00 3.190000000000000000e+02
5.815422930672311530e+00 -4.289486286361100298e+00 3.190000000000000000e+02
6.965836755953843884e+00 -3.466960888211527703e+00 3.190000000000000000e+02
8.116250581235375350e+00 -2.644435490061955107e+00 3.190000000000000000e+02
6.335380426465242465e-02 -8.402113277108963274e+00 3.200000000000000000e+02
1.213767629546183890e+00 -7.579587878959390679e+00 3.200000000000000000e+02
2.364181454827716244e+00 -6.757062480809818084e+00 3.200000000000000000e+02
3.514595280109247710e+00 -5.934537082660245488e+00 3.200000000000000000e+02
4.665009105390780064e+00 -5.112011684510672893e+00 3.200000000000000000e+02
5.815422930672311530e+00 -4.289486286361100298e+00 3.200000000000000000e+02
6.965836755953843884e+00 -3.466960888211527703e+00 3.200000000000000000e+02
8.116250581235375350e+00 -2.644435490061955107e+00 3.200000000000000000e+02
6.335380426465242465e-02 -8.402113277108963274e+00 3.210000000000000000e+02
1.213767629546183890e+00 -7.579587878959390679e+00 3.210000000000000000e+02
2.364181454827716244e+00 -6.757062480809818084e+00 3.210000000000000000e+02
3.514595280109247710e+00 -5.934537082660245488e+00 3.210000000000000000e+02
4.665009105390780064e+00 -5.112011684510672893e+00 3.210000000000000000e+02
5.815422930672311530e+00 -4.289486286361100298e+00 3.210000000000000000e+02
6.965836755953843884e+00 -3.466960888211527703e+00 3.210000000000000000e+02
8.116250581235375350e+00 -2.644435490061955107e+00 3.210000000000000000e+02
6.335380426465242465e-02 -8.402113277108963274e+00 3.220000000000000000e+02
1.213767629546183890e+00 -7.579587878959390679e+00 3.220000000000000000e+02
2.364181454827716244e+00 -6.757062480809818084e+00 3.220000000000000000e+02
3.514595280109247710e+00 -5.934537082660245488e+00 3.220000000000000000e+02
4.665009105390780064e+00 -5.112011684510672893e+00 3.220000000000000000e+02
5.815422930672311530e+00 -4.289486286361100298e+00 3.220000000000000000e+02
6.965836755953843884e+00 -3.466960888211527703e+00 3.220000000000000000e+02
8.116250581235375350e+00 -2.644435490061955107e+00 3.220000000000000000e+02
6.335380426465242465e-02 -8.402113277108963274e+00 3.230000000000000000e+02
1.213767629546183890e+00 -7.579587878959390679e+00 3.230000000000000000e+02
2.364181454827716244e+00 -6.757062480809818084e+00 3.230000000000000000e+02
3.514595280109247710e+00 -5.934537082660245488e+00 3.230000000000000000e+02
4.665009105390780064e+00 -5.112011684510672893e+00 3.230000000000000000e+02
5.815422930672311530e+00 -4.289486286361100298e+00 3.230000000000000000e+02
6.965836755953843884e+00 -3.466960888211527703e+00 3.230000000000000000e+02
8.116250581235375350e+00 -2.644435490061955107e+00 3.230000000000000000e+02
6.335380426465242465e-02 -8.402113277108963274e+00 3.240000000000000000e+02
1.213767629546183890e+00 -7.579587878959390679e+00 3.240000000000000000e+02
2.364181454827716244e+00 -6.757062480809818084e+00 3.240000000000000000e+02
3.514595280109247710e+00 -5.934537082660245488e+00 3.240000000000000000e+02
4.665009105390780064e+00 -5.112011684510672893e+00 3.240000000000000000e+02
5.815422930672311530e+00 -4.289486286361100298e+00 3.240000000000000000e+02
6.965836755953843884e+00 -3.466960888211527703e+00 3.240000000000000000e+02
8.116250581235375350e+00 -2.644435490061955107e+00 3.240000000000000000e+02
9.266664406516907704e+00 -1.821910091912382512e+00 3.240000000000000000e+02
6.335380426465242465e-02 -8.402113277108963274e+00 3.250000000000000000e+02
1.213767629546183890e+00 -7.579587878959390679e+00 3.250000000000000000e+02
2.364181454827716244e+00 -6.757062480809818084e+00 3.250000000000000000e+02
3.514595280109247710e+00 -5.934537082660245488e+00 3.250000000000000000e+02
4.665009105390780064e+00 -5.112011684510672893e+00 3.250000000000000000e+02
5.815422930672311530e+00 -4.289486286361100298e+00 3.250000000000000000e+02
6.965836755953843884e+00 -3.466960888211527703e+00 3.250000000000000000e+02
8.116250581235375350e+00 -2.644435490061955107e+00 3.250000000000000000e+02
9.266664406516907704e+00 -1.821910091912382512e+00 3.250000000000000000e+02
-9.231158074509000500e-01 -8.238169063542983395e+00 3.260000000000000000e+02
2.272980178306318599e-01 -7.415643665393410799e+00 3.260000000000000000e+02
1.377711843112163770e+00 -6.593118267243838204e+00 3.260000000000000000e+02
2.528125668393695680e+00 -5.770592869094265609e+00 3.260000000000000000e+02
3.678539493675227590e+00 -4.948067470944693014e+00 3.260000000000000000e+02
4.828953318956759944e+00 -4.125542072795120419e+00 3.260000000000000000e+02
5.979367144238291409e+00 -3.303016674645547823e+00 3.260000000000000000e+02
7.129780969519823763e+00 -2.480491276495975228e+00 3.260000000000000000e+02
8.280194794801355229e+00 -1.657965878346402633e+00 3.260000000000000000e+02
9.430608620082885807e+00 -8.354404801968300376e-01 3.260000000000000000e+02
-9.231158074509000500e-01 -8.238169063542983395e+00 3.270000000000000000e+02
2.272980178306318599e-01 -7.415643665393410799e+00 3.270000000000000000e+02
1.377711843112163770e+00 -6.593118267243838204e+00 3.270000000000000000e+02
2.528125668393695680e+00 -5.770592869094265609e+00 3.270000000000000000e+02
3.678539493675227590e+00 -4.948067470944693014e+00 3.270000000000000000e+02
4.828953318956759944e+00 -4.125542072795120419e+00 3.270000000000000000e+02
5.979367144238291409e+00 -3.303016674645547823e+00 3.270000000000000000e+02
7.129780969519823763e+00 -2.480491276495975228e+00 3.270000000000000000e+02
8.280194794801355229e+00 -1.657965878346402633e+00 3.270000000000000000e+02
9.430608620082885807e+00 -8.354404801968300376e-01 3.270000000000000000e+02
6.335380426465242465e-02 -8.402113277108963274e+00 3.280000000000000000e+02
1.213767629546183890e+00 -7.579587878959390679e+00 3.280000000000000000e+02
2.364181454827716244e+00 -6.757062480809818084e+00 3.280000000000000000e+02
3.514595280109247710e+00 -5.934537082660245488e+00 3.280000000000000000e+02
4.665009105390780064e+00 -5.112011684510672893e+00 3.280000000000000000e+02
5.815422930672311530e+00 -4.289486286361100298e+00 3.280000000000000000e+02
6.965836755953843884e+00 -3.466960888211527703e+00 3.280000000000000000e+02
8.116250581235375350e+00 -2.644435490061955107e+00 3.280000000000000000e+02
9.266664406516907704e+00 -1.821910091912382512e+00 3.280000000000000000e+02
6.335380426465242465e-02 -8.402113277108963274e+00 3.290000000000000000e+02
1.213767629546183890e+00 -7.579587878959390679e+00 3.290000000000000000e+02
2.364181454827716244e+00 -6.757062480809818084e+00 3.290000000000000000e+02
3.514595280109247710e+00 -5.934537082660245488e+00 3.290000000000000000e+02
4.665009105390780064e+00 -5.112011684510672893e+00 3.290000000000000000e+02
5.815422930672311530e+00 -4.289486286361100298e+00 3.290000000000000000e+02
6.965836755953843884e+00 -3.466960888211527703e+00 3.290000000000000000e+02
8.116250581235375350e+00 -2.644435490061955107e+00 3.290000000000000000e+02
9.266664406516907704e+00 -1.821910091912382512e+00 3.290000000000000000e+02
6.335380426465242465e-02 -8.402113277108963274e+00 3.300000000000000000e+02
1.213767629546183890e+00 -7.579587878959390679e+00 3.300000000000000000e+02
2.364181454827716244e+00 -6.757062480809818084e+00 3.300000000000000000e+02
3.514595280109247710e+00 -5.934537082660245488e+00 3.300000000000000000e+02
4.665009105390780064e+00 -5.112011684510672893e+00 3.300000000000000000e+02
5.815422930672311530e+00 -4.289486286361100298e+00 3.300000000000000000e+02
6.965836755953843884e+00 -3.466960888211527703e+00 3.300000000000000000e+02
8.116250581235375350e+00 -2.644435490061955107e+00 3.300000000000000000e+02
9.266664406516907704e+00 -1.821910091912382512e+00 3.300000000000000000e+02
6.335380426465242465e-02 -8.402113277108963274e+00 3.310000000000000000e+02
1.213767629546183890e+00 -7.579587878959390679e+00 3.310000000000000000e+02
2.364181454827716244e+00 -6.757062480809818084e+00 3.310000000000000000e+02
3.514595280109247710e+00 -5.934537082660245488e+00 3.310000000000000000e+02
4.665009105390780064e+00 -5.112011684510672893e+00 3.310000000000000000e+02
5.815422930672311530e+00 -4.289486286361100298e+00 3.310000000000000000e+02
6.965836755953843884e+00 -3.466960888211527703e+00 3.310000000000000000e+02
8.116250581235375350e+00 -2.644435490061955107e+00 3.310000000000000000e+02
9.266664406516907704e+00 -1.821910091912382512e+00 3.310000000000000000e+02
6.335380426465242465e-02 -8.402113277108963274e+00 3.320000000000000000e+02
1.213767629546183890e+00 -7.579587878959390679e+00 3.320000000000000000e+02
2.364181454827716244e+00 -6.757062480809818084e+00 3.320000000000000000e+02
3.514595280109247710e+00 -5.934537082660245488e+00 3.320000000000000000e+02
4.665009105390780064e+00 -5.112011684510672893e+00 3.320000000000000000e+02
5.815422930672311530e+00 -4.289486286361100298e+00 3.320000000000000000e+02
6.965836755953843884e+00 -3.466960888211527703e+00 3.320000000000000000e+02
8.116250581235375350e+00 -2.644435490061955107e+00 3.320000000000000000e+02
9.266664406516907704e+00 -1.821910091912382512e+00 3.320000000000000000e+02
6.335380426465242465e-02 -8.402113277108963274e+00 3.330000000000000000e+02
1.213767629546183890e+00 -7.579587878959390679e+00 3.330000000000000000e+02
2.364181454827716244e+00 -6.757062480809818084e+00 3.330000000000000000e+02
3.514595280109247710e+00 -5.934537082660245488e+00 3.330000000000000000e+02
4.665009105390780064e+00 -5.112011684510672893e+00 3.330000000000000000e+02
5.815422930672311530e+00 -4.289486286361100298e+00 3.330000000000000000e+02
6.965836755953843884e+00 -3.466960888211527703e+00 3.330000000000000000e+02
8.116250581235375350e+00 -2.644435490061955107e+00 3.330000000000000000e+02
9.266664406516907704e+00 -1.821910091912382512e+00 3.330000000000000000e+02
6.335380426465242465e-02 -8.402113277108963274e+00 3.340000000000000000e+02
1.213767629546183890e+00 -7.579587878959390679e+00 3.340000000000000000e+02
2.364181454827716244e+00 -6.757062480809818084e+00 3.340000000000000000e+02
3.514595280109247710e+00 -5.934537082660245488e+00 3.340000000000000000e+02
4.665009105390780064e+00 -5.112011684510672893e+00 3.340000000000000000e+02
5.815422930672311530e+00 -4.289486286361100298e+00 3.340000000000000000e+02
6.965836755953843884e+00 -3.466960888211527703e+00 3.340000000000000000e+02
8.116250581235375350e+00 -2.644435490061955107e+00 3.340000000000000000e+02
9.266664406516907704e+00 -1.821910091912382512e+00 3.340000000000000000e+02
6.335380426465242465e-02 -8.402113277108963274e+00 3.350000000000000000e+02
1.213767629546183890e+00 -7.579587878959390679e+00 3.350000000000000000e+02
2.364181454827716244e+00 -6.757062480809818084e+00 3.350000000000000000e+02
3.514595280109247710e+00 -5.934537082660245488e+00 3.350000000000000000e+02
4.665009105390780064e+00 -5.112011684510672893e+00 3.350000000000000000e+02
5.815422930672311530e+00 -4.289486286361100298e+00 3.350000000000000000e+02
6.965836755953843884e+00 -3.466960888211527703e+00 3.350000000000000000e+02
8.116250581235375350e+00 -2.644435490061955107e+00 3.350000000000000000e+02
9.266664406516907704e+00 -1.821910091912382512e+00 3.350000000000000000e+02
6.335380426465242465e-02 -8.402113277108963274e+00 3.360000000000000000e+02
1.213767629546183890e+00 -7.579587878959390679e+00 3.360000000000000000e+02
2.364181454827716244e+00 -6.757062480809818084e+00 3.360000000000000000e+02
3.514595280109247710e+00 -5.934537082660245488e+00 3.360000000000000000e+02
4.665009105390780064e+00 -5.112011684510672893e+00 3.360000000000000000e+02
5.815422930672311530e+00 -4.289486286361100298e+00 3.360000000000000000e+02
6.965836755953843884e+00 -3.466960888211527703e+00 3.360000000000000000e+02
8.116250581235375350e+00 -2.644435490061955107e+00 3.360000000000000000e+02
9.266664406516907704e+00 -1.821910091912382512e+00 3.360000000000000000e+02
6.335380426465242465e-02 -8.402113277108963274e+00 3.370000000000000000e+02
1.213767629546183890e+00 -7.579587878959390679e+00 3.370000000000000000e+02
2.364181454827716244e+00 -6.757062480809818084e+00 3.370000000000000000e+02
3.514595280109247710e+00 -5.934537082660245488e+00 3.370000000000000000e+02
4.665009105390780064e+00 -5.112011684510672893e+00 3.370000000000000000e+02
5.815422930672311530e+00 -4.289486286361100298e+00 3.370000000000000000e+02
6.965836755953843884e+00 -3.466960888211527703e+00 3.370000000000000000e+02
8.116250581235375350e+00 -2.644435490061955107e+00 3.370000000000000000e+02
9.266664406516907704e+00 -1.821910091912382512e+00 3.370000000000000000e+02
1.049823415980204455e+00 -8.566057490674943153e+00 3.380000000000000000e+02
2.200237241261736365e+00 -7.743532092525370558e+00 3.380000000000000000e+02
3.350651066543268275e+00 -6.921006694375797963e+00 3.380000000000000000e+02
4.501064891824800185e+00 -6.098481296226225368e+00 3.380000000000000000e+02
5.651478717106332539e+00 -5.275955898076652772e+00 3.380000000000000000e+02
6.801892542387864005e+00 -4.453430499927080177e+00 3.380000000000000000e+02
7.952306367669396359e+00 -3.630905101777507138e+00 3.380000000000000000e+02
9.102720192950927824e+00 -2.808379703627934987e+00 3.380000000000000000e+02
6.335380426465242465e-02 -8.402113277108963274e+00 3.390000000000000000e+02
1.213767629546183890e+00 -7.579587878959390679e+00 3.390000000000000000e+02
2.364181454827716244e+00 -6.757062480809818084e+00 3.390000000000000000e+02
3.514595280109247710e+00 -5.934537082660245488e+00 3.390000000000000000e+02
4.665009105390780064e+00 -5.112011684510672893e+00 3.390000000000000000e+02
5.815422930672311530e+00 -4.289486286361100298e+00 3.390000000000000000e+02
6.965836755953843884e+00 -3.466960888211527703e+00 3.390000000000000000e+02
8.116250581235375350e+00 -2.644435490061955107e+00 3.390000000000000000e+02
9.266664406516907704e+00 -1.821910091912382512e+00 3.390000000000000000e+02
6.335380426465242465e-02 -8.402113277108963274e+00 3.400000000000000000e+02
1.213767629546183890e+00 -7.579587878959390679e+00 3.400000000000000000e+02
2.364181454827716244e+00 -6.757062480809818084e+00 3.400000000000000000e+02
3.514595280109247710e+00 -5.934537082660245488e+00 3.400000000000000000e+02
4.665009105390780064e+00 -5.112011684510672893e+00 3.400000000000000000e+02
5.815422930672311530e+00 -4.289486286361100298e+00 3.400000000000000000e+02
6.965836755953843884e+00 -3.466960888211527703e+00 3.400000000000000000e+02
8.116250581235375350e+00 -2.644435490061955107e+00 3.400000000000000000e+02
9.266664406516907704e+00 -1.821910091912382512e+00 3.400000000000000000e+02
6.335380426465242465e-02 -8.402113277108963274e+00 3.410000000000000000e+02
1.213767629546183890e+00 -7.579587878959390679e+00 3.410000000000000000e+02
2.364181454827716244e+00 -6.757062480809818084e+00 3.410000000000000000e+02
3.514595280109247710e+00 -5.934537082660245488e+00 3.410000000000000000e+02
4.665009105390780064e+00 -5.112011684510672893e+00 3.410000000000000000e+02
5.815422930672311530e+00 -4.289486286361100298e+00 3.410000000000000000e+02
6.965836755953843884e+00 -3.466960888211527703e+00 3.410000000000000000e+02
8.116250581235375350e+00 -2.644435490061955107e+00 3.410000000000000000e+02
9.266664406516907704e+00 -1.821910091912382512e+00 3.410000000000000000e+02
6.335380426465242465e-02 -8.402113277108963274e+00 3.420000000000000000e+02
1.213767629546183890e+00 -7.579587878959390679e+00 3.420000000000000000e+02
2.364181454827716244e+00 -6.757062480809818084e+00 3.420000000000000000e+02
3.514595280109247710e+00 -5.934537082660245488e+00 3.420000000000000000e+02
4.665009105390780064e+00 -5.112011684510672893e+00 3.420000000000000000e+02
5.815422930672311530e+00 -4.289486286361100298e+00 3.420000000000000000e+02
6.965836755953843884e+00 -3.466960888211527703e+00 3.420000000000000000e+02
8.116250581235375350e+00 -2.644435490061955107e+00 3.420000000000000000e+02
9.266664406516907704e+00 -1.821910091912382512e+00 3.420000000000000000e+02
6.335380426465242465e-02 -8.402113277108963274e+00 3.430000000000000000e+02
1.213767629546183890e+00 -7.579587878959390679e+00 3.430000000000000000e+02
2.364181454827716244e+00 -6.757062480809818084e+00 3.430000000000000000e+02
3.514595280109247710e+00 -5.934537082660245488e+00 3.430000000000000000e+02
4.665009105390780064e+00 -5.112011684510672893e+00 3.430000000000000000e+02
5.815422930672311530e+00 -4.289486286361100298e+00 3.430000000000000000e+02
6.965836755953843884e+00 -3.466960888211527703e+00 3.430000000000000000e+02
8.116250581235375350e+00 -2.644435490061955107e+00 3.430000000000000000e+02
9.266664406516907704e+00 -1.821910091912382512e+00 3.430000000000000000e+02
1.049823415980204455e+00 -8.566057490674943153e+00 3.440000000000000000e+02
2.200237241261736365e+00 -7.743532092525370558e+00 3.440000000000000000e+02
3.350651066543268275e+00 -6.921006694375797963e+00 3.440000000000000000e+02
4.501064891824800185e+00 -6.098481296226225368e+00 3.440000000000000000e+02
5.651478717106332539e+00 -5.275955898076652772e+00 3.440000000000000000e+02
6.801892542387864005e+00 -4.453430499927080177e+00 3.440000000000000000e+02
7.952306367669396359e+00 -3.630905101777507138e+00 3.440000000000000000e+02
9.102720192950927824e+00 -2.808379703627934987e+00 3.440000000000000000e+02
1.049823415980204455e+00 -8.566057490674943153e+00 3.450000000000000000e+02
2.200237241261736365e+00 -7.743532092525370558e+00 3.450000000000000000e+02
3.350651066543268275e+00 -6.921006694375797963e+00 3.450000000000000000e+02
4.501064891824800185e+00 -6.098481296226225368e+00 3.450000000000000000e+02
5.651478717106332539e+00 -5.275955898076652772e+00 3.450000000000000000e+02
6.801892542387864005e+00 -4.453430499927080177e+00 3.450000000000000000e+02
7.952306367669396359e+00 -3.630905101777507138e+00 3.450000000000000000e+02
9.102720192950927824e+00 -2.808379703627934987e+00 3.450000000000000000e+02
6.335380426465242465e-02 -8.402113277108963274e+00 3.460000000000000000e+02
1.213767629546183890e+00 -7.579587878959390679e+00 3.460000000000000000e+02
2.364181454827716244e+00 -6.757062480809818084e+00 3.460000000000000000e+02
3.514595280109247710e+00 -5.934537082660245488e+00 3.460000000000000000e+02
4.665009105390780064e+00 -5.112011684510672893e+00 3.460000000000000000e+02
5.815422930672311530e+00 -4.289486286361100298e+00 3.460000000000000000e+02
6.965836755953843884e+00 -3.466960888211527703e+00 3.460000000000000000e+02
8.116250581235375350e+00 -2.644435490061955107e+00 3.460000000000000000e+02
9.266664406516907704e+00 -1.821910091912382512e+00 3.460000000000000000e+02
6.335380426465242465e-02 -8.402113277108963274e+00 3.470000000000000000e+02
1.213767629546183890e+00 -7.579587878959390679e+00 3.470000000000000000e+02
2.364181454827716244e+00 -6.757062480809818084e+00 3.470000000000000000e+02
3.514595280109247710e+00 -5.934537082660245488e+00 3.470000000000000000e+02
4.665009105390780064e+00 -5.112011684510672893e+00 3.470000000000000000e+02
5.815422930672311530e+00 -4.289486286361100298e+00 3.470000000000000000e+02
6.965836755953843884e+00 -3.466960888211527703e+00 3.470000000000000000e+02
8.116250581235375350e+00 -2.644435490061955107e+00 3.470000000000000000e+02
9.266664406516907704e+00 -1.821910091912382512e+00 3.470000000000000000e+02
6.335380426465242465e-02 -8.402113277108963274e+00 3.480000000000000000e+02
1.213767629546183890e+00 -7.579587878959390679e+00 3.480000000000000000e+02
2.364181454827716244e+00 -6.757062480809818084e+00 3.480000000000000000e+02
3.514595280109247710e+00 -5.934537082660245488e+00 3.480000000000000000e+02
4.665009105390780064e+00 -5.112011684510672893e+00 3.480000000000000000e+02
5.815422930672311530e+00 -4.289486286361100298e+00 3.480000000000000000e+02
6.965836755953843884e+00 -3.466960888211527703e+00 3.480000000000000000e+02
8.116250581235375350e+00 -2.644435490061955107e+00 3.480000000000000000e+02
9.266664406516907704e+00 -1.821910091912382512e+00 3.480000000000000000e+02
6.335380426465242465e-02 -8.402113277108963274e+00 3.490000000000000000e+02
1.213767629546183890e+00 -7.579587878959390679e+00 3.490000000000000000e+02
2.364181454827716244e+00 -6.757062480809818084e+00 3.490000000000000000e+02
3.514595280109247710e+00 -5.934537082660245488e+00 3.490000000000000000e+02
4.665009105390780064e+00 -5.112011684510672893e+00 3.490000000000000000e+02
5.815422930672311530e+00 -4.289486286361100298e+00 3.490000000000000000e+02
6.965836755953843884e+00 -3.466960888211527703e+00 3.490000000000000000e+02
8.116250581235375350e+00 -2.644435490061955107e+00 3.490000000000000000e+02
9.266664406516907704e+00 -1.821910091912382512e+00 3.490000000000000000e+02
6.335380426465242465e-02 -8.402113277108963274e+00 3.500000000000000000e+02
1.213767629546183890e+00 -7.579587878959390679e+00 3.500000000000000000e+02
2.364181454827716244e+00 -6.757062480809818084e+00 3.500000000000000000e+02
3.514595280109247710e+00 -5.934537082660245488e+00 3.500000000000000000e+02
4.665009105390780064e+00 -5.112011684510672893e+00 3.500000000000000000e+02
5.815422930672311530e+00 -4.289486286361100298e+00 3.500000000000000000e+02
6.965836755953843884e+00 -3.466960888211527703e+00 3.500000000000000000e+02
8.116250581235375350e+00 -2.644435490061955107e+00 3.500000000000000000e+02
9.266664406516907704e+00 -1.821910091912382512e+00 3.500000000000000000e+02
1.049823415980204455e+00 -8.566057490674943153e+00 3.510000000000000000e+02
2.200237241261736365e+00 -7.743532092525370558e+00 3.510000000000000000e+02
3.350651066543268275e+00 -6.921006694375797963e+00 3.510000000000000000e+02
4.501064891824800185e+00 -6.098481296226225368e+00 3.510000000000000000e+02
5.651478717106332539e+00 -5.275955898076652772e+00 3.510000000000000000e+02
6.801892542387864005e+00 -4.453430499927080177e+00 3.510000000000000000e+02
7.952306367669396359e+00 -3.630905101777507138e+00 3.510000000000000000e+02
9.102720192950927824e+00 -2.808379703627934987e+00 3.510000000000000000e+02
1.049823415980204455e+00 -8.566057490674943153e+00 3.520000000000000000e+02
2.200237241261736365e+00 -7.743532092525370558e+00 3.520000000000000000e+02
3.350651066543268275e+00 -6.921006694375797963e+00 3.520000000000000000e+02
4.501064891824800185e+00 -6.098481296226225368e+00 3.520000000000000000e+02
5.651478717106332539e+00 -5.275955898076652772e+00 3.520000000000000000e+02
6.801892542387864005e+00 -4.453430499927080177e+00 3.520000000000000000e+02
7.952306367669396359e+00 -3.630905101777507138e+00 3.520000000000000000e+02
9.102720192950927824e+00 -2.808379703627934987e+00 3.520000000000000000e+02
6.335380426465242465e-02 -8.402113277108963274e+00 3.530000000000000000e+02
1.213767629546183890e+00 -7.579587878959390679e+00 3.530000000000000000e+02
2.364181454827716244e+00 -6.757062480809818084e+00 3.530000000000000000e+02
3.514595280109247710e+00 -5.934537082660245488e+00 3.530000000000000000e+02
4.665009105390780064e+00 -5.112011684510672893e+00 3.530000000000000000e+02
5.815422930672311530e+00 -4.289486286361100298e+00 3.530000000000000000e+02
6.965836755953843884e+00 -3.466960888211527703e+00 3.530000000000000000e+02
8.116250581235375350e+00 -2.644435490061955107e+00 3.530000000000000000e+02
9.266664406516907704e+00 -1.821910091912382512e+00 3.530000000000000000e+02
6.335380426465242465e-02 -8.402113277108963274e+00 3.540000000000000000e+02
1.213767629546183890e+00 -7.579587878959390679e+00 3.540000000000000000e+02
2.364181454827716244e+00 -6.757062480809818084e+00 3.540000000000000000e+02
3.514595280109247710e+00 -5.934537082660245488e+00 3.540000000000000000e+02
4.665009105390780064e+00 -5.112011684510672893e+00 3.540000000000000000e+02
5.815422930672311530e+00 -4.289486286361100298e+00 3.540000000000000000e+02
6.965836755953843884e+00 -3.466960888211527703e+00 3.540000000000000000e+02
8.116250581235375350e+00 -2.644435490061955107e+00 3.540000000000000000e+02
9.266664406516907704e+00 -1.821910091912382512e+00 3.540000000000000000e+02
6.335380426465242465e-02 -8.402113277108963274e+00 3.550000000000000000e+02
1.213767629546183890e+00 -7.579587878959390679e+00 3.550000000000000000e+02
2.364181454827716244e+00 -6.757062480809818084e+00 3.550000000000000000e+02
3.514595280109247710e+00 -5.934537082660245488e+00 3.550000000000000000e+02
4.665009105390780064e+00 -5.112011684510672893e+00 3.550000000000000000e+02
5.815422930672311530e+00 -4.289486286361100298e+00 3.550000000000000000e+02
6.965836755953843884e+00 -3.466960888211527703e+00 3.550000000000000000e+02
8.116250581235375350e+00 -2.644435490061955107e+00 3.550000000000000000e+02
9.266664406516907704e+00 -1.821910091912382512e+00 3.550000000000000000e+02
6.335380426465242465e-02 -8.402113277108963274e+00 3.560000000000000000e+02
1.213767629546183890e+00 -7.579587878959390679e+00 3.560000000000000000e+02
2.364181454827716244e+00 -6.757062480809818084e+00 3.560000000000000000e+02
3.514595280109247710e+00 -5.934537082660245488e+00 3.560000000000000000e+02
4.665009105390780064e+00 -5.112011684510672893e+00 3.560000000000000000e+02
5.815422930672311530e+00 -4.289486286361100298e+00 3.560000000000000000e+02
6.965836755953843884e+00 -3.466960888211527703e+00 3.560000000000000000e+02
8.116250581235375350e+00 -2.644435490061955107e+00 3.560000000000000000e+02
9.266664406516907704e+00 -1.821910091912382512e+00 3.560000000000000000e+02
6.335380426465242465e-02 -8.402113277108963274e+00 3.570000000000000000e+02
1.213767629546183890e+00 -7.579587878959390679e+00 3.570000000000000000e+02
2.364181454827716244e+00 -6.757062480809818084e+00 3.570000000000000000e+02
3.514595280109247710e+00 -5.934537082660245488e+00 3.570000000000000000e+02
4.665009105390780064e+00 -5.112011684510672893e+00 3.570000000000000000e+02
5.815422930672311530e+00 -4.289486286361100298e+00 3.570000000000000000e+02
6.965836755953843884e+00 -3.466960888211527703e+00 3.570000000000000000e+02
8.116250581235375350e+00 -2.644435490061955107e+00 3.570000000000000000e+02
9.266664406516907704e+00 -1.821910091912382512e+00 3.570000000000000000e+02
6.335380426465242465e-02 -8.402113277108963274e+00 3.580000000000000000e+02
1.213767629546183890e+00 -7.579587878959390679e+00 3.580000000000000000e+02
2.364181454827716244e+00 -6.757062480809818084e+00 3.580000000000000000e+02
3.514595280109247710e+00 -5.934537082660245488e+00 3.580000000000000000e+02
4.665009105390780064e+00 -5.112011684510672893e+00 3.580000000000000000e+02
5.815422930672311530e+00 -4.289486286361100298e+00 3.580000000000000000e+02
6.965836755953843884e+00 -3.466960888211527703e+00 3.580000000000000000e+02
8.116250581235375350e+00 -2.644435490061955107e+00 3.580000000000000000e+02
9.266664406516907704e+00 -1.821910091912382512e+00 3.580000000000000000e+02
6.335380426465242465e-02 -8.402113277108963274e+00 3.590000000000000000e+02
1.213767629546183890e+00 -7.579587878959390679e+00 3.590000000000000000e+02
2.364181454827716244e+00 -6.757062480809818084e+00 3.590000000000000000e+02
3.514595280109247710e+00 -5.934537082660245488e+00 3.590000000000000000e+02
4.665009105390780064e+00 -5.112011684510672893e+00 3.590000000000000000e+02
5.815422930672311530e+00 -4.289486286361100298e+00 3.590000000000000000e+02
6.965836755953843884e+00 -3.466960888211527703e+00 3.590000000000000000e+02
8.116250581235375350e+00 -2.644435490061955107e+00 3.590000000000000000e+02
9.266664406516907704e+00 -1.821910091912382512e+00 3.590000000000000000e+02
6.335380426465242465e-02 -8.402113277108963274e+00 3.600000000000000000e+02
1.213767629546183890e+00 -7.579587878959390679e+00 3.600000000000000000e+02
2.364181454827716244e+00 -6.757062480809818084e+00 3.600000000000000000e+02
3.514595280109247710e+00 -5.934537082660245488e+00 3.600000000000000000e+02
4.665009105390780064e+00 -5.112011684510672893e+00 3.600000000000000000e+02
5.815422930672311530e+00 -4.289486286361100298e+00 3.600000000000000000e+02
6.965836755953843884e+00 -3.466960888211527703e+00 3.600000000000000000e+02
8.116250581235375350e+00 -2.644435490061955107e+00 3.600000000000000000e+02
9.266664406516907704e+00 -1.821910091912382512e+00 3.600000000000000000e+02
6.335380426465242465e-02 -8.402113277108963274e+00 3.610000000000000000e+02
1.213767629546183890e+00 -7.579587878959390679e+00 3.610000000000000000e+02
2.364181454827716244e+00 -6.757062480809818084e+00 3.610000000000000000e+02
3.514595280109247710e+00 -5.934537082660245488e+00 3.610000000000000000e+02
4.665009105390780064e+00 -5.112011684510672893e+00 3.610000000000000000e+02
5.815422930672311530e+00 -4.289486286361100298e+00 3.610000000000000000e+02
6.965836755953843884e+00 -3.466960888211527703e+00 3.610000000000000000e+02
8.116250581235375350e+00 -2.644435490061955107e+00 3.610000000000000000e+02
9.266664406516907704e+00 -1.821910091912382512e+00 3.610000000000000000e+02
6.335380426465242465e-02 -8.402113277108963274e+00 3.620000000000000000e+02
1.213767629546183890e+00 -7.579587878959390679e+00 3.620000000000000000e+02
2.364181454827716244e+00 -6.757062480809818084e+00 3.620000000000000000e+02
3.514595280109247710e+00 -5.934537082660245488e+00 3.620000000000000000e+02
4.665009105390780064e+00 -5.112011684510672893e+00 3.620000000000000000e+02
5.815422930672311530e+00 -4.289486286361100298e+00 3.620000000000000000e+02
6.965836755953843884e+00 -3.466960888211527703e+00 3.620000000000000000e+02
8.116250581235375350e+00 -2.644435490061955107e+00 3.620000000000000000e+02
9.266664406516907704e+00 -1.821910091912382512e+00 3.620000000000000000e+02
6.335380426465242465e-02 -8.402113277108963274e+00 3.630000000000000000e+02
1.213767629546183890e+00 -7.579587878959390679e+00 3.630000000000000000e+02
2.364181454827716244e+00 -6.757062480809818084e+00 3.630000000000000000e+02
3.514595280109247710e+00 -5.934537082660245488e+00 3.630000000000000000e+02
4.665009105390780064e+00 -5.112011684510672893e+00 3.630000000000000000e+02
5.815422930672311530e+00 -4.289486286361100298e+00 3.630000000000000000e+02
6.965836755953843884e+00 -3.466960888211527703e+00 3.630000000000000000e+02
8.116250581235375350e+00 -2.644435490061955107e+00 3.630000000000000000e+02
9.266664406516907704e+00 -1.821910091912382512e+00 3.630000000000000000e+02
6.335380426465242465e-02 -8.402113277108963274e+00 3.640000000000000000e+02
1.213767629546183890e+00 -7.579587878959390679e+00 3.640000000000000000e+02
2.364181454827716244e+00 -6.757062480809818084e+00 3.640000000000000000e+02
3.514595280109247710e+00 -5.934537082660245488e+00 3.640000000000000000e+02
4.665009105390780064e+00 -5.112011684510672893e+00 3.640000000000000000e+02
5.815422930672311530e+00 -4.289486286361100298e+00 3.640000000000000000e+02
6.965836755953843884e+00 -3.466960888211527703e+00 3.640000000000000000e+02
8.116250581235375350e+00 -2.644435490061955107e+00 3.640000000000000000e+02
9.266664406516907704e+00 -1.821910091912382512e+00 3.640000000000000000e+02
1.049823415980204455e+00 -8.566057490674943153e+00 3.650000000000000000e+02
2.200237241261736365e+00 -7.743532092525370558e+00 3.650000000000000000e+02
3.350651066543268275e+00 -6.921006694375797963e+00 3.650000000000000000e+02
4.501064891824800185e+00 -6.098481296226225368e+00 3.650000000000000000e+02
5.651478717106332539e+00 -5.275955898076652772e+00 3.650000000000000000e+02
6.801892542387864005e+00 -4.453430499927080177e+00 3.650000000000000000e+02
7.952306367669396359e+00 -3.630905101777507138e+00 3.650000000000000000e+02
9.102720192950927824e+00 -2.808379703627934987e+00 3.650000000000000000e+02
1.049823415980204455e+00 -8.566057490674943153e+00 3.660000000000000000e+02
2.200237241261736365e+00 -7.743532092525370558e+00 3.660000000000000000e+02
3.350651066543268275e+00 -6.921006694375797963e+00 3.660000000000000000e+02
4.501064891824800185e+00 -6.098481296226225368e+00 3.660000000000000000e+02
5.651478717106332539e+00 -5.275955898076652772e+00 3.660000000000000000e+02
6.801892542387864005e+00 -4.453430499927080177e+00 3.660000000000000000e+02
7.952306367669396359e+00 -3.630905101777507138e+00 3.660000000000000000e+02
9.102720192950927824e+00 -2.808379703627934987e+00 3.660000000000000000e+02
1.049823415980204455e+00 -8.566057490674943153e+00 3.670000000000000000e+02
2.200237241261736365e+00 -7.743532092525370558e+00 3.670000000000000000e+02
3.350651066543268275e+00 -6.921006694375797963e+00 3.670000000000000000e+02
4.501064891824800185e+00 -6.098481296226225368e+00 3.670000000000000000e+02
5.651478717106332539e+00 -5.275955898076652772e+00 3.670000000000000000e+02
6.801892542387864005e+00 -4.453430499927080177e+00 3.670000000000000000e+02
7.952306367669396359e+00 -3.630905101777507138e+00 3.670000000000000000e+02
9.102720192950927824e+00 -2.808379703627934987e+00 3.670000000000000000e+02
1.049823415980204455e+00 -8.566057490674943153e+00 3.680000000000000000e+02
2.200237241261736365e+00 -7.743532092525370558e+00 3.680000000000000000e+02
3.350651066543268275e+00 -6.921006694375797963e+00 3.680000000000000000e+02
4.501064891824800185e+00 -6.098481296226225368e+00 3.680000000000000000e+02
5.651478717106332539e+00 -5.275955898076652772e+00 3.680000000000000000e+02
6.801892542387864005e+00 -4.453430499927080177e+00 3.680000000000000000e+02
7.952306367669396359e+00 -3.630905101777507138e+00 3.680000000000000000e+02
9.102720192950927824e+00 -2.808379703627934987e+00 3.680000000000000000e+02
1.049823415980204455e+00 -8.566057490674943153e+00 3.690000000000000000e+02
2.200237241261736365e+00 -7.743532092525370558e+00 3.690000000000000000e+02
3.350651066543268275e+00 -6.921006694375797963e+00 3.690000000000000000e+02
4.501064891824800185e+00 -6.098481296226225368e+00 3.690000000000000000e+02
5.651478717106332539e+00 -5.275955898076652772e+00 3.690000000000000000e+02
6.801892542387864005e+00 -4.453430499927080177e+00 3.690000000000000000e+02
7.952306367669396359e+00 -3.630905101777507138e+00 3.690000000000000000e+02
9.102720192950927824e+00 -2.808379703627934987e+00 3.690000000000000000e+02
1.049823415980204455e+00 -8.566057490674943153e+00 3.700000000000000000e+02
2.200237241261736365e+00 -7.743532092525370558e+00 3.700000000000000000e+02
3.350651066543268275e+00 -6.921006694375797963e+00 3.700000000000000000e+02
4.501064891824800185e+00 -6.098481296226225368e+00 3.700000000000000000e+02
5.651478717106332539e+00 -5.275955898076652772e+00 3.700000000000000000e+02
6.801892542387864005e+00 -4.453430499927080177e+00 3.700000000000000000e+02
7.952306367669396359e+00 -3.630905101777507138e+00 3.700000000000000000e+02
9.102720192950927824e+00 -2.808379703627934987e+00 3.700000000000000000e+02
1.049823415980204455e+00 -8.566057490674943153e+00 3.710000000000000000e+02
2.200237241261736365e+00 -7.743532092525370558e+00 3.710000000000000000e+02
3.350651066543268275e+00 -6.921006694375797963e+00 3.710000000000000000e+02
