5.678653161806954230e+00 -1.169681056349254789e+01 3.420000000000000000e+02
6.938694192077134559e+00 -1.233891382780107193e+01 3.420000000000000000e+02
8.198735222347316665e+00 -1.298101709210959420e+01 3.420000000000000000e+02
9.458776252617496993e+00 -1.362312035641811825e+01 3.420000000000000000e+02
-6.215519895439500786e-01 -8.486294241949932982e+00 3.430000000000000000e+02
6.384890407262306944e-01 -9.128397506258455252e+00 3.430000000000000000e+02
1.898530070996411023e+00 -9.770500770566979298e+00 3.430000000000000000e+02
3.158571101266591796e+00 -1.041260403487550157e+01 3.430000000000000000e+02
4.418612131536773013e+00 -1.105470729918402562e+01 3.430000000000000000e+02
5.678653161806954230e+00 -1.169681056349254789e+01 3.430000000000000000e+02
6.938694192077134559e+00 -1.233891382780107193e+01 3.430000000000000000e+02
8.198735222347316665e+00 -1.298101709210959420e+01 3.430000000000000000e+02
9.458776252617496993e+00 -1.362312035641811825e+01 3.430000000000000000e+02
-6.215519895439500786e-01 -8.486294241949932982e+00 3.440000000000000000e+02
6.384890407262306944e-01 -9.128397506258455252e+00 3.440000000000000000e+02
1.898530070996411023e+00 -9.770500770566979298e+00 3.440000000000000000e+02
3.158571101266591796e+00 -1.041260403487550157e+01 3.440000000000000000e+02
4.418612131536773013e+00 -1.105470729918402562e+01 3.440000000000000000e+02
5.678653161806954230e+00 -1.169681056349254789e+01 3.440000000000000000e+02
6.938694192077134559e+00 -1.233891382780107193e+01 3.440000000000000000e+02
8.198735222347316665e+00 -1.298101709210959420e+01 3.440000000000000000e+02
9.458776252617496993e+00 -1.362312035641811825e+01 3.440000000000000000e+02
-6.215519895439500786e-01 -8.486294241949932982e+00 3.450000000000000000e+02
6.384890407262306944e-01 -9.128397506258455252e+00 3.450000000000000000e+02
1.898530070996411023e+00 -9.770500770566979298e+00 3.450000000000000000e+02
3.158571101266591796e+00 -1.041260403487550157e+01 3.450000000000000000e+02
4.418612131536773013e+00 -1.105470729918402562e+01 3.450000000000000000e+02
5.678653161806954230e+00 -1.169681056349254789e+01 3.450000000000000000e+02
6.938694192077134559e+00 -1.233891382780107193e+01 3.450000000000000000e+02
8.198735222347316665e+00 -1.298101709210959420e+01 3.450000000000000000e+02
9.458776252617496993e+00 -1.362312035641811825e+01 3.450000000000000000e+02
-6.215519895439500786e-01 -8.486294241949932982e+00 3.460000000000000000e+02
6.384890407262306944e-01 -9.128397506258455252e+00 3.460000000000000000e+02
1.898530070996411023e+00 -9.770500770566979298e+00 3.460000000000000000e+02
3.158571101266591796e+00 -1.041260403487550157e+01 3.460000000000000000e+02
4.418612131536773013e+00 -1.105470729918402562e+01 3.460000000000000000e+02
5.678653161806954230e+00 -1.169681056349254789e+01 3.460000000000000000e+02
6.938694192077134559e+00 -1.233891382780107193e+01 3.460000000000000000e+02
8.198735222347316665e+00 -1.298101709210959420e+01 3.460000000000000000e+02
9.458776252617496993e+00 -1.362312035641811825e+01 3.460000000000000000e+02
-6.215519895439500786e-01 -8.486294241949932982e+00 3.470000000000000000e+02
6.384890407262306944e-01 -9.128397506258455252e+00 3.470000000000000000e+02
1.898530070996411023e+00 -9.770500770566979298e+00 3.470000000000000000e+02
3.158571101266591796e+00 -1.041260403487550157e+01 3.470000000000000000e+02
4.418612131536773013e+00 -1.105470729918402562e+01 3.470000000000000000e+02
5.678653161806954230e+00 -1.169681056349254789e+01 3.470000000000000000e+02
6.938694192077134559e+00 -1.233891382780107193e+01 3.470000000000000000e+02
8.198735222347316665e+00 -1.298101709210959420e+01 3.470000000000000000e+02
9.458776252617496993e+00 -1.362312035641811825e+01 3.470000000000000000e+02
-6.215519895439500786e-01 -8.486294241949932982e+00 3.480000000000000000e+02
6.384890407262306944e-01 -9.128397506258455252e+00 3.480000000000000000e+02
1.898530070996411023e+00 -9.770500770566979298e+00 3.480000000000000000e+02
3.158571101266591796e+00 -1.041260403487550157e+01 3.480000000000000000e+02
4.418612131536773013e+00 -1.105470729918402562e+01 3.480000000000000000e+02
5.678653161806954230e+00 -1.169681056349254789e+01 3.480000000000000000e+02
6.938694192077134559e+00 -1.233891382780107193e+01 3.480000000000000000e+02
8.198735222347316665e+00 -1.298101709210959420e+01 3.480000000000000000e+02
9.458776252617496993e+00 -1.362312035641811825e+01 3.480000000000000000e+02
-6.215519895439500786e-01 -8.486294241949932982e+00 3.490000000000000000e+02
6.384890407262306944e-01 -9.128397506258455252e+00 3.490000000000000000e+02
1.898530070996411023e+00 -9.770500770566979298e+00 3.490000000000000000e+02
3.158571101266591796e+00 -1.041260403487550157e+01 3.490000000000000000e+02
4.418612131536773013e+00 -1.105470729918402562e+01 3.490000000000000000e+02
5.678653161806954230e+00 -1.169681056349254789e+01 3.490000000000000000e+02
6.938694192077134559e+00 -1.233891382780107193e+01 3.490000000000000000e+02
8.198735222347316665e+00 -1.298101709210959420e+01 3.490000000000000000e+02
9.458776252617496993e+00 -1.362312035641811825e+01 3.490000000000000000e+02
-6.215519895439500786e-01 -8.486294241949932982e+00 3.500000000000000000e+02
6.384890407262306944e-01 -9.128397506258455252e+00 3.500000000000000000e+02
1.898530070996411023e+00 -9.770500770566979298e+00 3.500000000000000000e+02
3.158571101266591796e+00 -1.041260403487550157e+01 3.500000000000000000e+02
4.418612131536773013e+00 -1.105470729918402562e+01 3.500000000000000000e+02
5.678653161806954230e+00 -1.169681056349254789e+01 3.500000000000000000e+02
6.938694192077134559e+00 -1.233891382780107193e+01 3.500000000000000000e+02
8.198735222347316665e+00 -1.298101709210959420e+01 3.500000000000000000e+02
9.458776252617496993e+00 -1.362312035641811825e+01 3.500000000000000000e+02
-6.215519895439500786e-01 -8.486294241949932982e+00 3.510000000000000000e+02
6.384890407262306944e-01 -9.128397506258455252e+00 3.510000000000000000e+02
1.898530070996411023e+00 -9.770500770566979298e+00 3.510000000000000000e+02
3.158571101266591796e+00 -1.041260403487550157e+01 3.510000000000000000e+02
4.418612131536773013e+00 -1.105470729918402562e+01 3.510000000000000000e+02
5.678653161806954230e+00 -1.169681056349254789e+01 3.510000000000000000e+02
6.938694192077134559e+00 -1.233891382780107193e+01 3.510000000000000000e+02
8.198735222347316665e+00 -1.298101709210959420e+01 3.510000000000000000e+02
9.458776252617496993e+00 -1.362312035641811825e+01 3.510000000000000000e+02
-6.215519895439500786e-01 -8.486294241949932982e+00 3.520000000000000000e+02
6.384890407262306944e-01 -9.128397506258455252e+00 3.520000000000000000e+02
1.898530070996411023e+00 -9.770500770566979298e+00 3.520000000000000000e+02
3.158571101266591796e+00 -1.041260403487550157e+01 3.520000000000000000e+02
4.418612131536773013e+00 -1.105470729918402562e+01 3.520000000000000000e+02
5.678653161806954230e+00 -1.169681056349254789e+01 3.520000000000000000e+02
6.938694192077134559e+00 -1.233891382780107193e+01 3.520000000000000000e+02
8.198735222347316665e+00 -1.298101709210959420e+01 3.520000000000000000e+02
9.458776252617496993e+00 -1.362312035641811825e+01 3.520000000000000000e+02
-6.215519895439500786e-01 -8.486294241949932982e+00 3.530000000000000000e+02
6.384890407262306944e-01 -9.128397506258455252e+00 3.530000000000000000e+02
1.898530070996411023e+00 -9.770500770566979298e+00 3.530000000000000000e+02
3.158571101266591796e+00 -1.041260403487550157e+01 3.530000000000000000e+02
4.418612131536773013e+00 -1.105470729918402562e+01 3.530000000000000000e+02
5.678653161806954230e+00 -1.169681056349254789e+01 3.530000000000000000e+02
6.938694192077134559e+00 -1.233891382780107193e+01 3.530000000000000000e+02
8.198735222347316665e+00 -1.298101709210959420e+01 3.530000000000000000e+02
9.458776252617496993e+00 -1.362312035641811825e+01 3.530000000000000000e+02
-6.215519895439500786e-01 -8.486294241949932982e+00 3.540000000000000000e+02
6.384890407262306944e-01 -9.128397506258455252e+00 3.540000000000000000e+02
1.898530070996411023e+00 -9.770500770566979298e+00 3.540000000000000000e+02
3.158571101266591796e+00 -1.041260403487550157e+01 3.540000000000000000e+02
4.418612131536773013e+00 -1.105470729918402562e+01 3.540000000000000000e+02
5.678653161806954230e+00 -1.169681056349254789e+01 3.540000000000000000e+02
6.938694192077134559e+00 -1.233891382780107193e+01 3.540000000000000000e+02
8.198735222347316665e+00 -1.298101709210959420e+01 3.540000000000000000e+02
9.458776252617496993e+00 -1.362312035641811825e+01 3.540000000000000000e+02
-3.125831065631210492e-01 -9.437366389239285169e+00 3.550000000000000000e+02
9.474579237070592796e-01 -1.007946965354780744e+01 3.550000000000000000e+02
2.207498953977240053e+00 -1.072157291785633149e+01 3.550000000000000000e+02
3.467539984247420826e+00 -1.136367618216485376e+01 3.550000000000000000e+02
4.727581014517602043e+00 -1.200577944647337780e+01 3.550000000000000000e+02
5.987622044787782372e+00 -1.264788271078190007e+01 3.550000000000000000e+02
7.247663075057963589e+00 -1.328998597509042412e+01 3.550000000000000000e+02
8.507704105328144806e+00 -1.393208923939894817e+01 3.550000000000000000e+02
-3.125831065631210492e-01 -9.437366389239285169e+00 3.560000000000000000e+02
9.474579237070592796e-01 -1.007946965354780744e+01 3.560000000000000000e+02
2.207498953977240053e+00 -1.072157291785633149e+01 3.560000000000000000e+02
3.467539984247420826e+00 -1.136367618216485376e+01 3.560000000000000000e+02
4.727581014517602043e+00 -1.200577944647337780e+01 3.560000000000000000e+02
5.987622044787782372e+00 -1.264788271078190007e+01 3.560000000000000000e+02
7.247663075057963589e+00 -1.328998597509042412e+01 3.560000000000000000e+02
8.507704105328144806e+00 -1.393208923939894817e+01 3.560000000000000000e+02
-6.215519895439500786e-01 -8.486294241949932982e+00 3.570000000000000000e+02
6.384890407262306944e-01 -9.128397506258455252e+00 3.570000000000000000e+02
1.898530070996411023e+00 -9.770500770566979298e+00 3.570000000000000000e+02
3.158571101266591796e+00 -1.041260403487550157e+01 3.570000000000000000e+02
4.418612131536773013e+00 -1.105470729918402562e+01 3.570000000000000000e+02
5.678653161806954230e+00 -1.169681056349254789e+01 3.570000000000000000e+02
6.938694192077134559e+00 -1.233891382780107193e+01 3.570000000000000000e+02
8.198735222347316665e+00 -1.298101709210959420e+01 3.570000000000000000e+02
9.458776252617496993e+00 -1.362312035641811825e+01 3.570000000000000000e+02
-6.215519895439500786e-01 -8.486294241949932982e+00 3.580000000000000000e+02
6.384890407262306944e-01 -9.128397506258455252e+00 3.580000000000000000e+02
1.898530070996411023e+00 -9.770500770566979298e+00 3.580000000000000000e+02
3.158571101266591796e+00 -1.041260403487550157e+01 3.580000000000000000e+02
4.418612131536773013e+00 -1.105470729918402562e+01 3.580000000000000000e+02
5.678653161806954230e+00 -1.169681056349254789e+01 3.580000000000000000e+02
6.938694192077134559e+00 -1.233891382780107193e+01 3.580000000000000000e+02
8.198735222347316665e+00 -1.298101709210959420e+01 3.580000000000000000e+02
9.458776252617496993e+00 -1.362312035641811825e+01 3.580000000000000000e+02
1.071881728288767732e+01 -1.426522362072664052e+01 3.580000000000000000e+02
-6.215519895439500786e-01 -8.486294241949932982e+00 3.590000000000000000e+02
6.384890407262306944e-01 -9.128397506258455252e+00 3.590000000000000000e+02
1.898530070996411023e+00 -9.770500770566979298e+00 3.590000000000000000e+02
3.158571101266591796e+00 -1.041260403487550157e+01 3.590000000000000000e+02
4.418612131536773013e+00 -1.105470729918402562e+01 3.590000000000000000e+02
5.678653161806954230e+00 -1.169681056349254789e+01 3.590000000000000000e+02
6.938694192077134559e+00 -1.233891382780107193e+01 3.590000000000000000e+02
8.198735222347316665e+00 -1.298101709210959420e+01 3.590000000000000000e+02
9.458776252617496993e+00 -1.362312035641811825e+01 3.590000000000000000e+02
1.071881728288767732e+01 -1.426522362072664052e+01 3.590000000000000000e+02
-6.215519895439500786e-01 -8.486294241949932982e+00 3.600000000000000000e+02
6.384890407262306944e-01 -9.128397506258455252e+00 3.600000000000000000e+02
1.898530070996411023e+00 -9.770500770566979298e+00 3.600000000000000000e+02
3.158571101266591796e+00 -1.041260403487550157e+01 3.600000000000000000e+02
4.418612131536773013e+00 -1.105470729918402562e+01 3.600000000000000000e+02
5.678653161806954230e+00 -1.169681056349254789e+01 3.600000000000000000e+02
6.938694192077134559e+00 -1.233891382780107193e+01 3.600000000000000000e+02
8.198735222347316665e+00 -1.298101709210959420e+01 3.600000000000000000e+02
9.458776252617496993e+00 -1.362312035641811825e+01 3.600000000000000000e+02
1.071881728288767732e+01 -1.426522362072664052e+01 3.600000000000000000e+02
-6.215519895439500786e-01 -8.486294241949932982e+00 3.610000000000000000e+02
6.384890407262306944e-01 -9.128397506258455252e+00 3.610000000000000000e+02
1.898530070996411023e+00 -9.770500770566979298e+00 3.610000000000000000e+02
3.158571101266591796e+00 -1.041260403487550157e+01 3.610000000000000000e+02
4.418612131536773013e+00 -1.105470729918402562e+01 3.610000000000000000e+02
5.678653161806954230e+00 -1.169681056349254789e+01 3.610000000000000000e+02
6.938694192077134559e+00 -1.233891382780107193e+01 3.610000000000000000e+02
8.198735222347316665e+00 -1.298101709210959420e+01 3.610000000000000000e+02
9.458776252617496993e+00 -1.362312035641811825e+01 3.610000000000000000e+02
-3.125831065631210492e-01 -9.437366389239285169e+00 3.620000000000000000e+02
9.474579237070592796e-01 -1.007946965354780744e+01 3.620000000000000000e+02
2.207498953977240053e+00 -1.072157291785633149e+01 3.620000000000000000e+02
3.467539984247420826e+00 -1.136367618216485376e+01 3.620000000000000000e+02
4.727581014517602043e+00 -1.200577944647337780e+01 3.620000000000000000e+02
5.987622044787782372e+00 -1.264788271078190007e+01 3.620000000000000000e+02
7.247663075057963589e+00 -1.328998597509042412e+01 3.620000000000000000e+02
8.507704105328144806e+00 -1.393208923939894817e+01 3.620000000000000000e+02
-6.215519895439500786e-01 -8.486294241949932982e+00 3.630000000000000000e+02
6.384890407262306944e-01 -9.128397506258455252e+00 3.630000000000000000e+02
1.898530070996411023e+00 -9.770500770566979298e+00 3.630000000000000000e+02
3.158571101266591796e+00 -1.041260403487550157e+01 3.630000000000000000e+02
4.418612131536773013e+00 -1.105470729918402562e+01 3.630000000000000000e+02
5.678653161806954230e+00 -1.169681056349254789e+01 3.630000000000000000e+02
6.938694192077134559e+00 -1.233891382780107193e+01 3.630000000000000000e+02
8.198735222347316665e+00 -1.298101709210959420e+01 3.630000000000000000e+02
9.458776252617496993e+00 -1.362312035641811825e+01 3.630000000000000000e+02
-6.215519895439500786e-01 -8.486294241949932982e+00 3.640000000000000000e+02
6.384890407262306944e-01 -9.128397506258455252e+00 3.640000000000000000e+02
1.898530070996411023e+00 -9.770500770566979298e+00 3.640000000000000000e+02
3.158571101266591796e+00 -1.041260403487550157e+01 3.640000000000000000e+02
4.418612131536773013e+00 -1.105470729918402562e+01 3.640000000000000000e+02
5.678653161806954230e+00 -1.169681056349254789e+01 3.640000000000000000e+02
6.938694192077134559e+00 -1.233891382780107193e+01 3.640000000000000000e+02
8.198735222347316665e+00 -1.298101709210959420e+01 3.640000000000000000e+02
9.458776252617496993e+00 -1.362312035641811825e+01 3.640000000000000000e+02
-6.215519895439500786e-01 -8.486294241949932982e+00 3.650000000000000000e+02
6.384890407262306944e-01 -9.128397506258455252e+00 3.650000000000000000e+02
1.898530070996411023e+00 -9.770500770566979298e+00 3.650000000000000000e+02
3.158571101266591796e+00 -1.041260403487550157e+01 3.650000000000000000e+02
4.418612131536773013e+00 -1.105470729918402562e+01 3.650000000000000000e+02
5.678653161806954230e+00 -1.169681056349254789e+01 3.650000000000000000e+02
6.938694192077134559e+00 -1.233891382780107193e+01 3.650000000000000000e+02
8.198735222347316665e+00 -1.298101709210959420e+01 3.650000000000000000e+02
9.458776252617496993e+00 -1.362312035641811825e+01 3.650000000000000000e+02
-6.215519895439500786e-01 -8.486294241949932982e+00 3.660000000000000000e+02
6.384890407262306944e-01 -9.128397506258455252e+00 3.660000000000000000e+02
1.898530070996411023e+00 -9.770500770566979298e+00 3.660000000000000000e+02
3.158571101266591796e+00 -1.041260403487550157e+01 3.660000000000000000e+02
4.418612131536773013e+00 -1.105470729918402562e+01 3.660000000000000000e+02
5.678653161806954230e+00 -1.169681056349254789e+01 3.660000000000000000e+02
6.938694192077134559e+00 -1.233891382780107193e+01 3.660000000000000000e+02
8.198735222347316665e+00 -1.298101709210959420e+01 3.660000000000000000e+02
9.458776252617496993e+00 -1.362312035641811825e+01 3.660000000000000000e+02
-6.215519895439500786e-01 -8.486294241949932982e+00 3.670000000000000000e+02
6.384890407262306944e-01 -9.128397506258455252e+00 3.670000000000000000e+02
1.898530070996411023e+00 -9.770500770566979298e+00 3.670000000000000000e+02
3.158571101266591796e+00 -1.041260403487550157e+01 3.670000000000000000e+02
4.418612131536773013e+00 -1.105470729918402562e+01 3.670000000000000000e+02
5.678653161806954230e+00 -1.169681056349254789e+01 3.670000000000000000e+02
6.938694192077134559e+00 -1.233891382780107193e+01 3.670000000000000000e+02
8.198735222347316665e+00 -1.298101709210959420e+01 3.670000000000000000e+02
9.458776252617496993e+00 -1.362312035641811825e+01 3.670000000000000000e+02
1.071881728288767732e+01 -1.426522362072664052e+01 3.670000000000000000e+02
-6.215519895439500786e-01 -8.486294241949932982e+00 3.680000000000000000e+02
6.384890407262306944e-01 -9.128397506258455252e+00 3.680000000000000000e+02
1.898530070996411023e+00 -9.770500770566979298e+00 3.680000000000000000e+02
3.158571101266591796e+00 -1.041260403487550157e+01 3.680000000000000000e+02
4.418612131536773013e+00 -1.105470729918402562e+01 3.680000000000000000e+02
5.678653161806954230e+00 -1.169681056349254789e+01 3.680000000000000000e+02
6.938694192077134559e+00 -1.233891382780107193e+01 3.680000000000000000e+02
8.198735222347316665e+00 -1.298101709210959420e+01 3.680000000000000000e+02
9.458776252617496993e+00 -1.362312035641811825e+01 3.680000000000000000e+02
-6.215519895439500786e-01 -8.486294241949932982e+00 3.690000000000000000e+02
6.384890407262306944e-01 -9.128397506258455252e+00 3.690000000000000000e+02
1.898530070996411023e+00 -9.770500770566979298e+00 3.690000000000000000e+02
3.158571101266591796e+00 -1.041260403487550157e+01 3.690000000000000000e+02
4.418612131536773013e+00 -1.105470729918402562e+01 3.690000000000000000e+02
5.678653161806954230e+00 -1.169681056349254789e+01 3.690000000000000000e+02
6.938694192077134559e+00 -1.233891382780107193e+01 3.690000000000000000e+02
8.198735222347316665e+00 -1.298101709210959420e+01 3.690000000000000000e+02
9.458776252617496993e+00 -1.362312035641811825e+01 3.690000000000000000e+02
-6.215519895439500786e-01 -8.486294241949932982e+00 3.700000000000000000e+02
6.384890407262306944e-01 -9.128397506258455252e+00 3.700000000000000000e+02
1.898530070996411023e+00 -9.770500770566979298e+00 3.700000000000000000e+02
3.158571101266591796e+00 -1.041260403487550157e+01 3.700000000000000000e+02
4.418612131536773013e+00 -1.105470729918402562e+01 3.700000000000000000e+02
5.678653161806954230e+00 -1.169681056349254789e+01 3.700000000000000000e+02
6.938694192077134559e+00 -1.233891382780107193e+01 3.700000000000000000e+02
8.198735222347316665e+00 -1.298101709210959420e+01 3.700000000000000000e+02
9.458776252617496993e+00 -1.362312035641811825e+01 3.700000000000000000e+02
-6.215519895439500786e-01 -8.486294241949932982e+00 3.710000000000000000e+02
6.384890407262306944e-01 -9.128397506258455252e+00 3.710000000000000000e+02
1.898530070996411023e+00 -9.770500770566979298e+00 3.710000000000000000e+02
3.158571101266591796e+00 -1.041260403487550157e+01 3.710000000000000000e+02
4.418612131536773013e+00 -1.105470729918402562e+01 3.710000000000000000e+02
5.678653161806954230e+00 -1.169681056349254789e+01 3.710000000000000000e+02
6.938694192077134559e+00 -1.233891382780107193e+01 3.710000000000000000e+02
8.198735222347316665e+00 -1.298101709210959420e+01 3.710000000000000000e+02
9.458776252617496993e+00 -1.362312035641811825e+01 3.710000000000000000e+02
-6.215519895439500786e-01 -8.486294241949932982e+00 3.720000000000000000e+02
6.384890407262306944e-01 -9.128397506258455252e+00 3.720000000000000000e+02
1.898530070996411023e+00 -9.770500770566979298e+00 3.720000000000000000e+02
3.158571101266591796e+00 -1.041260403487550157e+01 3.720000000000000000e+02
4.418612131536773013e+00 -1.105470729918402562e+01 3.720000000000000000e+02
5.678653161806954230e+00 -1.169681056349254789e+01 3.720000000000000000e+02
6.938694192077134559e+00 -1.233891382780107193e+01 3.720000000000000000e+02
8.198735222347316665e+00 -1.298101709210959420e+01 3.720000000000000000e+02
9.458776252617496993e+00 -1.362312035641811825e+01 3.720000000000000000e+02
-6.215519895439500786e-01 -8.486294241949932982e+00 3.730000000000000000e+02
6.384890407262306944e-01 -9.128397506258455252e+00 3.730000000000000000e+02
1.898530070996411023e+00 -9.770500770566979298e+00 3.730000000000000000e+02
3.158571101266591796e+00 -1.041260403487550157e+01 3.730000000000000000e+02
4.418612131536773013e+00 -1.105470729918402562e+01 3.730000000000000000e+02
5.678653161806954230e+00 -1.169681056349254789e+01 3.730000000000000000e+02
6.938694192077134559e+00 -1.233891382780107193e+01 3.730000000000000000e+02
8.198735222347316665e+00 -1.298101709210959420e+01 3.730000000000000000e+02
9.458776252617496993e+00 -1.362312035641811825e+01 3.730000000000000000e+02
-6.215519895439500786e-01 -8.486294241949932982e+00 3.740000000000000000e+02
6.384890407262306944e-01 -9.128397506258455252e+00 3.740000000000000000e+02
1.898530070996411023e+00 -9.770500770566979298e+00 3.740000000000000000e+02
3.158571101266591796e+00 -1.041260403487550157e+01 3.740000000000000000e+02
4.418612131536773013e+00 -1.105470729918402562e+01 3.740000000000000000e+02
5.678653161806954230e+00 -1.169681056349254789e+01 3.740000000000000000e+02
6.938694192077134559e+00 -1.233891382780107193e+01 3.740000000000000000e+02
8.198735222347316665e+00 -1.298101709210959420e+01 3.740000000000000000e+02
9.458776252617496993e+00 -1.362312035641811825e+01 3.740000000000000000e+02
1.071881728288767732e+01 -1.426522362072664052e+01 3.740000000000000000e+02
-6.215519895439500786e-01 -8.486294241949932982e+00 3.750000000000000000e+02
6.384890407262306944e-01 -9.128397506258455252e+00 3.750000000000000000e+02
1.898530070996411023e+00 -9.770500770566979298e+00 3.750000000000000000e+02
3.158571101266591796e+00 -1.041260403487550157e+01 3.750000000000000000e+02
4.418612131536773013e+00 -1.105470729918402562e+01 3.750000000000000000e+02
5.678653161806954230e+00 -1.169681056349254789e+01 3.750000000000000000e+02
6.938694192077134559e+00 -1.233891382780107193e+01 3.750000000000000000e+02
8.198735222347316665e+00 -1.298101709210959420e+01 3.750000000000000000e+02
9.458776252617496993e+00 -1.362312035641811825e+01 3.750000000000000000e+02
1.071881728288767732e+01 -1.426522362072664052e+01 3.750000000000000000e+02
-6.215519895439500786e-01 -8.486294241949932982e+00 3.760000000000000000e+02
6.384890407262306944e-01 -9.128397506258455252e+00 3.760000000000000000e+02
1.898530070996411023e+00 -9.770500770566979298e+00 3.760000000000000000e+02
3.158571101266591796e+00 -1.041260403487550157e+01 3.760000000000000000e+02
4.418612131536773013e+00 -1.105470729918402562e+01 3.760000000000000000e+02
5.678653161806954230e+00 -1.169681056349254789e+01 3.760000000000000000e+02
6.938694192077134559e+00 -1.233891382780107193e+01 3.760000000000000000e+02
8.198735222347316665e+00 -1.298101709210959420e+01 3.760000000000000000e+02
9.458776252617496993e+00 -1.362312035641811825e+01 3.760000000000000000e+02
1.071881728288767732e+01 -1.426522362072664052e+01 3.760000000000000000e+02
-6.215519895439500786e-01 -8.486294241949932982e+00 3.770000000000000000e+02
6.384890407262306944e-01 -9.128397506258455252e+00 3.770000000000000000e+02
1.898530070996411023e+00 -9.770500770566979298e+00 3.770000000000000000e+02
3.158571101266591796e+00 -1.041260403487550157e+01 3.770000000000000000e+02
4.418612131536773013e+00 -1.105470729918402562e+01 3.770000000000000000e+02
5.678653161806954230e+00 -1.169681056349254789e+01 3.770000000000000000e+02
6.938694192077134559e+00 -1.233891382780107193e+01 3.770000000000000000e+02
8.198735222347316665e+00 -1.298101709210959420e+01 3.770000000000000000e+02
9.458776252617496993e+00 -1.362312035641811825e+01 3.770000000000000000e+02
-6.215519895439500786e-01 -8.486294241949932982e+00 3.780000000000000000e+02
6.384890407262306944e-01 -9.128397506258455252e+00 3.780000000000000000e+02
1.898530070996411023e+00 -9.770500770566979298e+00 3.780000000000000000e+02
3.158571101266591796e+00 -1.041260403487550157e+01 3.780000000000000000e+02
4.418612131536773013e+00 -1.105470729918402562e+01 3.780000000000000000e+02
5.678653161806954230e+00 -1.169681056349254789e+01 3.780000000000000000e+02
6.938694192077134559e+00 -1.233891382780107193e+01 3.780000000000000000e+02
8.198735222347316665e+00 -1.298101709210959420e+01 3.780000000000000000e+02
9.458776252617496993e+00 -1.362312035641811825e+01 3.780000000000000000e+02
-6.215519895439500786e-01 -8.486294241949932982e+00 3.790000000000000000e+02
6.384890407262306944e-01 -9.128397506258455252e+00 3.790000000000000000e+02
1.898530070996411023e+00 -9.770500770566979298e+00 3.790000000000000000e+02
3.158571101266591796e+00 -1.041260403487550157e+01 3.790000000000000000e+02
4.418612131536773013e+00 -1.105470729918402562e+01 3.790000000000000000e+02
5.678653161806954230e+00 -1.169681056349254789e+01 3.790000000000000000e+02
6.938694192077134559e+00 -1.233891382780107193e+01 3.790000000000000000e+02
8.198735222347316665e+00 -1.298101709210959420e+01 3.790000000000000000e+02
9.458776252617496993e+00 -1.362312035641811825e+01 3.790000000000000000e+02
-6.215519895439500786e-01 -8.486294241949932982e+00 3.800000000000000000e+02
6.384890407262306944e-01 -9.128397506258455252e+00 3.800000000000000000e+02
1.898530070996411023e+00 -9.770500770566979298e+00 3.800000000000000000e+02
3.158571101266591796e+00 -1.041260403487550157e+01 3.800000000000000000e+02
4.418612131536773013e+00 -1.105470729918402562e+01 3.800000000000000000e+02
5.678653161806954230e+00 -1.169681056349254789e+01 3.800000000000000000e+02
6.938694192077134559e+00 -1.233891382780107193e+01 3.800000000000000000e+02
8.198735222347316665e+00 -1.298101709210959420e+01 3.800000000000000000e+02
9.458776252617496993e+00 -1.362312035641811825e+01 3.800000000000000000e+02
-6.215519895439500786e-01 -8.486294241949932982e+00 3.810000000000000000e+02
6.384890407262306944e-01 -9.128397506258455252e+00 3.810000000000000000e+02
1.898530070996411023e+00 -9.770500770566979298e+00 3.810000000000000000e+02
3.158571101266591796e+00 -1.041260403487550157e+01 3.810000000000000000e+02
4.418612131536773013e+00 -1.105470729918402562e+01 3.810000000000000000e+02
5.678653161806954230e+00 -1.169681056349254789e+01 3.810000000000000000e+02
6.938694192077134559e+00 -1.233891382780107193e+01 3.810000000000000000e+02
8.198735222347316665e+00 -1.298101709210959420e+01 3.810000000000000000e+02
9.458776252617496993e+00 -1.362312035641811825e+01 3.810000000000000000e+02
-6.215519895439500786e-01 -8.486294241949932982e+00 3.820000000000000000e+02
6.384890407262306944e-01 -9.128397506258455252e+00 3.820000000000000000e+02
1.898530070996411023e+00 -9.770500770566979298e+00 3.820000000000000000e+02
3.158571101266591796e+00 -1.041260403487550157e+01 3.820000000000000000e+02
4.418612131536773013e+00 -1.105470729918402562e+01 3.820000000000000000e+02
5.678653161806954230e+00 -1.169681056349254789e+01 3.820000000000000000e+02
6.938694192077134559e+00 -1.233891382780107193e+01 3.820000000000000000e+02
8.198735222347316665e+00 -1.298101709210959420e+01 3.820000000000000000e+02
9.458776252617496993e+00 -1.362312035641811825e+01 3.820000000000000000e+02
-6.215519895439500786e-01 -8.486294241949932982e+00 3.830000000000000000e+02
6.384890407262306944e-01 -9.128397506258455252e+00 3.830000000000000000e+02
1.898530070996411023e+00 -9.770500770566979298e+00 3.830000000000000000e+02
3.158571101266591796e+00 -1.041260403487550157e+01 3.830000000000000000e+02
4.418612131536773013e+00 -1.105470729918402562e+01 3.830000000000000000e+02
5.678653161806954230e+00 -1.169681056349254789e+01 3.830000000000000000e+02
6.938694192077134559e+00 -1.233891382780107193e+01 3.830000000000000000e+02
8.198735222347316665e+00 -1.298101709210959420e+01 3.830000000000000000e+02
9.458776252617496993e+00 -1.362312035641811825e+01 3.830000000000000000e+02
1.071881728288767732e+01 -1.426522362072664052e+01 3.830000000000000000e+02
-6.215519895439500786e-01 -8.486294241949932982e+00 3.840000000000000000e+02
6.384890407262306944e-01 -9.128397506258455252e+00 3.840000000000000000e+02
1.898530070996411023e+00 -9.770500770566979298e+00 3.840000000000000000e+02
3.158571101266591796e+00 -1.041260403487550157e+01 3.840000000000000000e+02
4.418612131536773013e+00 -1.105470729918402562e+01 3.840000000000000000e+02
5.678653161806954230e+00 -1.169681056349254789e+01 3.840000000000000000e+02
6.938694192077134559e+00 -1.233891382780107193e+01 3.840000000000000000e+02
8.198735222347316665e+00 -1.298101709210959420e+01 3.840000000000000000e+02
9.458776252617496993e+00 -1.362312035641811825e+01 3.840000000000000000e+02
-6.215519895439500786e-01 -8.486294241949932982e+00 3.850000000000000000e+02
6.384890407262306944e-01 -9.128397506258455252e+00 3.850000000000000000e+02
1.898530070996411023e+00 -9.770500770566979298e+00 3.850000000000000000e+02
3.158571101266591796e+00 -1.041260403487550157e+01 3.850000000000000000e+02
4.418612131536773013e+00 -1.105470729918402562e+01 3.850000000000000000e+02
5.678653161806954230e+00 -1.169681056349254789e+01 3.850000000000000000e+02
6.938694192077134559e+00 -1.233891382780107193e+01 3.850000000000000000e+02
8.198735222347316665e+00 -1.298101709210959420e+01 3.850000000000000000e+02
9.458776252617496993e+00 -1.362312035641811825e+01 3.850000000000000000e+02
-6.215519895439500786e-01 -8.486294241949932982e+00 3.860000000000000000e+02
6.384890407262306944e-01 -9.128397506258455252e+00 3.860000000000000000e+02
1.898530070996411023e+00 -9.770500770566979298e+00 3.860000000000000000e+02
3.158571101266591796e+00 -1.041260403487550157e+01 3.860000000000000000e+02
4.418612131536773013e+00 -1.105470729918402562e+01 3.860000000000000000e+02
5.678653161806954230e+00 -1.169681056349254789e+01 3.860000000000000000e+02
6.938694192077134559e+00 -1.233891382780107193e+01 3.860000000000000000e+02
8.198735222347316665e+00 -1.298101709210959420e+01 3.860000000000000000e+02
9.458776252617496993e+00 -1.362312035641811825e+01 3.860000000000000000e+02
-6.215519895439500786e-01 -8.486294241949932982e+00 3.870000000000000000e+02
6.384890407262306944e-01 -9.128397506258455252e+00 3.870000000000000000e+02
1.898530070996411023e+00 -9.770500770566979298e+00 3.870000000000000000e+02
3.158571101266591796e+00 -1.041260403487550157e+01 3.870000000000000000e+02
4.418612131536773013e+00 -1.105470729918402562e+01 3.870000000000000000e+02
5.678653161806954230e+00 -1.169681056349254789e+01 3.870000000000000000e+02
6.938694192077134559e+00 -1.233891382780107193e+01 3.870000000000000000e+02
8.198735222347316665e+00 -1.298101709210959420e+01 3.870000000000000000e+02
9.458776252617496993e+00 -1.362312035641811825e+01 3.870000000000000000e+02
-6.215519895439500786e-01 -8.486294241949932982e+00 3.880000000000000000e+02
6.384890407262306944e-01 -9.128397506258455252e+00 3.880000000000000000e+02
1.898530070996411023e+00 -9.770500770566979298e+00 3.880000000000000000e+02
3.158571101266591796e+00 -1.041260403487550157e+01 3.880000000000000000e+02
4.418612131536773013e+00 -1.105470729918402562e+01 3.880000000000000000e+02
5.678653161806954230e+00 -1.169681056349254789e+01 3.880000000000000000e+02
6.938694192077134559e+00 -1.233891382780107193e+01 3.880000000000000000e+02
8.198735222347316665e+00 -1.298101709210959420e+01 3.880000000000000000e+02
9.458776252617496993e+00 -1.362312035641811825e+01 3.880000000000000000e+02
-6.215519895439500786e-01 -8.486294241949932982e+00 3.890000000000000000e+02
6.384890407262306944e-01 -9.128397506258455252e+00 3.890000000000000000e+02
1.898530070996411023e+00 -9.770500770566979298e+00 3.890000000000000000e+02
3.158571101266591796e+00 -1.041260403487550157e+01 3.890000000000000000e+02
4.418612131536773013e+00 -1.105470729918402562e+01 3.890000000000000000e+02
5.678653161806954230e+00 -1.169681056349254789e+01 3.890000000000000000e+02
6.938694192077134559e+00 -1.233891382780107193e+01 3.890000000000000000e+02
8.198735222347316665e+00 -1.298101709210959420e+01 3.890000000000000000e+02
9.458776252617496993e+00 -1.362312035641811825e+01 3.890000000000000000e+02
-6.215519895439500786e-01 -8.486294241949932982e+00 3.900000000000000000e+02
6.384890407262306944e-01 -9.128397506258455252e+00 3.900000000000000000e+02
1.898530070996411023e+00 -9.770500770566979298e+00 3.900000000000000000e+02
3.158571101266591796e+00 -1.041260403487550157e+01 3.900000000000000000e+02
4.418612131536773013e+00 -1.105470729918402562e+01 3.900000000000000000e+02
5.678653161806954230e+00 -1.169681056349254789e+01 3.900000000000000000e+02
6.938694192077134559e+00 -1.233891382780107193e+01 3.900000000000000000e+02
8.198735222347316665e+00 -1.298101709210959420e+01 3.900000000000000000e+02
9.458776252617496993e+00 -1.362312035641811825e+01 3.900000000000000000e+02
-9.305208725247791079e-01 -7.535222094660580794e+00 3.910000000000000000e+02
3.295201577454012210e-01 -8.177325358969103064e+00 3.910000000000000000e+02
1.589561188015582438e+00 -8.819428623277627111e+00 3.910000000000000000e+02
2.849602218285763211e+00 -9.461531887586151157e+00 3.910000000000000000e+02
4.109643248555943984e+00 -1.010363515189467343e+01 3.910000000000000000e+02
5.369684278826124313e+00 -1.074573841620319570e+01 3.910000000000000000e+02
6.629725309096305530e+00 -1.138784168051171974e+01 3.910000000000000000e+02
7.889766339366486747e+00 -1.202994494482024201e+01 3.910000000000000000e+02
9.149807369636667076e+00 -1.267204820912876606e+01 3.910000000000000000e+02
1.040984839990684740e+01 -1.331415147343728833e+01 3.910000000000000000e+02
-6.215519895439500786e-01 -8.486294241949932982e+00 3.920000000000000000e+02
6.384890407262306944e-01 -9.128397506258455252e+00 3.920000000000000000e+02
1.898530070996411023e+00 -9.770500770566979298e+00 3.920000000000000000e+02
3.158571101266591796e+00 -1.041260403487550157e+01 3.920000000000000000e+02
4.418612131536773013e+00 -1.105470729918402562e+01 3.920000000000000000e+02
5.678653161806954230e+00 -1.169681056349254789e+01 3.920000000000000000e+02
6.938694192077134559e+00 -1.233891382780107193e+01 3.920000000000000000e+02
8.198735222347316665e+00 -1.298101709210959420e+01 3.920000000000000000e+02
9.458776252617496993e+00 -1.362312035641811825e+01 3.920000000000000000e+02
-6.215519895439500786e-01 -8.486294241949932982e+00 3.930000000000000000e+02
6.384890407262306944e-01 -9.128397506258455252e+00 3.930000000000000000e+02
1.898530070996411023e+00 -9.770500770566979298e+00 3.930000000000000000e+02
3.158571101266591796e+00 -1.041260403487550157e+01 3.930000000000000000e+02
4.418612131536773013e+00 -1.105470729918402562e+01 3.930000000000000000e+02
5.678653161806954230e+00 -1.169681056349254789e+01 3.930000000000000000e+02
6.938694192077134559e+00 -1.233891382780107193e+01 3.930000000000000000e+02
8.198735222347316665e+00 -1.298101709210959420e+01 3.930000000000000000e+02
9.458776252617496993e+00 -1.362312035641811825e+01 3.930000000000000000e+02
-6.215519895439500786e-01 -8.486294241949932982e+00 3.940000000000000000e+02
6.384890407262306944e-01 -9.128397506258455252e+00 3.940000000000000000e+02
1.898530070996411023e+00 -9.770500770566979298e+00 3.940000000000000000e+02
3.158571101266591796e+00 -1.041260403487550157e+01 3.940000000000000000e+02
4.418612131536773013e+00 -1.105470729918402562e+01 3.940000000000000000e+02
5.678653161806954230e+00 -1.169681056349254789e+01 3.940000000000000000e+02
6.938694192077134559e+00 -1.233891382780107193e+01 3.940000000000000000e+02
8.198735222347316665e+00 -1.298101709210959420e+01 3.940000000000000000e+02
9.458776252617496993e+00 -1.362312035641811825e+01 3.940000000000000000e+02
-6.215519895439500786e-01 -8.486294241949932982e+00 3.950000000000000000e+02
6.384890407262306944e-01 -9.128397506258455252e+00 3.950000000000000000e+02
1.898530070996411023e+00 -9.770500770566979298e+00 3.950000000000000000e+02
3.158571101266591796e+00 -1.041260403487550157e+01 3.950000000000000000e+02
4.418612131536773013e+00 -1.105470729918402562e+01 3.950000000000000000e+02
5.678653161806954230e+00 -1.169681056349254789e+01 3.950000000000000000e+02
6.938694192077134559e+00 -1.233891382780107193e+01 3.950000000000000000e+02
8.198735222347316665e+00 -1.298101709210959420e+01 3.950000000000000000e+02
9.458776252617496993e+00 -1.362312035641811825e+01 3.950000000000000000e+02
-6.215519895439500786e-01 -8.486294241949932982e+00 3.960000000000000000e+02
6.384890407262306944e-01 -9.128397506258455252e+00 3.960000000000000000e+02
1.898530070996411023e+00 -9.770500770566979298e+00 3.960000000000000000e+02
3.158571101266591796e+00 -1.041260403487550157e+01 3.960000000000000000e+02
4.418612131536773013e+00 -1.105470729918402562e+01 3.960000000000000000e+02
5.678653161806954230e+00 -1.169681056349254789e+01 3.960000000000000000e+02
6.938694192077134559e+00 -1.233891382780107193e+01 3.960000000000000000e+02
8.198735222347316665e+00 -1.298101709210959420e+01 3.960000000000000000e+02
9.458776252617496993e+00 -1.362312035641811825e+01 3.960000000000000000e+02
-6.215519895439500786e-01 -8.486294241949932982e+00 3.970000000000000000e+02
6.384890407262306944e-01 -9.128397506258455252e+00 3.970000000000000000e+02
1.898530070996411023e+00 -9.770500770566979298e+00 3.970000000000000000e+02
3.158571101266591796e+00 -1.041260403487550157e+01 3.970000000000000000e+02
4.418612131536773013e+00 -1.105470729918402562e+01 3.970000000000000000e+02
5.678653161806954230e+00 -1.169681056349254789e+01 3.970000000000000000e+02
6.938694192077134559e+00 -1.233891382780107193e+01 3.970000000000000000e+02
8.198735222347316665e+00 -1.298101709210959420e+01 3.970000000000000000e+02
9.458776252617496993e+00 -1.362312035641811825e+01 3.970000000000000000e+02
-6.215519895439500786e-01 -8.486294241949932982e+00 3.980000000000000000e+02
6.384890407262306944e-01 -9.128397506258455252e+00 3.980000000000000000e+02
1.898530070996411023e+00 -9.770500770566979298e+00 3.980000000000000000e+02
3.158571101266591796e+00 -1.041260403487550157e+01 3.980000000000000000e+02
4.418612131536773013e+00 -1.105470729918402562e+01 3.980000000000000000e+02
5.678653161806954230e+00 -1.169681056349254789e+01 3.980000000000000000e+02
6.938694192077134559e+00 -1.233891382780107193e+01 3.980000000000000000e+02
8.198735222347316665e+00 -1.298101709210959420e+01 3.980000000000000000e+02
9.458776252617496993e+00 -1.362312035641811825e+01 3.980000000000000000e+02
-6.215519895439500786e-01 -8.486294241949932982e+00 3.990000000000000000e+02
6.384890407262306944e-01 -9.128397506258455252e+00 3.990000000000000000e+02
1.898530070996411023e+00 -9.770500770566979298e+00 3.990000000000000000e+02
3.158571101266591796e+00 -1.041260403487550157e+01 3.990000000000000000e+02
4.418612131536773013e+00 -1.105470729918402562e+01 3.990000000000000000e+02
5.678653161806954230e+00 -1.169681056349254789e+01 3.990000000000000000e+02
6.938694192077134559e+00 -1.233891382780107193e+01 3.990000000000000000e+02
8.198735222347316665e+00 -1.298101709210959420e+01 3.990000000000000000e+02
9.458776252617496993e+00 -1.362312035641811825e+01 3.990000000000000000e+02
-6.215519895439500786e-01 -8.486294241949932982e+00 4.000000000000000000e+02
6.384890407262306944e-01 -9.128397506258455252e+00 4.000000000000000000e+02
1.898530070996411023e+00 -9.770500770566979298e+00 4.000000000000000000e+02
3.158571101266591796e+00 -1.041260403487550157e+01 4.000000000000000000e+02
4.418612131536773013e+00 -1.105470729918402562e+01 4.000000000000000000e+02
5.678653161806954230e+00 -1.169681056349254789e+01 4.000000000000000000e+02
6.938694192077134559e+00 -1.233891382780107193e+01 4.000000000000000000e+02
8.198735222347316665e+00 -1.298101709210959420e+01 4.000000000000000000e+02
9.458776252617496993e+00 -1.362312035641811825e+01 4.000000000000000000e+02
-6.215519895439500786e-01 -8.486294241949932982e+00 4.010000000000000000e+02
6.384890407262306944e-01 -9.128397506258455252e+00 4.010000000000000000e+02
1.898530070996411023e+00 -9.770500770566979298e+00 4.010000000000000000e+02
3.158571101266591796e+00 -1.041260403487550157e+01 4.010000000000000000e+02
4.418612131536773013e+00 -1.105470729918402562e+01 4.010000000000000000e+02
5.678653161806954230e+00 -1.169681056349254789e+01 4.010000000000000000e+02
6.938694192077134559e+00 -1.233891382780107193e+01 4.010000000000000000e+02
8.198735222347316665e+00 -1.298101709210959420e+01 4.010000000000000000e+02
9.458776252617496993e+00 -1.362312035641811825e+01 4.010000000000000000e+02
-9.305208725247791079e-01 -7.535222094660580794e+00 4.020000000000000000e+02
3.295201577454012210e-01 -8.177325358969103064e+00 4.020000000000000000e+02
1.589561188015582438e+00 -8.819428623277627111e+00 4.020000000000000000e+02
2.849602218285763211e+00 -9.461531887586151157e+00 4.020000000000000000e+02
4.109643248555943984e+00 -1.010363515189467343e+01 4.020000000000000000e+02
5.369684278826124313e+00 -1.074573841620319570e+01 4.020000000000000000e+02
6.629725309096305530e+00 -1.138784168051171974e+01 4.020000000000000000e+02
7.889766339366486747e+00 -1.202994494482024201e+01 4.020000000000000000e+02
9.149807369636667076e+00 -1.267204820912876606e+01 4.020000000000000000e+02
1.040984839990684740e+01 -1.331415147343728833e+01 4.020000000000000000e+02
-9.305208725247791079e-01 -7.535222094660580794e+00 4.030000000000000000e+02
3.295201577454012210e-01 -8.177325358969103064e+00 4.030000000000000000e+02
1.589561188015582438e+00 -8.819428623277627111e+00 4.030000000000000000e+02
2.849602218285763211e+00 -9.461531887586151157e+00 4.030000000000000000e+02
4.109643248555943984e+00 -1.010363515189467343e+01 4.030000000000000000e+02
5.369684278826124313e+00 -1.074573841620319570e+01 4.030000000000000000e+02
6.629725309096305530e+00 -1.138784168051171974e+01 4.030000000000000000e+02
7.889766339366486747e+00 -1.202994494482024201e+01 4.030000000000000000e+02
9.149807369636667076e+00 -1.267204820912876606e+01 4.030000000000000000e+02
1.040984839990684740e+01 -1.331415147343728833e+01 4.030000000000000000e+02
-6.215519895439500786e-01 -8.486294241949932982e+00 4.040000000000000000e+02
6.384890407262306944e-01 -9.128397506258455252e+00 4.040000000000000000e+02
1.898530070996411023e+00 -9.770500770566979298e+00 4.040000000000000000e+02
3.158571101266591796e+00 -1.041260403487550157e+01 4.040000000000000000e+02
4.418612131536773013e+00 -1.105470729918402562e+01 4.040000000000000000e+02
5.678653161806954230e+00 -1.169681056349254789e+01 4.040000000000000000e+02
6.938694192077134559e+00 -1.233891382780107193e+01 4.040000000000000000e+02
8.198735222347316665e+00 -1.298101709210959420e+01 4.040000000000000000e+02
9.458776252617496993e+00 -1.362312035641811825e+01 4.040000000000000000e+02
-6.215519895439500786e-01 -8.486294241949932982e+00 4.050000000000000000e+02
6.384890407262306944e-01 -9.128397506258455252e+00 4.050000000000000000e+02
1.898530070996411023e+00 -9.770500770566979298e+00 4.050000000000000000e+02
3.158571101266591796e+00 -1.041260403487550157e+01 4.050000000000000000e+02
4.418612131536773013e+00 -1.105470729918402562e+01 4.050000000000000000e+02
5.678653161806954230e+00 -1.169681056349254789e+01 4.050000000000000000e+02
6.938694192077134559e+00 -1.233891382780107193e+01 4.050000000000000000e+02
8.198735222347316665e+00 -1.298101709210959420e+01 4.050000000000000000e+02
-6.215519895439500786e-01 -8.486294241949932982e+00 4.060000000000000000e+02
6.384890407262306944e-01 -9.128397506258455252e+00 4.060000000000000000e+02
1.898530070996411023e+00 -9.770500770566979298e+00 4.060000000000000000e+02
3.158571101266591796e+00 -1.041260403487550157e+01 4.060000000000000000e+02
4.418612131536773013e+00 -1.105470729918402562e+01 4.060000000000000000e+02
5.678653161806954230e+00 -1.169681056349254789e+01 4.060000000000000000e+02
6.938694192077134559e+00 -1.233891382780107193e+01 4.060000000000000000e+02
8.198735222347316665e+00 -1.298101709210959420e+01 4.060000000000000000e+02
-6.215519895439500786e-01 -8.486294241949932982e+00 4.070000000000000000e+02
6.384890407262306944e-01 -9.128397506258455252e+00 4.070000000000000000e+02
1.898530070996411023e+00 -9.770500770566979298e+00 4.070000000000000000e+02
3.158571101266591796e+00 -1.041260403487550157e+01 4.070000000000000000e+02
4.418612131536773013e+00 -1.105470729918402562e+01 4.070000000000000000e+02
5.678653161806954230e+00 -1.169681056349254789e+01 4.070000000000000000e+02
6.938694192077134559e+00 -1.233891382780107193e+01 4.070000000000000000e+02
8.198735222347316665e+00 -1.298101709210959420e+01 4.070000000000000000e+02
-9.305208725247791079e-01 -7.535222094660580794e+00 4.080000000000000000e+02
3.295201577454012210e-01 -8.177325358969103064e+00 4.080000000000000000e+02
1.589561188015582438e+00 -8.819428623277627111e+00 4.080000000000000000e+02
2.849602218285763211e+00 -9.461531887586151157e+00 4.080000000000000000e+02
4.109643248555943984e+00 -1.010363515189467343e+01 4.080000000000000000e+02
5.369684278826124313e+00 -1.074573841620319570e+01 4.080000000000000000e+02
6.629725309096305530e+00 -1.138784168051171974e+01 4.080000000000000000e+02
7.889766339366486747e+00 -1.202994494482024201e+01 4.080000000000000000e+02
9.149807369636667076e+00 -1.267204820912876606e+01 4.080000000000000000e+02
-6.215519895439500786e-01 -8.486294241949932982e+00 4.090000000000000000e+02
6.384890407262306944e-01 -9.128397506258455252e+00 4.090000000000000000e+02
1.898530070996411023e+00 -9.770500770566979298e+00 4.090000000000000000e+02
3.158571101266591796e+00 -1.041260403487550157e+01 4.090000000000000000e+02
4.418612131536773013e+00 -1.105470729918402562e+01 4.090000000000000000e+02
5.678653161806954230e+00 -1.169681056349254789e+01 4.090000000000000000e+02
6.938694192077134559e+00 -1.233891382780107193e+01 4.090000000000000000e+02
8.198735222347316665e+00 -1.298101709210959420e+01 4.090000000000000000e+02
-6.215519895439500786e-01 -8.486294241949932982e+00 4.100000000000000000e+02
6.384890407262306944e-01 -9.128397506258455252e+00 4.100000000000000000e+02
1.898530070996411023e+00 -9.770500770566979298e+00 4.100000000000000000e+02
3.158571101266591796e+00 -1.041260403487550157e+01 4.100000000000000000e+02
4.418612131536773013e+00 -1.105470729918402562e+01 4.100000000000000000e+02
5.678653161806954230e+00 -1.169681056349254789e+01 4.100000000000000000e+02
6.938694192077134559e+00 -1.233891382780107193e+01 4.100000000000000000e+02
8.198735222347316665e+00 -1.298101709210959420e+01 4.100000000000000000e+02
9.458776252617496993e+00 -1.362312035641811825e+01 4.100000000000000000e+02
-6.215519895439500786e-01 -8.486294241949932982e+00 4.110000000000000000e+02
6.384890407262306944e-01 -9.128397506258455252e+00 4.110000000000000000e+02
1.898530070996411023e+00 -9.770500770566979298e+00 4.110000000000000000e+02
3.158571101266591796e+00 -1.041260403487550157e+01 4.110000000000000000e+02
4.418612131536773013e+00 -1.105470729918402562e+01 4.110000000000000000e+02
5.678653161806954230e+00 -1.169681056349254789e+01 4.110000000000000000e+02
6.938694192077134559e+00 -1.233891382780107193e+01 4.110000000000000000e+02
8.198735222347316665e+00 -1.298101709210959420e+01 4.110000000000000000e+02
9.458776252617496993e+00 -1.362312035641811825e+01 4.110000000000000000e+02
-9.305208725247791079e-01 -7.535222094660580794e+00 4.120000000000000000e+02
