2.291817183656207568e+00 -7.968227237709857746e+00 3.380000000000000000e+02
3.384980432295818353e+00 -7.071012596821907081e+00 3.380000000000000000e+02
4.478143680935429138e+00 -6.173797955933958193e+00 3.380000000000000000e+02
8.850796675493871390e+00 -2.584939392382159085e+00 3.380000000000000000e+02
9.943959924133483952e+00 -1.687724751494208419e+00 3.380000000000000000e+02
1.103712317277309296e+01 -7.905101106062586425e-01 3.380000000000000000e+02
1.213028642141270552e+01 1.067045302816902463e-01 3.380000000000000000e+02
7.516382501155938201e-03 -1.075784546424953803e+01 3.390000000000000000e+02
1.100679631140766723e+00 -9.860630823361587360e+00 3.390000000000000000e+02
2.193842879780377508e+00 -8.963416182473636695e+00 3.390000000000000000e+02
3.287006128419988293e+00 -8.066201541585687806e+00 3.390000000000000000e+02
4.380169377059599078e+00 -7.168986900697738029e+00 3.390000000000000000e+02
7.659659122978430545e+00 -4.477342978033888699e+00 3.390000000000000000e+02
8.752822371618041331e+00 -3.580128337145938477e+00 3.390000000000000000e+02
9.845985620257653892e+00 -2.682913696257989145e+00 3.390000000000000000e+02
1.093914886889726290e+01 -1.785699055370039368e+00 3.390000000000000000e+02
1.203231211753687369e+01 -8.884844144820895906e-01 3.390000000000000000e+02
1.312547536617648447e+01 8.730226405860186389e-03 3.390000000000000000e+02
1.002705327264936219e+00 -1.085581976812536809e+01 3.400000000000000000e+02
2.095868575904547004e+00 -9.958605127237417420e+00 3.400000000000000000e+02
3.189031824544157345e+00 -9.061390486349468532e+00 3.400000000000000000e+02
4.282195073183768130e+00 -8.164175845461517866e+00 3.400000000000000000e+02
7.561684819102600486e+00 -5.472531922797668535e+00 3.400000000000000000e+02
8.654848067742211271e+00 -4.575317281909718758e+00 3.400000000000000000e+02
9.748011316381822056e+00 -3.678102641021768981e+00 3.400000000000000000e+02
1.084117456502143284e+01 -2.780888000133820093e+00 3.400000000000000000e+02
1.193433781366104363e+01 -1.883673359245869428e+00 3.400000000000000000e+02
1.302750106230065441e+01 -9.864587183579205387e-01 3.400000000000000000e+02
1.412066431094026697e+01 -8.924407746997076174e-02 3.400000000000000000e+02
5.978650051083837624e+00 -1.134569128750452016e+01 3.410000000000000000e+02
7.071813299723448409e+00 -1.044847664661656950e+01 3.410000000000000000e+02
8.164976548363057418e+00 -9.551262005728620608e+00 3.410000000000000000e+02
9.258139797002669980e+00 -8.654047364840669943e+00 3.410000000000000000e+02
1.035130304564227899e+01 -7.756832723952721054e+00 3.410000000000000000e+02
1.144446629428189155e+01 -6.859618083064771277e+00 3.410000000000000000e+02
1.253762954292150233e+01 -5.962403442176821500e+00 3.410000000000000000e+02
1.363079279156111312e+01 -5.065188801288870835e+00 3.410000000000000000e+02
5.978650051083837624e+00 -1.134569128750452016e+01 3.420000000000000000e+02
7.071813299723448409e+00 -1.044847664661656950e+01 3.420000000000000000e+02
8.164976548363057418e+00 -9.551262005728620608e+00 3.420000000000000000e+02
9.258139797002669980e+00 -8.654047364840669943e+00 3.420000000000000000e+02
1.035130304564227899e+01 -7.756832723952721054e+00 3.420000000000000000e+02
1.144446629428189155e+01 -6.859618083064771277e+00 3.420000000000000000e+02
1.253762954292150233e+01 -5.962403442176821500e+00 3.420000000000000000e+02
1.363079279156111312e+01 -5.065188801288870835e+00 3.420000000000000000e+02
1.472395604020072568e+01 -4.167974160400921946e+00 3.420000000000000000e+02
5.978650051083837624e+00 -1.134569128750452016e+01 3.430000000000000000e+02
7.071813299723448409e+00 -1.044847664661656950e+01 3.430000000000000000e+02
8.164976548363057418e+00 -9.551262005728620608e+00 3.430000000000000000e+02
9.258139797002669980e+00 -8.654047364840669943e+00 3.430000000000000000e+02
1.035130304564227899e+01 -7.756832723952721054e+00 3.430000000000000000e+02
1.144446629428189155e+01 -6.859618083064771277e+00 3.430000000000000000e+02
1.253762954292150233e+01 -5.962403442176821500e+00 3.430000000000000000e+02
1.363079279156111312e+01 -5.065188801288870835e+00 3.430000000000000000e+02
1.472395604020072568e+01 -4.167974160400921946e+00 3.430000000000000000e+02
5.978650051083837624e+00 -1.134569128750452016e+01 3.440000000000000000e+02
7.071813299723448409e+00 -1.044847664661656950e+01 3.440000000000000000e+02
8.164976548363057418e+00 -9.551262005728620608e+00 3.440000000000000000e+02
9.258139797002669980e+00 -8.654047364840669943e+00 3.440000000000000000e+02
1.035130304564227899e+01 -7.756832723952721054e+00 3.440000000000000000e+02
1.144446629428189155e+01 -6.859618083064771277e+00 3.440000000000000000e+02
1.253762954292150233e+01 -5.962403442176821500e+00 3.440000000000000000e+02
1.363079279156111312e+01 -5.065188801288870835e+00 3.440000000000000000e+02
1.472395604020072568e+01 -4.167974160400921946e+00 3.440000000000000000e+02
6.973838995847618349e+00 -1.144366559138035022e+01 3.450000000000000000e+02
8.067002244487227358e+00 -1.054645095049239956e+01 3.450000000000000000e+02
9.160165493126839920e+00 -9.649236309604450668e+00 3.450000000000000000e+02
1.025332874176644893e+01 -8.752021668716501779e+00 3.450000000000000000e+02
1.134649199040606149e+01 -7.854807027828551114e+00 3.450000000000000000e+02
1.243965523904567227e+01 -6.957592386940601337e+00 3.450000000000000000e+02
1.353281848768528306e+01 -6.060377746052651560e+00 3.450000000000000000e+02
1.462598173632489384e+01 -5.163163105164701783e+00 3.450000000000000000e+02
6.973838995847618349e+00 -1.144366559138035022e+01 3.460000000000000000e+02
8.067002244487227358e+00 -1.054645095049239956e+01 3.460000000000000000e+02
9.160165493126839920e+00 -9.649236309604450668e+00 3.460000000000000000e+02
1.025332874176644893e+01 -8.752021668716501779e+00 3.460000000000000000e+02
1.134649199040606149e+01 -7.854807027828551114e+00 3.460000000000000000e+02
1.243965523904567227e+01 -6.957592386940601337e+00 3.460000000000000000e+02
1.353281848768528306e+01 -6.060377746052651560e+00 3.460000000000000000e+02
6.973838995847618349e+00 -1.144366559138035022e+01 3.470000000000000000e+02
8.067002244487227358e+00 -1.054645095049239956e+01 3.470000000000000000e+02
9.160165493126839920e+00 -9.649236309604450668e+00 3.470000000000000000e+02
1.025332874176644893e+01 -8.752021668716501779e+00 3.470000000000000000e+02
1.134649199040606149e+01 -7.854807027828551114e+00 3.470000000000000000e+02
1.243965523904567227e+01 -6.957592386940601337e+00 3.470000000000000000e+02
1.353281848768528306e+01 -6.060377746052651560e+00 3.470000000000000000e+02
5.978650051083837624e+00 -1.134569128750452016e+01 3.480000000000000000e+02
7.071813299723448409e+00 -1.044847664661656950e+01 3.480000000000000000e+02
8.164976548363057418e+00 -9.551262005728620608e+00 3.480000000000000000e+02
9.258139797002669980e+00 -8.654047364840669943e+00 3.480000000000000000e+02
1.035130304564227899e+01 -7.756832723952721054e+00 3.480000000000000000e+02
1.144446629428189155e+01 -6.859618083064771277e+00 3.480000000000000000e+02
1.253762954292150233e+01 -5.962403442176821500e+00 3.480000000000000000e+02
1.363079279156111312e+01 -5.065188801288870835e+00 3.480000000000000000e+02
5.978650051083837624e+00 -1.134569128750452016e+01 3.490000000000000000e+02
7.071813299723448409e+00 -1.044847664661656950e+01 3.490000000000000000e+02
8.164976548363057418e+00 -9.551262005728620608e+00 3.490000000000000000e+02
9.258139797002669980e+00 -8.654047364840669943e+00 3.490000000000000000e+02
1.035130304564227899e+01 -7.756832723952721054e+00 3.490000000000000000e+02
1.144446629428189155e+01 -6.859618083064771277e+00 3.490000000000000000e+02
1.253762954292150233e+01 -5.962403442176821500e+00 3.490000000000000000e+02
1.363079279156111312e+01 -5.065188801288870835e+00 3.490000000000000000e+02
4.983461106320056899e+00 -1.124771698362868833e+01 3.500000000000000000e+02
6.076624354959667684e+00 -1.035050234274073944e+01 3.500000000000000000e+02
7.169787603599278469e+00 -9.453287701852790548e+00 3.500000000000000000e+02
8.262950852238889254e+00 -8.556073060964839883e+00 3.500000000000000000e+02
9.356114100878500039e+00 -7.658858420076890106e+00 3.500000000000000000e+02
1.044927734951811082e+01 -6.761643779188940329e+00 3.500000000000000000e+02
1.154244059815772161e+01 -5.864429138300990552e+00 3.500000000000000000e+02
1.263560384679733239e+01 -4.967214497413040775e+00 3.500000000000000000e+02
1.372876709543694496e+01 -4.069999856525090998e+00 3.500000000000000000e+02
4.983461106320056899e+00 -1.124771698362868833e+01 3.510000000000000000e+02
6.076624354959667684e+00 -1.035050234274073944e+01 3.510000000000000000e+02
7.169787603599278469e+00 -9.453287701852790548e+00 3.510000000000000000e+02
8.262950852238889254e+00 -8.556073060964839883e+00 3.510000000000000000e+02
9.356114100878500039e+00 -7.658858420076890106e+00 3.510000000000000000e+02
1.044927734951811082e+01 -6.761643779188940329e+00 3.510000000000000000e+02
1.154244059815772161e+01 -5.864429138300990552e+00 3.510000000000000000e+02
1.263560384679733239e+01 -4.967214497413040775e+00 3.510000000000000000e+02
1.372876709543694496e+01 -4.069999856525090998e+00 3.510000000000000000e+02
4.983461106320056899e+00 -1.124771698362868833e+01 3.520000000000000000e+02
6.076624354959667684e+00 -1.035050234274073944e+01 3.520000000000000000e+02
7.169787603599278469e+00 -9.453287701852790548e+00 3.520000000000000000e+02
8.262950852238889254e+00 -8.556073060964839883e+00 3.520000000000000000e+02
9.356114100878500039e+00 -7.658858420076890106e+00 3.520000000000000000e+02
1.044927734951811082e+01 -6.761643779188940329e+00 3.520000000000000000e+02
1.154244059815772161e+01 -5.864429138300990552e+00 3.520000000000000000e+02
1.263560384679733239e+01 -4.967214497413040775e+00 3.520000000000000000e+02
1.372876709543694496e+01 -4.069999856525090998e+00 3.520000000000000000e+02
4.983461106320056899e+00 -1.124771698362868833e+01 3.530000000000000000e+02
6.076624354959667684e+00 -1.035050234274073944e+01 3.530000000000000000e+02
7.169787603599278469e+00 -9.453287701852790548e+00 3.530000000000000000e+02
8.262950852238889254e+00 -8.556073060964839883e+00 3.530000000000000000e+02
9.356114100878500039e+00 -7.658858420076890106e+00 3.530000000000000000e+02
1.044927734951811082e+01 -6.761643779188940329e+00 3.530000000000000000e+02
1.154244059815772161e+01 -5.864429138300990552e+00 3.530000000000000000e+02
1.263560384679733239e+01 -4.967214497413040775e+00 3.530000000000000000e+02
1.372876709543694496e+01 -4.069999856525090998e+00 3.530000000000000000e+02
4.983461106320056899e+00 -1.124771698362868833e+01 3.540000000000000000e+02
6.076624354959667684e+00 -1.035050234274073944e+01 3.540000000000000000e+02
7.169787603599278469e+00 -9.453287701852790548e+00 3.540000000000000000e+02
8.262950852238889254e+00 -8.556073060964839883e+00 3.540000000000000000e+02
9.356114100878500039e+00 -7.658858420076890106e+00 3.540000000000000000e+02
1.044927734951811082e+01 -6.761643779188940329e+00 3.540000000000000000e+02
1.154244059815772161e+01 -5.864429138300990552e+00 3.540000000000000000e+02
1.263560384679733239e+01 -4.967214497413040775e+00 3.540000000000000000e+02
1.372876709543694496e+01 -4.069999856525090998e+00 3.540000000000000000e+02
4.983461106320056899e+00 -1.124771698362868833e+01 3.550000000000000000e+02
6.076624354959667684e+00 -1.035050234274073944e+01 3.550000000000000000e+02
7.169787603599278469e+00 -9.453287701852790548e+00 3.550000000000000000e+02
8.262950852238889254e+00 -8.556073060964839883e+00 3.550000000000000000e+02
9.356114100878500039e+00 -7.658858420076890106e+00 3.550000000000000000e+02
1.044927734951811082e+01 -6.761643779188940329e+00 3.550000000000000000e+02
1.154244059815772161e+01 -5.864429138300990552e+00 3.550000000000000000e+02
1.263560384679733239e+01 -4.967214497413040775e+00 3.550000000000000000e+02
1.372876709543694496e+01 -4.069999856525090998e+00 3.550000000000000000e+02
4.983461106320056899e+00 -1.124771698362868833e+01 3.560000000000000000e+02
6.076624354959667684e+00 -1.035050234274073944e+01 3.560000000000000000e+02
7.169787603599278469e+00 -9.453287701852790548e+00 3.560000000000000000e+02
8.262950852238889254e+00 -8.556073060964839883e+00 3.560000000000000000e+02
9.356114100878500039e+00 -7.658858420076890106e+00 3.560000000000000000e+02
1.044927734951811082e+01 -6.761643779188940329e+00 3.560000000000000000e+02
1.154244059815772161e+01 -5.864429138300990552e+00 3.560000000000000000e+02
1.263560384679733239e+01 -4.967214497413040775e+00 3.560000000000000000e+02
1.372876709543694496e+01 -4.069999856525090998e+00 3.560000000000000000e+02
4.983461106320056899e+00 -1.124771698362868833e+01 3.570000000000000000e+02
6.076624354959667684e+00 -1.035050234274073944e+01 3.570000000000000000e+02
7.169787603599278469e+00 -9.453287701852790548e+00 3.570000000000000000e+02
8.262950852238889254e+00 -8.556073060964839883e+00 3.570000000000000000e+02
9.356114100878500039e+00 -7.658858420076890106e+00 3.570000000000000000e+02
1.044927734951811082e+01 -6.761643779188940329e+00 3.570000000000000000e+02
1.154244059815772161e+01 -5.864429138300990552e+00 3.570000000000000000e+02
1.263560384679733239e+01 -4.967214497413040775e+00 3.570000000000000000e+02
1.372876709543694496e+01 -4.069999856525090998e+00 3.570000000000000000e+02
4.983461106320056899e+00 -1.124771698362868833e+01 3.580000000000000000e+02
6.076624354959667684e+00 -1.035050234274073944e+01 3.580000000000000000e+02
7.169787603599278469e+00 -9.453287701852790548e+00 3.580000000000000000e+02
8.262950852238889254e+00 -8.556073060964839883e+00 3.580000000000000000e+02
9.356114100878500039e+00 -7.658858420076890106e+00 3.580000000000000000e+02
1.044927734951811082e+01 -6.761643779188940329e+00 3.580000000000000000e+02
1.154244059815772161e+01 -5.864429138300990552e+00 3.580000000000000000e+02
1.263560384679733239e+01 -4.967214497413040775e+00 3.580000000000000000e+02
4.983461106320056899e+00 -1.124771698362868833e+01 3.590000000000000000e+02
6.076624354959667684e+00 -1.035050234274073944e+01 3.590000000000000000e+02
7.169787603599278469e+00 -9.453287701852790548e+00 3.590000000000000000e+02
8.262950852238889254e+00 -8.556073060964839883e+00 3.590000000000000000e+02
9.356114100878500039e+00 -7.658858420076890106e+00 3.590000000000000000e+02
1.044927734951811082e+01 -6.761643779188940329e+00 3.590000000000000000e+02
1.154244059815772161e+01 -5.864429138300990552e+00 3.590000000000000000e+02
1.263560384679733239e+01 -4.967214497413040775e+00 3.590000000000000000e+02
4.983461106320056899e+00 -1.124771698362868833e+01 3.600000000000000000e+02
6.076624354959667684e+00 -1.035050234274073944e+01 3.600000000000000000e+02
7.169787603599278469e+00 -9.453287701852790548e+00 3.600000000000000000e+02
8.262950852238889254e+00 -8.556073060964839883e+00 3.600000000000000000e+02
9.356114100878500039e+00 -7.658858420076890106e+00 3.600000000000000000e+02
1.044927734951811082e+01 -6.761643779188940329e+00 3.600000000000000000e+02
1.154244059815772161e+01 -5.864429138300990552e+00 3.600000000000000000e+02
1.263560384679733239e+01 -4.967214497413040775e+00 3.600000000000000000e+02
4.983461106320056899e+00 -1.124771698362868833e+01 3.610000000000000000e+02
6.076624354959667684e+00 -1.035050234274073944e+01 3.610000000000000000e+02
7.169787603599278469e+00 -9.453287701852790548e+00 3.610000000000000000e+02
8.262950852238889254e+00 -8.556073060964839883e+00 3.610000000000000000e+02
9.356114100878500039e+00 -7.658858420076890106e+00 3.610000000000000000e+02
1.044927734951811082e+01 -6.761643779188940329e+00 3.610000000000000000e+02
1.154244059815772161e+01 -5.864429138300990552e+00 3.610000000000000000e+02
1.263560384679733239e+01 -4.967214497413040775e+00 3.610000000000000000e+02
4.983461106320056899e+00 -1.124771698362868833e+01 3.620000000000000000e+02
6.076624354959667684e+00 -1.035050234274073944e+01 3.620000000000000000e+02
7.169787603599278469e+00 -9.453287701852790548e+00 3.620000000000000000e+02
8.262950852238889254e+00 -8.556073060964839883e+00 3.620000000000000000e+02
9.356114100878500039e+00 -7.658858420076890106e+00 3.620000000000000000e+02
1.044927734951811082e+01 -6.761643779188940329e+00 3.620000000000000000e+02
1.154244059815772161e+01 -5.864429138300990552e+00 3.620000000000000000e+02
1.263560384679733239e+01 -4.967214497413040775e+00 3.620000000000000000e+02
4.983461106320056899e+00 -1.124771698362868833e+01 3.630000000000000000e+02
6.076624354959667684e+00 -1.035050234274073944e+01 3.630000000000000000e+02
7.169787603599278469e+00 -9.453287701852790548e+00 3.630000000000000000e+02
8.262950852238889254e+00 -8.556073060964839883e+00 3.630000000000000000e+02
9.356114100878500039e+00 -7.658858420076890106e+00 3.630000000000000000e+02
1.044927734951811082e+01 -6.761643779188940329e+00 3.630000000000000000e+02
1.154244059815772161e+01 -5.864429138300990552e+00 3.630000000000000000e+02
1.263560384679733239e+01 -4.967214497413040775e+00 3.630000000000000000e+02
3.988272161556277062e+00 -1.114974267975285827e+01 3.640000000000000000e+02
5.081435410195887847e+00 -1.025252803886490938e+01 3.640000000000000000e+02
6.174598658835498632e+00 -9.355313397976960488e+00 3.640000000000000000e+02
7.267761907475109417e+00 -8.458098757089009823e+00 3.640000000000000000e+02
8.360925156114719314e+00 -7.560884116201060046e+00 3.640000000000000000e+02
9.454088404754330099e+00 -6.663669475313110269e+00 3.640000000000000000e+02
1.054725165339394088e+01 -5.766454834425159603e+00 3.640000000000000000e+02
1.164041490203355167e+01 -4.869240193537210715e+00 3.640000000000000000e+02
1.273357815067316423e+01 -3.972025552649260494e+00 3.640000000000000000e+02
1.382674139931277502e+01 -3.074810911761311161e+00 3.640000000000000000e+02
3.988272161556277062e+00 -1.114974267975285827e+01 3.650000000000000000e+02
5.081435410195887847e+00 -1.025252803886490938e+01 3.650000000000000000e+02
6.174598658835498632e+00 -9.355313397976960488e+00 3.650000000000000000e+02
7.267761907475109417e+00 -8.458098757089009823e+00 3.650000000000000000e+02
8.360925156114719314e+00 -7.560884116201060046e+00 3.650000000000000000e+02
9.454088404754330099e+00 -6.663669475313110269e+00 3.650000000000000000e+02
1.054725165339394088e+01 -5.766454834425159603e+00 3.650000000000000000e+02
1.164041490203355167e+01 -4.869240193537210715e+00 3.650000000000000000e+02
1.273357815067316423e+01 -3.972025552649260494e+00 3.650000000000000000e+02
3.988272161556277062e+00 -1.114974267975285827e+01 3.660000000000000000e+02
5.081435410195887847e+00 -1.025252803886490938e+01 3.660000000000000000e+02
6.174598658835498632e+00 -9.355313397976960488e+00 3.660000000000000000e+02
7.267761907475109417e+00 -8.458098757089009823e+00 3.660000000000000000e+02
8.360925156114719314e+00 -7.560884116201060046e+00 3.660000000000000000e+02
9.454088404754330099e+00 -6.663669475313110269e+00 3.660000000000000000e+02
1.054725165339394088e+01 -5.766454834425159603e+00 3.660000000000000000e+02
1.164041490203355167e+01 -4.869240193537210715e+00 3.660000000000000000e+02
1.273357815067316423e+01 -3.972025552649260494e+00 3.660000000000000000e+02
4.983461106320056899e+00 -1.124771698362868833e+01 3.670000000000000000e+02
6.076624354959667684e+00 -1.035050234274073944e+01 3.670000000000000000e+02
7.169787603599278469e+00 -9.453287701852790548e+00 3.670000000000000000e+02
8.262950852238889254e+00 -8.556073060964839883e+00 3.670000000000000000e+02
9.356114100878500039e+00 -7.658858420076890106e+00 3.670000000000000000e+02
1.044927734951811082e+01 -6.761643779188940329e+00 3.670000000000000000e+02
1.154244059815772161e+01 -5.864429138300990552e+00 3.670000000000000000e+02
1.263560384679733239e+01 -4.967214497413040775e+00 3.670000000000000000e+02
4.983461106320056899e+00 -1.124771698362868833e+01 3.680000000000000000e+02
6.076624354959667684e+00 -1.035050234274073944e+01 3.680000000000000000e+02
7.169787603599278469e+00 -9.453287701852790548e+00 3.680000000000000000e+02
8.262950852238889254e+00 -8.556073060964839883e+00 3.680000000000000000e+02
9.356114100878500039e+00 -7.658858420076890106e+00 3.680000000000000000e+02
1.044927734951811082e+01 -6.761643779188940329e+00 3.680000000000000000e+02
1.154244059815772161e+01 -5.864429138300990552e+00 3.680000000000000000e+02
1.263560384679733239e+01 -4.967214497413040775e+00 3.680000000000000000e+02
4.983461106320056899e+00 -1.124771698362868833e+01 3.690000000000000000e+02
6.076624354959667684e+00 -1.035050234274073944e+01 3.690000000000000000e+02
7.169787603599278469e+00 -9.453287701852790548e+00 3.690000000000000000e+02
8.262950852238889254e+00 -8.556073060964839883e+00 3.690000000000000000e+02
9.356114100878500039e+00 -7.658858420076890106e+00 3.690000000000000000e+02
1.044927734951811082e+01 -6.761643779188940329e+00 3.690000000000000000e+02
1.154244059815772161e+01 -5.864429138300990552e+00 3.690000000000000000e+02
1.263560384679733239e+01 -4.967214497413040775e+00 3.690000000000000000e+02
4.983461106320056899e+00 -1.124771698362868833e+01 3.700000000000000000e+02
6.076624354959667684e+00 -1.035050234274073944e+01 3.700000000000000000e+02
7.169787603599278469e+00 -9.453287701852790548e+00 3.700000000000000000e+02
8.262950852238889254e+00 -8.556073060964839883e+00 3.700000000000000000e+02
9.356114100878500039e+00 -7.658858420076890106e+00 3.700000000000000000e+02
1.044927734951811082e+01 -6.761643779188940329e+00 3.700000000000000000e+02
1.154244059815772161e+01 -5.864429138300990552e+00 3.700000000000000000e+02
1.263560384679733239e+01 -4.967214497413040775e+00 3.700000000000000000e+02
3.988272161556277062e+00 -1.114974267975285827e+01 3.710000000000000000e+02
5.081435410195887847e+00 -1.025252803886490938e+01 3.710000000000000000e+02
6.174598658835498632e+00 -9.355313397976960488e+00 3.710000000000000000e+02
7.267761907475109417e+00 -8.458098757089009823e+00 3.710000000000000000e+02
8.360925156114719314e+00 -7.560884116201060046e+00 3.710000000000000000e+02
9.454088404754330099e+00 -6.663669475313110269e+00 3.710000000000000000e+02
1.054725165339394088e+01 -5.766454834425159603e+00 3.710000000000000000e+02
1.164041490203355167e+01 -4.869240193537210715e+00 3.710000000000000000e+02
1.273357815067316423e+01 -3.972025552649260494e+00 3.710000000000000000e+02
3.988272161556277062e+00 -1.114974267975285827e+01 3.720000000000000000e+02
5.081435410195887847e+00 -1.025252803886490938e+01 3.720000000000000000e+02
6.174598658835498632e+00 -9.355313397976960488e+00 3.720000000000000000e+02
7.267761907475109417e+00 -8.458098757089009823e+00 3.720000000000000000e+02
8.360925156114719314e+00 -7.560884116201060046e+00 3.720000000000000000e+02
9.454088404754330099e+00 -6.663669475313110269e+00 3.720000000000000000e+02
1.054725165339394088e+01 -5.766454834425159603e+00 3.720000000000000000e+02
1.164041490203355167e+01 -4.869240193537210715e+00 3.720000000000000000e+02
3.988272161556277062e+00 -1.114974267975285827e+01 3.730000000000000000e+02
5.081435410195887847e+00 -1.025252803886490938e+01 3.730000000000000000e+02
6.174598658835498632e+00 -9.355313397976960488e+00 3.730000000000000000e+02
7.267761907475109417e+00 -8.458098757089009823e+00 3.730000000000000000e+02
8.360925156114719314e+00 -7.560884116201060046e+00 3.730000000000000000e+02
9.454088404754330099e+00 -6.663669475313110269e+00 3.730000000000000000e+02
1.054725165339394088e+01 -5.766454834425159603e+00 3.730000000000000000e+02
1.164041490203355167e+01 -4.869240193537210715e+00 3.730000000000000000e+02
2.993083216792496781e+00 -1.105176837587702821e+01 3.740000000000000000e+02
4.086246465432107122e+00 -1.015455373498907932e+01 3.740000000000000000e+02
5.179409714071718795e+00 -9.257339094101128651e+00 3.740000000000000000e+02
6.272572962711329581e+00 -8.360124453213179763e+00 3.740000000000000000e+02
7.365736211350940366e+00 -7.462909812325229097e+00 3.740000000000000000e+02
8.458899459990551151e+00 -6.565695171437279321e+00 3.740000000000000000e+02
9.552062708630160159e+00 -5.668480530549329544e+00 3.740000000000000000e+02
1.064522595726977272e+01 -4.771265889661379767e+00 3.740000000000000000e+02
1.173838920590938351e+01 -3.874051248773429990e+00 3.740000000000000000e+02
2.993083216792496781e+00 -1.105176837587702821e+01 3.750000000000000000e+02
4.086246465432107122e+00 -1.015455373498907932e+01 3.750000000000000000e+02
5.179409714071718795e+00 -9.257339094101128651e+00 3.750000000000000000e+02
6.272572962711329581e+00 -8.360124453213179763e+00 3.750000000000000000e+02
7.365736211350940366e+00 -7.462909812325229097e+00 3.750000000000000000e+02
8.458899459990551151e+00 -6.565695171437279321e+00 3.750000000000000000e+02
9.552062708630160159e+00 -5.668480530549329544e+00 3.750000000000000000e+02
1.064522595726977272e+01 -4.771265889661379767e+00 3.750000000000000000e+02
1.173838920590938351e+01 -3.874051248773429990e+00 3.750000000000000000e+02
2.993083216792496781e+00 -1.105176837587702821e+01 3.760000000000000000e+02
4.086246465432107122e+00 -1.015455373498907932e+01 3.760000000000000000e+02
5.179409714071718795e+00 -9.257339094101128651e+00 3.760000000000000000e+02
6.272572962711329581e+00 -8.360124453213179763e+00 3.760000000000000000e+02
7.365736211350940366e+00 -7.462909812325229097e+00 3.760000000000000000e+02
8.458899459990551151e+00 -6.565695171437279321e+00 3.760000000000000000e+02
9.552062708630160159e+00 -5.668480530549329544e+00 3.760000000000000000e+02
1.064522595726977272e+01 -4.771265889661379767e+00 3.760000000000000000e+02
3.988272161556277062e+00 -1.114974267975285827e+01 3.770000000000000000e+02
5.081435410195887847e+00 -1.025252803886490938e+01 3.770000000000000000e+02
6.174598658835498632e+00 -9.355313397976960488e+00 3.770000000000000000e+02
7.267761907475109417e+00 -8.458098757089009823e+00 3.770000000000000000e+02
8.360925156114719314e+00 -7.560884116201060046e+00 3.770000000000000000e+02
9.454088404754330099e+00 -6.663669475313110269e+00 3.770000000000000000e+02
1.054725165339394088e+01 -5.766454834425159603e+00 3.770000000000000000e+02
2.993083216792496781e+00 -1.105176837587702821e+01 3.780000000000000000e+02
4.086246465432107122e+00 -1.015455373498907932e+01 3.780000000000000000e+02
5.179409714071718795e+00 -9.257339094101128651e+00 3.780000000000000000e+02
6.272572962711329581e+00 -8.360124453213179763e+00 3.780000000000000000e+02
7.365736211350940366e+00 -7.462909812325229097e+00 3.780000000000000000e+02
8.458899459990551151e+00 -6.565695171437279321e+00 3.780000000000000000e+02
9.552062708630160159e+00 -5.668480530549329544e+00 3.780000000000000000e+02
1.064522595726977272e+01 -4.771265889661379767e+00 3.780000000000000000e+02
2.993083216792496781e+00 -1.105176837587702821e+01 3.790000000000000000e+02
4.086246465432107122e+00 -1.015455373498907932e+01 3.790000000000000000e+02
5.179409714071718795e+00 -9.257339094101128651e+00 3.790000000000000000e+02
6.272572962711329581e+00 -8.360124453213179763e+00 3.790000000000000000e+02
7.365736211350940366e+00 -7.462909812325229097e+00 3.790000000000000000e+02
8.458899459990551151e+00 -6.565695171437279321e+00 3.790000000000000000e+02
9.552062708630160159e+00 -5.668480530549329544e+00 3.790000000000000000e+02
1.064522595726977272e+01 -4.771265889661379767e+00 3.790000000000000000e+02
2.993083216792496781e+00 -1.105176837587702821e+01 3.800000000000000000e+02
4.086246465432107122e+00 -1.015455373498907932e+01 3.800000000000000000e+02
5.179409714071718795e+00 -9.257339094101128651e+00 3.800000000000000000e+02
6.272572962711329581e+00 -8.360124453213179763e+00 3.800000000000000000e+02
7.365736211350940366e+00 -7.462909812325229097e+00 3.800000000000000000e+02
8.458899459990551151e+00 -6.565695171437279321e+00 3.800000000000000000e+02
9.552062708630160159e+00 -5.668480530549329544e+00 3.800000000000000000e+02
1.064522595726977272e+01 -4.771265889661379767e+00 3.800000000000000000e+02
2.993083216792496781e+00 -1.105176837587702821e+01 3.810000000000000000e+02
4.086246465432107122e+00 -1.015455373498907932e+01 3.810000000000000000e+02
5.179409714071718795e+00 -9.257339094101128651e+00 3.810000000000000000e+02
6.272572962711329581e+00 -8.360124453213179763e+00 3.810000000000000000e+02
7.365736211350940366e+00 -7.462909812325229097e+00 3.810000000000000000e+02
8.458899459990551151e+00 -6.565695171437279321e+00 3.810000000000000000e+02
9.552062708630160159e+00 -5.668480530549329544e+00 3.810000000000000000e+02
1.064522595726977272e+01 -4.771265889661379767e+00 3.810000000000000000e+02
2.993083216792496781e+00 -1.105176837587702821e+01 3.820000000000000000e+02
4.086246465432107122e+00 -1.015455373498907932e+01 3.820000000000000000e+02
5.179409714071718795e+00 -9.257339094101128651e+00 3.820000000000000000e+02
6.272572962711329581e+00 -8.360124453213179763e+00 3.820000000000000000e+02
7.365736211350940366e+00 -7.462909812325229097e+00 3.820000000000000000e+02
8.458899459990551151e+00 -6.565695171437279321e+00 3.820000000000000000e+02
9.552062708630160159e+00 -5.668480530549329544e+00 3.820000000000000000e+02
2.993083216792496781e+00 -1.105176837587702821e+01 3.830000000000000000e+02
4.086246465432107122e+00 -1.015455373498907932e+01 3.830000000000000000e+02
5.179409714071718795e+00 -9.257339094101128651e+00 3.830000000000000000e+02
6.272572962711329581e+00 -8.360124453213179763e+00 3.830000000000000000e+02
7.365736211350940366e+00 -7.462909812325229097e+00 3.830000000000000000e+02
8.458899459990551151e+00 -6.565695171437279321e+00 3.830000000000000000e+02
9.552062708630160159e+00 -5.668480530549329544e+00 3.830000000000000000e+02
1.997894272028716500e+00 -1.095379407200119815e+01 3.840000000000000000e+02
3.091057520668327285e+00 -1.005657943111324748e+01 3.840000000000000000e+02
4.184220769307938070e+00 -9.159364790225298592e+00 3.840000000000000000e+02
5.277384017947548855e+00 -8.262150149337347926e+00 3.840000000000000000e+02
6.370547266587159640e+00 -7.364935508449399038e+00 3.840000000000000000e+02
7.463710515226770426e+00 -6.467720867561449261e+00 3.840000000000000000e+02
8.556873763866381211e+00 -5.570506226673499484e+00 3.840000000000000000e+02
9.650037012505991996e+00 -4.673291585785548818e+00 3.840000000000000000e+02
1.002705327264936219e+00 -1.085581976812536809e+01 3.850000000000000000e+02
2.095868575904547004e+00 -9.958605127237417420e+00 3.850000000000000000e+02
3.189031824544157345e+00 -9.061390486349468532e+00 3.850000000000000000e+02
4.282195073183768130e+00 -8.164175845461517866e+00 3.850000000000000000e+02
5.375358321823378915e+00 -7.266961204573568089e+00 3.850000000000000000e+02
6.468521570462989700e+00 -6.369746563685618312e+00 3.850000000000000000e+02
7.561684819102600486e+00 -5.472531922797668535e+00 3.850000000000000000e+02
8.654848067742211271e+00 -4.575317281909718758e+00 3.850000000000000000e+02
-9.876725622626247869e-01 -1.065987116037370619e+01 3.860000000000000000e+02
1.054906863769864422e-01 -9.762656519485757300e+00 3.860000000000000000e+02
1.198653935016597227e+00 -8.865441878597806635e+00 3.860000000000000000e+02
2.291817183656207568e+00 -7.968227237709857746e+00 3.860000000000000000e+02
3.384980432295818353e+00 -7.071012596821907081e+00 3.860000000000000000e+02
4.478143680935429138e+00 -6.173797955933958193e+00 3.860000000000000000e+02
5.571306929575039923e+00 -5.276583315046007527e+00 3.860000000000000000e+02
6.664470178214650709e+00 -4.379368674158057750e+00 3.860000000000000000e+02
-9.876725622626247869e-01 -1.065987116037370619e+01 3.870000000000000000e+02
1.054906863769864422e-01 -9.762656519485757300e+00 3.870000000000000000e+02
1.198653935016597227e+00 -8.865441878597806635e+00 3.870000000000000000e+02
2.291817183656207568e+00 -7.968227237709857746e+00 3.870000000000000000e+02
3.384980432295818353e+00 -7.071012596821907081e+00 3.870000000000000000e+02
4.478143680935429138e+00 -6.173797955933958193e+00 3.870000000000000000e+02
5.571306929575039923e+00 -5.276583315046007527e+00 3.870000000000000000e+02
-1.982861507026405512e+00 -1.056189685649787613e+01 3.880000000000000000e+02
-8.896982583867938388e-01 -9.664682215609925464e+00 3.880000000000000000e+02
2.034649902528169463e-01 -8.767467574721976575e+00 3.880000000000000000e+02
1.296628238892427731e+00 -7.870252933834026798e+00 3.880000000000000000e+02
2.389791487532038516e+00 -6.973038292946077021e+00 3.880000000000000000e+02
3.482954736171648857e+00 -6.075823652058127244e+00 3.880000000000000000e+02
4.576117984811260087e+00 -5.178609011170177467e+00 3.880000000000000000e+02
5.669281233450870872e+00 -4.281394370282226802e+00 3.880000000000000000e+02
-1.982861507026405512e+00 -1.056189685649787613e+01 3.890000000000000000e+02
-8.896982583867938388e-01 -9.664682215609925464e+00 3.890000000000000000e+02
2.034649902528169463e-01 -8.767467574721976575e+00 3.890000000000000000e+02
1.296628238892427731e+00 -7.870252933834026798e+00 3.890000000000000000e+02
2.389791487532038516e+00 -6.973038292946077021e+00 3.890000000000000000e+02
3.482954736171648857e+00 -6.075823652058127244e+00 3.890000000000000000e+02
4.576117984811260087e+00 -5.178609011170177467e+00 3.890000000000000000e+02
5.669281233450870872e+00 -4.281394370282226802e+00 3.890000000000000000e+02
-1.982861507026405512e+00 -1.056189685649787613e+01 3.900000000000000000e+02
-8.896982583867938388e-01 -9.664682215609925464e+00 3.900000000000000000e+02
2.034649902528169463e-01 -8.767467574721976575e+00 3.900000000000000000e+02
1.296628238892427731e+00 -7.870252933834026798e+00 3.900000000000000000e+02
2.389791487532038516e+00 -6.973038292946077021e+00 3.900000000000000000e+02
3.482954736171648857e+00 -6.075823652058127244e+00 3.900000000000000000e+02
4.576117984811260087e+00 -5.178609011170177467e+00 3.900000000000000000e+02
5.669281233450870872e+00 -4.281394370282226802e+00 3.900000000000000000e+02
-1.982861507026405512e+00 -1.056189685649787613e+01 3.910000000000000000e+02
-8.896982583867938388e-01 -9.664682215609925464e+00 3.910000000000000000e+02
2.034649902528169463e-01 -8.767467574721976575e+00 3.910000000000000000e+02
1.296628238892427731e+00 -7.870252933834026798e+00 3.910000000000000000e+02
2.389791487532038516e+00 -6.973038292946077021e+00 3.910000000000000000e+02
3.482954736171648857e+00 -6.075823652058127244e+00 3.910000000000000000e+02
4.576117984811260087e+00 -5.178609011170177467e+00 3.910000000000000000e+02
5.669281233450870872e+00 -4.281394370282226802e+00 3.910000000000000000e+02
-1.982861507026405512e+00 -1.056189685649787613e+01 3.920000000000000000e+02
-8.896982583867938388e-01 -9.664682215609925464e+00 3.920000000000000000e+02
2.034649902528169463e-01 -8.767467574721976575e+00 3.920000000000000000e+02
1.296628238892427731e+00 -7.870252933834026798e+00 3.920000000000000000e+02
2.389791487532038516e+00 -6.973038292946077021e+00 3.920000000000000000e+02
3.482954736171648857e+00 -6.075823652058127244e+00 3.920000000000000000e+02
4.576117984811260087e+00 -5.178609011170177467e+00 3.920000000000000000e+02
5.669281233450870872e+00 -4.281394370282226802e+00 3.920000000000000000e+02
-1.982861507026405512e+00 -1.056189685649787613e+01 3.930000000000000000e+02
-8.896982583867938388e-01 -9.664682215609925464e+00 3.930000000000000000e+02
2.034649902528169463e-01 -8.767467574721976575e+00 3.930000000000000000e+02
1.296628238892427731e+00 -7.870252933834026798e+00 3.930000000000000000e+02
2.389791487532038516e+00 -6.973038292946077021e+00 3.930000000000000000e+02
3.482954736171648857e+00 -6.075823652058127244e+00 3.930000000000000000e+02
4.576117984811260087e+00 -5.178609011170177467e+00 3.930000000000000000e+02
5.669281233450870872e+00 -4.281394370282226802e+00 3.930000000000000000e+02
-1.982861507026405512e+00 -1.056189685649787613e+01 3.940000000000000000e+02
-8.896982583867938388e-01 -9.664682215609925464e+00 3.940000000000000000e+02
2.034649902528169463e-01 -8.767467574721976575e+00 3.940000000000000000e+02
1.296628238892427731e+00 -7.870252933834026798e+00 3.940000000000000000e+02
2.389791487532038516e+00 -6.973038292946077021e+00 3.940000000000000000e+02
3.482954736171648857e+00 -6.075823652058127244e+00 3.940000000000000000e+02
4.576117984811260087e+00 -5.178609011170177467e+00 3.940000000000000000e+02
5.669281233450870872e+00 -4.281394370282226802e+00 3.940000000000000000e+02
-1.982861507026405512e+00 -1.056189685649787613e+01 3.950000000000000000e+02
-8.896982583867938388e-01 -9.664682215609925464e+00 3.950000000000000000e+02
2.034649902528169463e-01 -8.767467574721976575e+00 3.950000000000000000e+02
1.296628238892427731e+00 -7.870252933834026798e+00 3.950000000000000000e+02
2.389791487532038516e+00 -6.973038292946077021e+00 3.950000000000000000e+02
3.482954736171648857e+00 -6.075823652058127244e+00 3.950000000000000000e+02
4.576117984811260087e+00 -5.178609011170177467e+00 3.950000000000000000e+02
-1.982861507026405512e+00 -1.056189685649787613e+01 3.960000000000000000e+02
-8.896982583867938388e-01 -9.664682215609925464e+00 3.960000000000000000e+02
2.034649902528169463e-01 -8.767467574721976575e+00 3.960000000000000000e+02
1.296628238892427731e+00 -7.870252933834026798e+00 3.960000000000000000e+02
2.389791487532038516e+00 -6.973038292946077021e+00 3.960000000000000000e+02
3.482954736171648857e+00 -6.075823652058127244e+00 3.960000000000000000e+02
4.576117984811260087e+00 -5.178609011170177467e+00 3.960000000000000000e+02
-1.982861507026405512e+00 -1.056189685649787613e+01 3.970000000000000000e+02
-8.896982583867938388e-01 -9.664682215609925464e+00 3.970000000000000000e+02
2.034649902528169463e-01 -8.767467574721976575e+00 3.970000000000000000e+02
1.296628238892427731e+00 -7.870252933834026798e+00 3.970000000000000000e+02
2.389791487532038516e+00 -6.973038292946077021e+00 3.970000000000000000e+02
3.482954736171648857e+00 -6.075823652058127244e+00 3.970000000000000000e+02
4.576117984811260087e+00 -5.178609011170177467e+00 3.970000000000000000e+02
-1.982861507026405512e+00 -1.056189685649787613e+01 3.980000000000000000e+02
-8.896982583867938388e-01 -9.664682215609925464e+00 3.980000000000000000e+02
2.034649902528169463e-01 -8.767467574721976575e+00 3.980000000000000000e+02
1.296628238892427731e+00 -7.870252933834026798e+00 3.980000000000000000e+02
2.389791487532038516e+00 -6.973038292946077021e+00 3.980000000000000000e+02
3.482954736171648857e+00 -6.075823652058127244e+00 3.980000000000000000e+02
4.576117984811260087e+00 -5.178609011170177467e+00 3.980000000000000000e+02
-1.982861507026405512e+00 -1.056189685649787613e+01 3.990000000000000000e+02
-8.896982583867938388e-01 -9.664682215609925464e+00 3.990000000000000000e+02
2.034649902528169463e-01 -8.767467574721976575e+00 3.990000000000000000e+02
1.296628238892427731e+00 -7.870252933834026798e+00 3.990000000000000000e+02
2.389791487532038516e+00 -6.973038292946077021e+00 3.990000000000000000e+02
3.482954736171648857e+00 -6.075823652058127244e+00 3.990000000000000000e+02
4.576117984811260087e+00 -5.178609011170177467e+00 3.990000000000000000e+02
-1.982861507026405512e+00 -1.056189685649787613e+01 4.000000000000000000e+02
-8.896982583867938388e-01 -9.664682215609925464e+00 4.000000000000000000e+02
2.034649902528169463e-01 -8.767467574721976575e+00 4.000000000000000000e+02
1.296628238892427731e+00 -7.870252933834026798e+00 4.000000000000000000e+02
2.389791487532038516e+00 -6.973038292946077021e+00 4.000000000000000000e+02
3.482954736171648857e+00 -6.075823652058127244e+00 4.000000000000000000e+02
4.576117984811260087e+00 -5.178609011170177467e+00 4.000000000000000000e+02
5.669281233450870872e+00 -4.281394370282226802e+00 4.000000000000000000e+02
-1.982861507026405512e+00 -1.056189685649787613e+01 4.010000000000000000e+02
-8.896982583867938388e-01 -9.664682215609925464e+00 4.010000000000000000e+02
2.034649902528169463e-01 -8.767467574721976575e+00 4.010000000000000000e+02
1.296628238892427731e+00 -7.870252933834026798e+00 4.010000000000000000e+02
2.389791487532038516e+00 -6.973038292946077021e+00 4.010000000000000000e+02
3.482954736171648857e+00 -6.075823652058127244e+00 4.010000000000000000e+02
4.576117984811260087e+00 -5.178609011170177467e+00 4.010000000000000000e+02
5.669281233450870872e+00 -4.281394370282226802e+00 4.010000000000000000e+02
-1.982861507026405512e+00 -1.056189685649787613e+01 4.020000000000000000e+02
-8.896982583867938388e-01 -9.664682215609925464e+00 4.020000000000000000e+02
2.034649902528169463e-01 -8.767467574721976575e+00 4.020000000000000000e+02
1.296628238892427731e+00 -7.870252933834026798e+00 4.020000000000000000e+02
2.389791487532038516e+00 -6.973038292946077021e+00 4.020000000000000000e+02
3.482954736171648857e+00 -6.075823652058127244e+00 4.020000000000000000e+02
4.576117984811260087e+00 -5.178609011170177467e+00 4.020000000000000000e+02
-2.978050451790185349e+00 -1.046392255262204607e+01 4.030000000000000000e+02
-1.884887203150574564e+00 -9.566707911734095404e+00 4.030000000000000000e+02
-7.917239545109637788e-01 -8.669493270846146515e+00 4.030000000000000000e+02
3.014392941286474503e-01 -7.772278629958196738e+00 4.030000000000000000e+02
1.394602542768258235e+00 -6.875063989070246961e+00 4.030000000000000000e+02
2.487765791407868576e+00 -5.977849348182296296e+00 4.030000000000000000e+02
3.580929040047479361e+00 -5.080634707294346519e+00 4.030000000000000000e+02
4.674092288687090146e+00 -4.183420066406396742e+00 4.030000000000000000e+02
-1.982861507026405512e+00 -1.056189685649787613e+01 4.040000000000000000e+02
-8.896982583867938388e-01 -9.664682215609925464e+00 4.040000000000000000e+02
2.034649902528169463e-01 -8.767467574721976575e+00 4.040000000000000000e+02
1.296628238892427731e+00 -7.870252933834026798e+00 4.040000000000000000e+02
2.389791487532038516e+00 -6.973038292946077021e+00 4.040000000000000000e+02
3.482954736171648857e+00 -6.075823652058127244e+00 4.040000000000000000e+02
4.576117984811260087e+00 -5.178609011170177467e+00 4.040000000000000000e+02
-1.982861507026405512e+00 -1.056189685649787613e+01 4.050000000000000000e+02
-8.896982583867938388e-01 -9.664682215609925464e+00 4.050000000000000000e+02
2.034649902528169463e-01 -8.767467574721976575e+00 4.050000000000000000e+02
1.296628238892427731e+00 -7.870252933834026798e+00 4.050000000000000000e+02
2.389791487532038516e+00 -6.973038292946077021e+00 4.050000000000000000e+02
3.482954736171648857e+00 -6.075823652058127244e+00 4.050000000000000000e+02
4.576117984811260087e+00 -5.178609011170177467e+00 4.050000000000000000e+02
-1.982861507026405512e+00 -1.056189685649787613e+01 4.060000000000000000e+02
-8.896982583867938388e-01 -9.664682215609925464e+00 4.060000000000000000e+02
2.034649902528169463e-01 -8.767467574721976575e+00 4.060000000000000000e+02
1.296628238892427731e+00 -7.870252933834026798e+00 4.060000000000000000e+02
2.389791487532038516e+00 -6.973038292946077021e+00 4.060000000000000000e+02
3.482954736171648857e+00 -6.075823652058127244e+00 4.060000000000000000e+02
4.576117984811260087e+00 -5.178609011170177467e+00 4.060000000000000000e+02
-2.978050451790185349e+00 -1.046392255262204607e+01 4.070000000000000000e+02
-1.884887203150574564e+00 -9.566707911734095404e+00 4.070000000000000000e+02
-7.917239545109637788e-01 -8.669493270846146515e+00 4.070000000000000000e+02
3.014392941286474503e-01 -7.772278629958196738e+00 4.070000000000000000e+02
1.394602542768258235e+00 -6.875063989070246961e+00 4.070000000000000000e+02
2.487765791407868576e+00 -5.977849348182296296e+00 4.070000000000000000e+02
3.580929040047479361e+00 -5.080634707294346519e+00 4.070000000000000000e+02
4.674092288687090146e+00 -4.183420066406396742e+00 4.070000000000000000e+02
-2.978050451790185349e+00 -1.046392255262204607e+01 4.080000000000000000e+02
-1.884887203150574564e+00 -9.566707911734095404e+00 4.080000000000000000e+02
-7.917239545109637788e-01 -8.669493270846146515e+00 4.080000000000000000e+02
3.014392941286474503e-01 -7.772278629958196738e+00 4.080000000000000000e+02
1.394602542768258235e+00 -6.875063989070246961e+00 4.080000000000000000e+02
2.487765791407868576e+00 -5.977849348182296296e+00 4.080000000000000000e+02
3.580929040047479361e+00 -5.080634707294346519e+00 4.080000000000000000e+02
4.674092288687090146e+00 -4.183420066406396742e+00 4.080000000000000000e+02
-2.978050451790185349e+00 -1.046392255262204607e+01 4.090000000000000000e+02
-1.884887203150574564e+00 -9.566707911734095404e+00 4.090000000000000000e+02
-7.917239545109637788e-01 -8.669493270846146515e+00 4.090000000000000000e+02
3.014392941286474503e-01 -7.772278629958196738e+00 4.090000000000000000e+02
1.394602542768258235e+00 -6.875063989070246961e+00 4.090000000000000000e+02
2.487765791407868576e+00 -5.977849348182296296e+00 4.090000000000000000e+02
3.580929040047479361e+00 -5.080634707294346519e+00 4.090000000000000000e+02
4.674092288687090146e+00 -4.183420066406396742e+00 4.090000000000000000e+02
-2.978050451790185349e+00 -1.046392255262204607e+01 4.100000000000000000e+02
-1.884887203150574564e+00 -9.566707911734095404e+00 4.100000000000000000e+02
-7.917239545109637788e-01 -8.669493270846146515e+00 4.100000000000000000e+02
3.014392941286474503e-01 -7.772278629958196738e+00 4.100000000000000000e+02
1.394602542768258235e+00 -6.875063989070246961e+00 4.100000000000000000e+02
2.487765791407868576e+00 -5.977849348182296296e+00 4.100000000000000000e+02
3.580929040047479361e+00 -5.080634707294346519e+00 4.100000000000000000e+02
4.674092288687090146e+00 -4.183420066406396742e+00 4.100000000000000000e+02
-2.978050451790185349e+00 -1.046392255262204607e+01 4.110000000000000000e+02
-1.884887203150574564e+00 -9.566707911734095404e+00 4.110000000000000000e+02
-7.917239545109637788e-01 -8.669493270846146515e+00 4.110000000000000000e+02
3.014392941286474503e-01 -7.772278629958196738e+00 4.110000000000000000e+02
1.394602542768258235e+00 -6.875063989070246961e+00 4.110000000000000000e+02
2.487765791407868576e+00 -5.977849348182296296e+00 4.110000000000000000e+02
3.580929040047479361e+00 -5.080634707294346519e+00 4.110000000000000000e+02
4.674092288687090146e+00 -4.183420066406396742e+00 4.110000000000000000e+02
-2.978050451790185349e+00 -1.046392255262204607e+01 4.120000000000000000e+02
-1.884887203150574564e+00 -9.566707911734095404e+00 4.120000000000000000e+02
-7.917239545109637788e-01 -8.669493270846146515e+00 4.120000000000000000e+02
3.014392941286474503e-01 -7.772278629958196738e+00 4.120000000000000000e+02
1.394602542768258235e+00 -6.875063989070246961e+00 4.120000000000000000e+02
2.487765791407868576e+00 -5.977849348182296296e+00 4.120000000000000000e+02
3.580929040047479361e+00 -5.080634707294346519e+00 4.120000000000000000e+02
4.674092288687090146e+00 -4.183420066406396742e+00 4.120000000000000000e+02
-2.978050451790185349e+00 -1.046392255262204607e+01 4.130000000000000000e+02
-1.884887203150574564e+00 -9.566707911734095404e+00 4.130000000000000000e+02
-7.917239545109637788e-01 -8.669493270846146515e+00 4.130000000000000000e+02
3.014392941286474503e-01 -7.772278629958196738e+00 4.130000000000000000e+02
1.394602542768258235e+00 -6.875063989070246961e+00 4.130000000000000000e+02
2.487765791407868576e+00 -5.977849348182296296e+00 4.130000000000000000e+02
3.580929040047479361e+00 -5.080634707294346519e+00 4.130000000000000000e+02
4.674092288687090146e+00 -4.183420066406396742e+00 4.130000000000000000e+02
-2.978050451790185349e+00 -1.046392255262204607e+01 4.140000000000000000e+02
-1.884887203150574564e+00 -9.566707911734095404e+00 4.140000000000000000e+02
-7.917239545109637788e-01 -8.669493270846146515e+00 4.140000000000000000e+02
3.014392941286474503e-01 -7.772278629958196738e+00 4.140000000000000000e+02
1.394602542768258235e+00 -6.875063989070246961e+00 4.140000000000000000e+02
2.487765791407868576e+00 -5.977849348182296296e+00 4.140000000000000000e+02
3.580929040047479361e+00 -5.080634707294346519e+00 4.140000000000000000e+02
4.674092288687090146e+00 -4.183420066406396742e+00 4.140000000000000000e+02
-2.978050451790185349e+00 -1.046392255262204607e+01 4.150000000000000000e+02
-1.884887203150574564e+00 -9.566707911734095404e+00 4.150000000000000000e+02
-7.917239545109637788e-01 -8.669493270846146515e+00 4.150000000000000000e+02
3.014392941286474503e-01 -7.772278629958196738e+00 4.150000000000000000e+02
1.394602542768258235e+00 -6.875063989070246961e+00 4.150000000000000000e+02
2.487765791407868576e+00 -5.977849348182296296e+00 4.150000000000000000e+02
