6.125200881583596768e+00 -7.935487562719176324e+00 3.690000000000000000e+02
4.772355660707239267e+00 -8.347567419484827056e+00 3.690000000000000000e+02
3.419510439830881765e+00 -8.759647276250477788e+00 3.690000000000000000e+02
2.066665218954524263e+00 -9.171727133016128519e+00 3.690000000000000000e+02
7.138199980781667620e-01 -9.583806989781779251e+00 3.690000000000000000e+02
-6.390252227981907396e-01 -9.995886846547429982e+00 3.690000000000000000e+02
-1.991870443674549129e+00 -1.040796670331308071e+01 3.690000000000000000e+02
8.830891323336313548e+00 -7.111327849187875749e+00 3.700000000000000000e+02
7.478046102459954270e+00 -7.523407705953525593e+00 3.700000000000000000e+02
6.125200881583596768e+00 -7.935487562719176324e+00 3.700000000000000000e+02
4.772355660707239267e+00 -8.347567419484827056e+00 3.700000000000000000e+02
3.419510439830881765e+00 -8.759647276250477788e+00 3.700000000000000000e+02
2.066665218954524263e+00 -9.171727133016128519e+00 3.700000000000000000e+02
7.138199980781667620e-01 -9.583806989781779251e+00 3.700000000000000000e+02
-6.390252227981907396e-01 -9.995886846547429982e+00 3.700000000000000000e+02
-1.991870443674549129e+00 -1.040796670331308071e+01 3.700000000000000000e+02
8.830891323336313548e+00 -7.111327849187875749e+00 3.710000000000000000e+02
7.478046102459954270e+00 -7.523407705953525593e+00 3.710000000000000000e+02
6.125200881583596768e+00 -7.935487562719176324e+00 3.710000000000000000e+02
4.772355660707239267e+00 -8.347567419484827056e+00 3.710000000000000000e+02
3.419510439830881765e+00 -8.759647276250477788e+00 3.710000000000000000e+02
2.066665218954524263e+00 -9.171727133016128519e+00 3.710000000000000000e+02
7.138199980781667620e-01 -9.583806989781779251e+00 3.710000000000000000e+02
-6.390252227981907396e-01 -9.995886846547429982e+00 3.710000000000000000e+02
-1.991870443674549129e+00 -1.040796670331308071e+01 3.710000000000000000e+02
8.830891323336313548e+00 -7.111327849187875749e+00 3.720000000000000000e+02
7.478046102459954270e+00 -7.523407705953525593e+00 3.720000000000000000e+02
6.125200881583596768e+00 -7.935487562719176324e+00 3.720000000000000000e+02
4.772355660707239267e+00 -8.347567419484827056e+00 3.720000000000000000e+02
3.419510439830881765e+00 -8.759647276250477788e+00 3.720000000000000000e+02
2.066665218954524263e+00 -9.171727133016128519e+00 3.720000000000000000e+02
7.138199980781667620e-01 -9.583806989781779251e+00 3.720000000000000000e+02
-6.390252227981907396e-01 -9.995886846547429982e+00 3.720000000000000000e+02
-1.991870443674549129e+00 -1.040796670331308071e+01 3.720000000000000000e+02
8.830891323336313548e+00 -7.111327849187875749e+00 3.730000000000000000e+02
7.478046102459954270e+00 -7.523407705953525593e+00 3.730000000000000000e+02
6.125200881583596768e+00 -7.935487562719176324e+00 3.730000000000000000e+02
4.772355660707239267e+00 -8.347567419484827056e+00 3.730000000000000000e+02
3.419510439830881765e+00 -8.759647276250477788e+00 3.730000000000000000e+02
2.066665218954524263e+00 -9.171727133016128519e+00 3.730000000000000000e+02
7.138199980781667620e-01 -9.583806989781779251e+00 3.730000000000000000e+02
-6.390252227981907396e-01 -9.995886846547429982e+00 3.730000000000000000e+02
-1.991870443674549129e+00 -1.040796670331308071e+01 3.730000000000000000e+02
8.830891323336313548e+00 -7.111327849187875749e+00 3.740000000000000000e+02
7.478046102459954270e+00 -7.523407705953525593e+00 3.740000000000000000e+02
6.125200881583596768e+00 -7.935487562719176324e+00 3.740000000000000000e+02
4.772355660707239267e+00 -8.347567419484827056e+00 3.740000000000000000e+02
3.419510439830881765e+00 -8.759647276250477788e+00 3.740000000000000000e+02
2.066665218954524263e+00 -9.171727133016128519e+00 3.740000000000000000e+02
7.138199980781667620e-01 -9.583806989781779251e+00 3.740000000000000000e+02
-6.390252227981907396e-01 -9.995886846547429982e+00 3.740000000000000000e+02
-1.991870443674549129e+00 -1.040796670331308071e+01 3.740000000000000000e+02
-3.344715664550906631e+00 -1.082004656007872967e+01 3.740000000000000000e+02
8.830891323336313548e+00 -7.111327849187875749e+00 3.750000000000000000e+02
7.478046102459954270e+00 -7.523407705953525593e+00 3.750000000000000000e+02
6.125200881583596768e+00 -7.935487562719176324e+00 3.750000000000000000e+02
4.772355660707239267e+00 -8.347567419484827056e+00 3.750000000000000000e+02
3.419510439830881765e+00 -8.759647276250477788e+00 3.750000000000000000e+02
2.066665218954524263e+00 -9.171727133016128519e+00 3.750000000000000000e+02
7.138199980781667620e-01 -9.583806989781779251e+00 3.750000000000000000e+02
-6.390252227981907396e-01 -9.995886846547429982e+00 3.750000000000000000e+02
-1.991870443674549129e+00 -1.040796670331308071e+01 3.750000000000000000e+02
-3.344715664550906631e+00 -1.082004656007872967e+01 3.750000000000000000e+02
8.830891323336313548e+00 -7.111327849187875749e+00 3.760000000000000000e+02
7.478046102459954270e+00 -7.523407705953525593e+00 3.760000000000000000e+02
6.125200881583596768e+00 -7.935487562719176324e+00 3.760000000000000000e+02
4.772355660707239267e+00 -8.347567419484827056e+00 3.760000000000000000e+02
3.419510439830881765e+00 -8.759647276250477788e+00 3.760000000000000000e+02
2.066665218954524263e+00 -9.171727133016128519e+00 3.760000000000000000e+02
7.138199980781667620e-01 -9.583806989781779251e+00 3.760000000000000000e+02
-6.390252227981907396e-01 -9.995886846547429982e+00 3.760000000000000000e+02
-1.991870443674549129e+00 -1.040796670331308071e+01 3.760000000000000000e+02
-3.344715664550906631e+00 -1.082004656007872967e+01 3.760000000000000000e+02
8.830891323336313548e+00 -7.111327849187875749e+00 3.770000000000000000e+02
7.478046102459954270e+00 -7.523407705953525593e+00 3.770000000000000000e+02
6.125200881583596768e+00 -7.935487562719176324e+00 3.770000000000000000e+02
4.772355660707239267e+00 -8.347567419484827056e+00 3.770000000000000000e+02
3.419510439830881765e+00 -8.759647276250477788e+00 3.770000000000000000e+02
2.066665218954524263e+00 -9.171727133016128519e+00 3.770000000000000000e+02
7.138199980781667620e-01 -9.583806989781779251e+00 3.770000000000000000e+02
-6.390252227981907396e-01 -9.995886846547429982e+00 3.770000000000000000e+02
-1.991870443674549129e+00 -1.040796670331308071e+01 3.770000000000000000e+02
8.830891323336313548e+00 -7.111327849187875749e+00 3.780000000000000000e+02
7.478046102459954270e+00 -7.523407705953525593e+00 3.780000000000000000e+02
6.125200881583596768e+00 -7.935487562719176324e+00 3.780000000000000000e+02
4.772355660707239267e+00 -8.347567419484827056e+00 3.780000000000000000e+02
3.419510439830881765e+00 -8.759647276250477788e+00 3.780000000000000000e+02
2.066665218954524263e+00 -9.171727133016128519e+00 3.780000000000000000e+02
7.138199980781667620e-01 -9.583806989781779251e+00 3.780000000000000000e+02
-6.390252227981907396e-01 -9.995886846547429982e+00 3.780000000000000000e+02
-1.991870443674549129e+00 -1.040796670331308071e+01 3.780000000000000000e+02
8.830891323336313548e+00 -7.111327849187875749e+00 3.790000000000000000e+02
7.478046102459954270e+00 -7.523407705953525593e+00 3.790000000000000000e+02
6.125200881583596768e+00 -7.935487562719176324e+00 3.790000000000000000e+02
4.772355660707239267e+00 -8.347567419484827056e+00 3.790000000000000000e+02
3.419510439830881765e+00 -8.759647276250477788e+00 3.790000000000000000e+02
2.066665218954524263e+00 -9.171727133016128519e+00 3.790000000000000000e+02
7.138199980781667620e-01 -9.583806989781779251e+00 3.790000000000000000e+02
-6.390252227981907396e-01 -9.995886846547429982e+00 3.790000000000000000e+02
-1.991870443674549129e+00 -1.040796670331308071e+01 3.790000000000000000e+02
8.830891323336313548e+00 -7.111327849187875749e+00 3.800000000000000000e+02
7.478046102459954270e+00 -7.523407705953525593e+00 3.800000000000000000e+02
6.125200881583596768e+00 -7.935487562719176324e+00 3.800000000000000000e+02
4.772355660707239267e+00 -8.347567419484827056e+00 3.800000000000000000e+02
3.419510439830881765e+00 -8.759647276250477788e+00 3.800000000000000000e+02
2.066665218954524263e+00 -9.171727133016128519e+00 3.800000000000000000e+02
7.138199980781667620e-01 -9.583806989781779251e+00 3.800000000000000000e+02
-6.390252227981907396e-01 -9.995886846547429982e+00 3.800000000000000000e+02
-1.991870443674549129e+00 -1.040796670331308071e+01 3.800000000000000000e+02
8.830891323336313548e+00 -7.111327849187875749e+00 3.810000000000000000e+02
7.478046102459954270e+00 -7.523407705953525593e+00 3.810000000000000000e+02
6.125200881583596768e+00 -7.935487562719176324e+00 3.810000000000000000e+02
4.772355660707239267e+00 -8.347567419484827056e+00 3.810000000000000000e+02
3.419510439830881765e+00 -8.759647276250477788e+00 3.810000000000000000e+02
2.066665218954524263e+00 -9.171727133016128519e+00 3.810000000000000000e+02
7.138199980781667620e-01 -9.583806989781779251e+00 3.810000000000000000e+02
-6.390252227981907396e-01 -9.995886846547429982e+00 3.810000000000000000e+02
-1.991870443674549129e+00 -1.040796670331308071e+01 3.810000000000000000e+02
8.830891323336313548e+00 -7.111327849187875749e+00 3.820000000000000000e+02
7.478046102459954270e+00 -7.523407705953525593e+00 3.820000000000000000e+02
6.125200881583596768e+00 -7.935487562719176324e+00 3.820000000000000000e+02
4.772355660707239267e+00 -8.347567419484827056e+00 3.820000000000000000e+02
3.419510439830881765e+00 -8.759647276250477788e+00 3.820000000000000000e+02
2.066665218954524263e+00 -9.171727133016128519e+00 3.820000000000000000e+02
7.138199980781667620e-01 -9.583806989781779251e+00 3.820000000000000000e+02
-6.390252227981907396e-01 -9.995886846547429982e+00 3.820000000000000000e+02
-1.991870443674549129e+00 -1.040796670331308071e+01 3.820000000000000000e+02
8.830891323336313548e+00 -7.111327849187875749e+00 3.830000000000000000e+02
7.478046102459954270e+00 -7.523407705953525593e+00 3.830000000000000000e+02
6.125200881583596768e+00 -7.935487562719176324e+00 3.830000000000000000e+02
4.772355660707239267e+00 -8.347567419484827056e+00 3.830000000000000000e+02
3.419510439830881765e+00 -8.759647276250477788e+00 3.830000000000000000e+02
2.066665218954524263e+00 -9.171727133016128519e+00 3.830000000000000000e+02
7.138199980781667620e-01 -9.583806989781779251e+00 3.830000000000000000e+02
-6.390252227981907396e-01 -9.995886846547429982e+00 3.830000000000000000e+02
-1.991870443674549129e+00 -1.040796670331308071e+01 3.830000000000000000e+02
-3.344715664550906631e+00 -1.082004656007872967e+01 3.830000000000000000e+02
8.830891323336313548e+00 -7.111327849187875749e+00 3.840000000000000000e+02
7.478046102459954270e+00 -7.523407705953525593e+00 3.840000000000000000e+02
6.125200881583596768e+00 -7.935487562719176324e+00 3.840000000000000000e+02
4.772355660707239267e+00 -8.347567419484827056e+00 3.840000000000000000e+02
3.419510439830881765e+00 -8.759647276250477788e+00 3.840000000000000000e+02
2.066665218954524263e+00 -9.171727133016128519e+00 3.840000000000000000e+02
7.138199980781667620e-01 -9.583806989781779251e+00 3.840000000000000000e+02
-6.390252227981907396e-01 -9.995886846547429982e+00 3.840000000000000000e+02
-1.991870443674549129e+00 -1.040796670331308071e+01 3.840000000000000000e+02
8.830891323336313548e+00 -7.111327849187875749e+00 3.850000000000000000e+02
7.478046102459954270e+00 -7.523407705953525593e+00 3.850000000000000000e+02
6.125200881583596768e+00 -7.935487562719176324e+00 3.850000000000000000e+02
4.772355660707239267e+00 -8.347567419484827056e+00 3.850000000000000000e+02
3.419510439830881765e+00 -8.759647276250477788e+00 3.850000000000000000e+02
2.066665218954524263e+00 -9.171727133016128519e+00 3.850000000000000000e+02
7.138199980781667620e-01 -9.583806989781779251e+00 3.850000000000000000e+02
-6.390252227981907396e-01 -9.995886846547429982e+00 3.850000000000000000e+02
-1.991870443674549129e+00 -1.040796670331308071e+01 3.850000000000000000e+02
8.830891323336313548e+00 -7.111327849187875749e+00 3.860000000000000000e+02
7.478046102459954270e+00 -7.523407705953525593e+00 3.860000000000000000e+02
6.125200881583596768e+00 -7.935487562719176324e+00 3.860000000000000000e+02
4.772355660707239267e+00 -8.347567419484827056e+00 3.860000000000000000e+02
3.419510439830881765e+00 -8.759647276250477788e+00 3.860000000000000000e+02
2.066665218954524263e+00 -9.171727133016128519e+00 3.860000000000000000e+02
7.138199980781667620e-01 -9.583806989781779251e+00 3.860000000000000000e+02
-6.390252227981907396e-01 -9.995886846547429982e+00 3.860000000000000000e+02
-1.991870443674549129e+00 -1.040796670331308071e+01 3.860000000000000000e+02
8.830891323336313548e+00 -7.111327849187875749e+00 3.870000000000000000e+02
7.478046102459954270e+00 -7.523407705953525593e+00 3.870000000000000000e+02
6.125200881583596768e+00 -7.935487562719176324e+00 3.870000000000000000e+02
4.772355660707239267e+00 -8.347567419484827056e+00 3.870000000000000000e+02
3.419510439830881765e+00 -8.759647276250477788e+00 3.870000000000000000e+02
2.066665218954524263e+00 -9.171727133016128519e+00 3.870000000000000000e+02
7.138199980781667620e-01 -9.583806989781779251e+00 3.870000000000000000e+02
-6.390252227981907396e-01 -9.995886846547429982e+00 3.870000000000000000e+02
-1.991870443674549129e+00 -1.040796670331308071e+01 3.870000000000000000e+02
8.830891323336313548e+00 -7.111327849187875749e+00 3.880000000000000000e+02
7.478046102459954270e+00 -7.523407705953525593e+00 3.880000000000000000e+02
6.125200881583596768e+00 -7.935487562719176324e+00 3.880000000000000000e+02
4.772355660707239267e+00 -8.347567419484827056e+00 3.880000000000000000e+02
3.419510439830881765e+00 -8.759647276250477788e+00 3.880000000000000000e+02
2.066665218954524263e+00 -9.171727133016128519e+00 3.880000000000000000e+02
7.138199980781667620e-01 -9.583806989781779251e+00 3.880000000000000000e+02
-6.390252227981907396e-01 -9.995886846547429982e+00 3.880000000000000000e+02
-1.991870443674549129e+00 -1.040796670331308071e+01 3.880000000000000000e+02
8.830891323336313548e+00 -7.111327849187875749e+00 3.890000000000000000e+02
7.478046102459954270e+00 -7.523407705953525593e+00 3.890000000000000000e+02
6.125200881583596768e+00 -7.935487562719176324e+00 3.890000000000000000e+02
4.772355660707239267e+00 -8.347567419484827056e+00 3.890000000000000000e+02
3.419510439830881765e+00 -8.759647276250477788e+00 3.890000000000000000e+02
2.066665218954524263e+00 -9.171727133016128519e+00 3.890000000000000000e+02
7.138199980781667620e-01 -9.583806989781779251e+00 3.890000000000000000e+02
-6.390252227981907396e-01 -9.995886846547429982e+00 3.890000000000000000e+02
-1.991870443674549129e+00 -1.040796670331308071e+01 3.890000000000000000e+02
8.830891323336313548e+00 -7.111327849187875749e+00 3.900000000000000000e+02
7.478046102459954270e+00 -7.523407705953525593e+00 3.900000000000000000e+02
6.125200881583596768e+00 -7.935487562719176324e+00 3.900000000000000000e+02
4.772355660707239267e+00 -8.347567419484827056e+00 3.900000000000000000e+02
3.419510439830881765e+00 -8.759647276250477788e+00 3.900000000000000000e+02
2.066665218954524263e+00 -9.171727133016128519e+00 3.900000000000000000e+02
7.138199980781667620e-01 -9.583806989781779251e+00 3.900000000000000000e+02
-6.390252227981907396e-01 -9.995886846547429982e+00 3.900000000000000000e+02
-1.991870443674549129e+00 -1.040796670331308071e+01 3.900000000000000000e+02
9.713353862157315888e+00 -7.581710531243229134e+00 3.910000000000000000e+02
8.360508641280958386e+00 -7.993790388008879866e+00 3.910000000000000000e+02
7.007663420404600885e+00 -8.405870244774529709e+00 3.910000000000000000e+02
5.654818199528243383e+00 -8.817950101540180441e+00 3.910000000000000000e+02
4.301972978651885882e+00 -9.230029958305831173e+00 3.910000000000000000e+02
2.949127757775528380e+00 -9.642109815071481904e+00 3.910000000000000000e+02
1.596282536899170879e+00 -1.005418967183713264e+01 3.910000000000000000e+02
2.434373160228133770e-01 -1.046626952860278337e+01 3.910000000000000000e+02
-1.109407904853544125e+00 -1.087834938536843410e+01 3.910000000000000000e+02
-2.462253125729902514e+00 -1.129042924213408483e+01 3.910000000000000000e+02
8.830891323336313548e+00 -7.111327849187875749e+00 3.920000000000000000e+02
7.478046102459954270e+00 -7.523407705953525593e+00 3.920000000000000000e+02
6.125200881583596768e+00 -7.935487562719176324e+00 3.920000000000000000e+02
4.772355660707239267e+00 -8.347567419484827056e+00 3.920000000000000000e+02
3.419510439830881765e+00 -8.759647276250477788e+00 3.920000000000000000e+02
2.066665218954524263e+00 -9.171727133016128519e+00 3.920000000000000000e+02
7.138199980781667620e-01 -9.583806989781779251e+00 3.920000000000000000e+02
-6.390252227981907396e-01 -9.995886846547429982e+00 3.920000000000000000e+02
-1.991870443674549129e+00 -1.040796670331308071e+01 3.920000000000000000e+02
8.830891323336313548e+00 -7.111327849187875749e+00 3.930000000000000000e+02
7.478046102459954270e+00 -7.523407705953525593e+00 3.930000000000000000e+02
6.125200881583596768e+00 -7.935487562719176324e+00 3.930000000000000000e+02
4.772355660707239267e+00 -8.347567419484827056e+00 3.930000000000000000e+02
3.419510439830881765e+00 -8.759647276250477788e+00 3.930000000000000000e+02
2.066665218954524263e+00 -9.171727133016128519e+00 3.930000000000000000e+02
7.138199980781667620e-01 -9.583806989781779251e+00 3.930000000000000000e+02
-6.390252227981907396e-01 -9.995886846547429982e+00 3.930000000000000000e+02
-1.991870443674549129e+00 -1.040796670331308071e+01 3.930000000000000000e+02
8.830891323336313548e+00 -7.111327849187875749e+00 3.940000000000000000e+02
7.478046102459954270e+00 -7.523407705953525593e+00 3.940000000000000000e+02
6.125200881583596768e+00 -7.935487562719176324e+00 3.940000000000000000e+02
4.772355660707239267e+00 -8.347567419484827056e+00 3.940000000000000000e+02
3.419510439830881765e+00 -8.759647276250477788e+00 3.940000000000000000e+02
2.066665218954524263e+00 -9.171727133016128519e+00 3.940000000000000000e+02
7.138199980781667620e-01 -9.583806989781779251e+00 3.940000000000000000e+02
-6.390252227981907396e-01 -9.995886846547429982e+00 3.940000000000000000e+02
-1.991870443674549129e+00 -1.040796670331308071e+01 3.940000000000000000e+02
8.830891323336313548e+00 -7.111327849187875749e+00 3.950000000000000000e+02
7.478046102459954270e+00 -7.523407705953525593e+00 3.950000000000000000e+02
6.125200881583596768e+00 -7.935487562719176324e+00 3.950000000000000000e+02
4.772355660707239267e+00 -8.347567419484827056e+00 3.950000000000000000e+02
3.419510439830881765e+00 -8.759647276250477788e+00 3.950000000000000000e+02
2.066665218954524263e+00 -9.171727133016128519e+00 3.950000000000000000e+02
7.138199980781667620e-01 -9.583806989781779251e+00 3.950000000000000000e+02
-6.390252227981907396e-01 -9.995886846547429982e+00 3.950000000000000000e+02
-1.991870443674549129e+00 -1.040796670331308071e+01 3.950000000000000000e+02
8.830891323336313548e+00 -7.111327849187875749e+00 3.960000000000000000e+02
7.478046102459954270e+00 -7.523407705953525593e+00 3.960000000000000000e+02
6.125200881583596768e+00 -7.935487562719176324e+00 3.960000000000000000e+02
4.772355660707239267e+00 -8.347567419484827056e+00 3.960000000000000000e+02
3.419510439830881765e+00 -8.759647276250477788e+00 3.960000000000000000e+02
2.066665218954524263e+00 -9.171727133016128519e+00 3.960000000000000000e+02
7.138199980781667620e-01 -9.583806989781779251e+00 3.960000000000000000e+02
-6.390252227981907396e-01 -9.995886846547429982e+00 3.960000000000000000e+02
-1.991870443674549129e+00 -1.040796670331308071e+01 3.960000000000000000e+02
8.830891323336313548e+00 -7.111327849187875749e+00 3.970000000000000000e+02
7.478046102459954270e+00 -7.523407705953525593e+00 3.970000000000000000e+02
6.125200881583596768e+00 -7.935487562719176324e+00 3.970000000000000000e+02
4.772355660707239267e+00 -8.347567419484827056e+00 3.970000000000000000e+02
3.419510439830881765e+00 -8.759647276250477788e+00 3.970000000000000000e+02
2.066665218954524263e+00 -9.171727133016128519e+00 3.970000000000000000e+02
7.138199980781667620e-01 -9.583806989781779251e+00 3.970000000000000000e+02
-6.390252227981907396e-01 -9.995886846547429982e+00 3.970000000000000000e+02
-1.991870443674549129e+00 -1.040796670331308071e+01 3.970000000000000000e+02
8.830891323336313548e+00 -7.111327849187875749e+00 3.980000000000000000e+02
7.478046102459954270e+00 -7.523407705953525593e+00 3.980000000000000000e+02
6.125200881583596768e+00 -7.935487562719176324e+00 3.980000000000000000e+02
4.772355660707239267e+00 -8.347567419484827056e+00 3.980000000000000000e+02
3.419510439830881765e+00 -8.759647276250477788e+00 3.980000000000000000e+02
2.066665218954524263e+00 -9.171727133016128519e+00 3.980000000000000000e+02
7.138199980781667620e-01 -9.583806989781779251e+00 3.980000000000000000e+02
-6.390252227981907396e-01 -9.995886846547429982e+00 3.980000000000000000e+02
-1.991870443674549129e+00 -1.040796670331308071e+01 3.980000000000000000e+02
8.830891323336313548e+00 -7.111327849187875749e+00 3.990000000000000000e+02
7.478046102459954270e+00 -7.523407705953525593e+00 3.990000000000000000e+02
6.125200881583596768e+00 -7.935487562719176324e+00 3.990000000000000000e+02
4.772355660707239267e+00 -8.347567419484827056e+00 3.990000000000000000e+02
3.419510439830881765e+00 -8.759647276250477788e+00 3.990000000000000000e+02
2.066665218954524263e+00 -9.171727133016128519e+00 3.990000000000000000e+02
7.138199980781667620e-01 -9.583806989781779251e+00 3.990000000000000000e+02
-6.390252227981907396e-01 -9.995886846547429982e+00 3.990000000000000000e+02
-1.991870443674549129e+00 -1.040796670331308071e+01 3.990000000000000000e+02
8.830891323336313548e+00 -7.111327849187875749e+00 4.000000000000000000e+02
7.478046102459954270e+00 -7.523407705953525593e+00 4.000000000000000000e+02
6.125200881583596768e+00 -7.935487562719176324e+00 4.000000000000000000e+02
4.772355660707239267e+00 -8.347567419484827056e+00 4.000000000000000000e+02
3.419510439830881765e+00 -8.759647276250477788e+00 4.000000000000000000e+02
2.066665218954524263e+00 -9.171727133016128519e+00 4.000000000000000000e+02
7.138199980781667620e-01 -9.583806989781779251e+00 4.000000000000000000e+02
-6.390252227981907396e-01 -9.995886846547429982e+00 4.000000000000000000e+02
-1.991870443674549129e+00 -1.040796670331308071e+01 4.000000000000000000e+02
8.830891323336313548e+00 -7.111327849187875749e+00 4.010000000000000000e+02
7.478046102459954270e+00 -7.523407705953525593e+00 4.010000000000000000e+02
6.125200881583596768e+00 -7.935487562719176324e+00 4.010000000000000000e+02
4.772355660707239267e+00 -8.347567419484827056e+00 4.010000000000000000e+02
3.419510439830881765e+00 -8.759647276250477788e+00 4.010000000000000000e+02
2.066665218954524263e+00 -9.171727133016128519e+00 4.010000000000000000e+02
7.138199980781667620e-01 -9.583806989781779251e+00 4.010000000000000000e+02
-6.390252227981907396e-01 -9.995886846547429982e+00 4.010000000000000000e+02
-1.991870443674549129e+00 -1.040796670331308071e+01 4.010000000000000000e+02
9.713353862157315888e+00 -7.581710531243229134e+00 4.020000000000000000e+02
8.360508641280958386e+00 -7.993790388008879866e+00 4.020000000000000000e+02
7.007663420404600885e+00 -8.405870244774529709e+00 4.020000000000000000e+02
5.654818199528243383e+00 -8.817950101540180441e+00 4.020000000000000000e+02
4.301972978651885882e+00 -9.230029958305831173e+00 4.020000000000000000e+02
2.949127757775528380e+00 -9.642109815071481904e+00 4.020000000000000000e+02
1.596282536899170879e+00 -1.005418967183713264e+01 4.020000000000000000e+02
2.434373160228133770e-01 -1.046626952860278337e+01 4.020000000000000000e+02
-1.109407904853544125e+00 -1.087834938536843410e+01 4.020000000000000000e+02
-2.462253125729902514e+00 -1.129042924213408483e+01 4.020000000000000000e+02
9.713353862157315888e+00 -7.581710531243229134e+00 4.030000000000000000e+02
8.360508641280958386e+00 -7.993790388008879866e+00 4.030000000000000000e+02
7.007663420404600885e+00 -8.405870244774529709e+00 4.030000000000000000e+02
5.654818199528243383e+00 -8.817950101540180441e+00 4.030000000000000000e+02
4.301972978651885882e+00 -9.230029958305831173e+00 4.030000000000000000e+02
2.949127757775528380e+00 -9.642109815071481904e+00 4.030000000000000000e+02
1.596282536899170879e+00 -1.005418967183713264e+01 4.030000000000000000e+02
2.434373160228133770e-01 -1.046626952860278337e+01 4.030000000000000000e+02
-1.109407904853544125e+00 -1.087834938536843410e+01 4.030000000000000000e+02
-2.462253125729902514e+00 -1.129042924213408483e+01 4.030000000000000000e+02
8.830891323336313548e+00 -7.111327849187875749e+00 4.040000000000000000e+02
7.478046102459954270e+00 -7.523407705953525593e+00 4.040000000000000000e+02
6.125200881583596768e+00 -7.935487562719176324e+00 4.040000000000000000e+02
4.772355660707239267e+00 -8.347567419484827056e+00 4.040000000000000000e+02
3.419510439830881765e+00 -8.759647276250477788e+00 4.040000000000000000e+02
2.066665218954524263e+00 -9.171727133016128519e+00 4.040000000000000000e+02
7.138199980781667620e-01 -9.583806989781779251e+00 4.040000000000000000e+02
-6.390252227981907396e-01 -9.995886846547429982e+00 4.040000000000000000e+02
-1.991870443674549129e+00 -1.040796670331308071e+01 4.040000000000000000e+02
8.830891323336313548e+00 -7.111327849187875749e+00 4.050000000000000000e+02
7.478046102459954270e+00 -7.523407705953525593e+00 4.050000000000000000e+02
6.125200881583596768e+00 -7.935487562719176324e+00 4.050000000000000000e+02
4.772355660707239267e+00 -8.347567419484827056e+00 4.050000000000000000e+02
3.419510439830881765e+00 -8.759647276250477788e+00 4.050000000000000000e+02
2.066665218954524263e+00 -9.171727133016128519e+00 4.050000000000000000e+02
7.138199980781667620e-01 -9.583806989781779251e+00 4.050000000000000000e+02
-6.390252227981907396e-01 -9.995886846547429982e+00 4.050000000000000000e+02
8.830891323336313548e+00 -7.111327849187875749e+00 4.060000000000000000e+02
7.478046102459954270e+00 -7.523407705953525593e+00 4.060000000000000000e+02
6.125200881583596768e+00 -7.935487562719176324e+00 4.060000000000000000e+02
4.772355660707239267e+00 -8.347567419484827056e+00 4.060000000000000000e+02
3.419510439830881765e+00 -8.759647276250477788e+00 4.060000000000000000e+02
2.066665218954524263e+00 -9.171727133016128519e+00 4.060000000000000000e+02
7.138199980781667620e-01 -9.583806989781779251e+00 4.060000000000000000e+02
-6.390252227981907396e-01 -9.995886846547429982e+00 4.060000000000000000e+02
8.830891323336313548e+00 -7.111327849187875749e+00 4.070000000000000000e+02
7.478046102459954270e+00 -7.523407705953525593e+00 4.070000000000000000e+02
6.125200881583596768e+00 -7.935487562719176324e+00 4.070000000000000000e+02
4.772355660707239267e+00 -8.347567419484827056e+00 4.070000000000000000e+02
3.419510439830881765e+00 -8.759647276250477788e+00 4.070000000000000000e+02
2.066665218954524263e+00 -9.171727133016128519e+00 4.070000000000000000e+02
7.138199980781667620e-01 -9.583806989781779251e+00 4.070000000000000000e+02
-6.390252227981907396e-01 -9.995886846547429982e+00 4.070000000000000000e+02
9.713353862157315888e+00 -7.581710531243229134e+00 4.080000000000000000e+02
8.360508641280958386e+00 -7.993790388008879866e+00 4.080000000000000000e+02
7.007663420404600885e+00 -8.405870244774529709e+00 4.080000000000000000e+02
5.654818199528243383e+00 -8.817950101540180441e+00 4.080000000000000000e+02
4.301972978651885882e+00 -9.230029958305831173e+00 4.080000000000000000e+02
2.949127757775528380e+00 -9.642109815071481904e+00 4.080000000000000000e+02
1.596282536899170879e+00 -1.005418967183713264e+01 4.080000000000000000e+02
2.434373160228133770e-01 -1.046626952860278337e+01 4.080000000000000000e+02
-1.109407904853544125e+00 -1.087834938536843410e+01 4.080000000000000000e+02
8.830891323336313548e+00 -7.111327849187875749e+00 4.090000000000000000e+02
7.478046102459954270e+00 -7.523407705953525593e+00 4.090000000000000000e+02
6.125200881583596768e+00 -7.935487562719176324e+00 4.090000000000000000e+02
4.772355660707239267e+00 -8.347567419484827056e+00 4.090000000000000000e+02
3.419510439830881765e+00 -8.759647276250477788e+00 4.090000000000000000e+02
2.066665218954524263e+00 -9.171727133016128519e+00 4.090000000000000000e+02
7.138199980781667620e-01 -9.583806989781779251e+00 4.090000000000000000e+02
-6.390252227981907396e-01 -9.995886846547429982e+00 4.090000000000000000e+02
8.830891323336313548e+00 -7.111327849187875749e+00 4.100000000000000000e+02
7.478046102459954270e+00 -7.523407705953525593e+00 4.100000000000000000e+02
6.125200881583596768e+00 -7.935487562719176324e+00 4.100000000000000000e+02
4.772355660707239267e+00 -8.347567419484827056e+00 4.100000000000000000e+02
3.419510439830881765e+00 -8.759647276250477788e+00 4.100000000000000000e+02
2.066665218954524263e+00 -9.171727133016128519e+00 4.100000000000000000e+02
7.138199980781667620e-01 -9.583806989781779251e+00 4.100000000000000000e+02
-6.390252227981907396e-01 -9.995886846547429982e+00 4.100000000000000000e+02
-1.991870443674549129e+00 -1.040796670331308071e+01 4.100000000000000000e+02
8.830891323336313548e+00 -7.111327849187875749e+00 4.110000000000000000e+02
7.478046102459954270e+00 -7.523407705953525593e+00 4.110000000000000000e+02
6.125200881583596768e+00 -7.935487562719176324e+00 4.110000000000000000e+02
4.772355660707239267e+00 -8.347567419484827056e+00 4.110000000000000000e+02
3.419510439830881765e+00 -8.759647276250477788e+00 4.110000000000000000e+02
2.066665218954524263e+00 -9.171727133016128519e+00 4.110000000000000000e+02
7.138199980781667620e-01 -9.583806989781779251e+00 4.110000000000000000e+02
-6.390252227981907396e-01 -9.995886846547429982e+00 4.110000000000000000e+02
-1.991870443674549129e+00 -1.040796670331308071e+01 4.110000000000000000e+02
9.713353862157315888e+00 -7.581710531243229134e+00 4.120000000000000000e+02
8.360508641280958386e+00 -7.993790388008879866e+00 4.120000000000000000e+02
7.007663420404600885e+00 -8.405870244774529709e+00 4.120000000000000000e+02
5.654818199528243383e+00 -8.817950101540180441e+00 4.120000000000000000e+02
4.301972978651885882e+00 -9.230029958305831173e+00 4.120000000000000000e+02
2.949127757775528380e+00 -9.642109815071481904e+00 4.120000000000000000e+02
1.596282536899170879e+00 -1.005418967183713264e+01 4.120000000000000000e+02
2.434373160228133770e-01 -1.046626952860278337e+01 4.120000000000000000e+02
-1.109407904853544125e+00 -1.087834938536843410e+01 4.120000000000000000e+02
-2.462253125729902514e+00 -1.129042924213408483e+01 4.120000000000000000e+02
9.713353862157315888e+00 -7.581710531243229134e+00 4.130000000000000000e+02
8.360508641280958386e+00 -7.993790388008879866e+00 4.130000000000000000e+02
7.007663420404600885e+00 -8.405870244774529709e+00 4.130000000000000000e+02
5.654818199528243383e+00 -8.817950101540180441e+00 4.130000000000000000e+02
4.301972978651885882e+00 -9.230029958305831173e+00 4.130000000000000000e+02
2.949127757775528380e+00 -9.642109815071481904e+00 4.130000000000000000e+02
1.596282536899170879e+00 -1.005418967183713264e+01 4.130000000000000000e+02
2.434373160228133770e-01 -1.046626952860278337e+01 4.130000000000000000e+02
-1.109407904853544125e+00 -1.087834938536843410e+01 4.130000000000000000e+02
9.713353862157315888e+00 -7.581710531243229134e+00 4.140000000000000000e+02
8.360508641280958386e+00 -7.993790388008879866e+00 4.140000000000000000e+02
7.007663420404600885e+00 -8.405870244774529709e+00 4.140000000000000000e+02
5.654818199528243383e+00 -8.817950101540180441e+00 4.140000000000000000e+02
4.301972978651885882e+00 -9.230029958305831173e+00 4.140000000000000000e+02
2.949127757775528380e+00 -9.642109815071481904e+00 4.140000000000000000e+02
1.596282536899170879e+00 -1.005418967183713264e+01 4.140000000000000000e+02
2.434373160228133770e-01 -1.046626952860278337e+01 4.140000000000000000e+02
-1.109407904853544125e+00 -1.087834938536843410e+01 4.140000000000000000e+02
9.713353862157315888e+00 -7.581710531243229134e+00 4.150000000000000000e+02
8.360508641280958386e+00 -7.993790388008879866e+00 4.150000000000000000e+02
7.007663420404600885e+00 -8.405870244774529709e+00 4.150000000000000000e+02
5.654818199528243383e+00 -8.817950101540180441e+00 4.150000000000000000e+02
4.301972978651885882e+00 -9.230029958305831173e+00 4.150000000000000000e+02
2.949127757775528380e+00 -9.642109815071481904e+00 4.150000000000000000e+02
1.596282536899170879e+00 -1.005418967183713264e+01 4.150000000000000000e+02
2.434373160228133770e-01 -1.046626952860278337e+01 4.150000000000000000e+02
-1.109407904853544125e+00 -1.087834938536843410e+01 4.150000000000000000e+02
9.713353862157315888e+00 -7.581710531243229134e+00 4.160000000000000000e+02
8.360508641280958386e+00 -7.993790388008879866e+00 4.160000000000000000e+02
7.007663420404600885e+00 -8.405870244774529709e+00 4.160000000000000000e+02
5.654818199528243383e+00 -8.817950101540180441e+00 4.160000000000000000e+02
4.301972978651885882e+00 -9.230029958305831173e+00 4.160000000000000000e+02
2.949127757775528380e+00 -9.642109815071481904e+00 4.160000000000000000e+02
1.596282536899170879e+00 -1.005418967183713264e+01 4.160000000000000000e+02
2.434373160228133770e-01 -1.046626952860278337e+01 4.160000000000000000e+02
-1.109407904853544125e+00 -1.087834938536843410e+01 4.160000000000000000e+02
9.713353862157315888e+00 -7.581710531243229134e+00 4.170000000000000000e+02
8.360508641280958386e+00 -7.993790388008879866e+00 4.170000000000000000e+02
7.007663420404600885e+00 -8.405870244774529709e+00 4.170000000000000000e+02
5.654818199528243383e+00 -8.817950101540180441e+00 4.170000000000000000e+02
4.301972978651885882e+00 -9.230029958305831173e+00 4.170000000000000000e+02
2.949127757775528380e+00 -9.642109815071481904e+00 4.170000000000000000e+02
1.596282536899170879e+00 -1.005418967183713264e+01 4.170000000000000000e+02
2.434373160228133770e-01 -1.046626952860278337e+01 4.170000000000000000e+02
-1.109407904853544125e+00 -1.087834938536843410e+01 4.170000000000000000e+02
9.713353862157315888e+00 -7.581710531243229134e+00 4.180000000000000000e+02
8.360508641280958386e+00 -7.993790388008879866e+00 4.180000000000000000e+02
7.007663420404600885e+00 -8.405870244774529709e+00 4.180000000000000000e+02
5.654818199528243383e+00 -8.817950101540180441e+00 4.180000000000000000e+02
4.301972978651885882e+00 -9.230029958305831173e+00 4.180000000000000000e+02
2.949127757775528380e+00 -9.642109815071481904e+00 4.180000000000000000e+02
1.596282536899170879e+00 -1.005418967183713264e+01 4.180000000000000000e+02
2.434373160228133770e-01 -1.046626952860278337e+01 4.180000000000000000e+02
-1.109407904853544125e+00 -1.087834938536843410e+01 4.180000000000000000e+02
9.713353862157315888e+00 -7.581710531243229134e+00 4.190000000000000000e+02
8.360508641280958386e+00 -7.993790388008879866e+00 4.190000000000000000e+02
7.007663420404600885e+00 -8.405870244774529709e+00 4.190000000000000000e+02
5.654818199528243383e+00 -8.817950101540180441e+00 4.190000000000000000e+02
4.301972978651885882e+00 -9.230029958305831173e+00 4.190000000000000000e+02
2.949127757775528380e+00 -9.642109815071481904e+00 4.190000000000000000e+02
1.596282536899170879e+00 -1.005418967183713264e+01 4.190000000000000000e+02
2.434373160228133770e-01 -1.046626952860278337e+01 4.190000000000000000e+02
-1.109407904853544125e+00 -1.087834938536843410e+01 4.190000000000000000e+02
1.059581640097832000e+01 -8.052093213298583407e+00 4.200000000000000000e+02
9.242971180101964279e+00 -8.464173070064234139e+00 4.200000000000000000e+02
7.890125959225605001e+00 -8.876252926829883094e+00 4.200000000000000000e+02
6.537280738349247500e+00 -9.288332783595533826e+00 4.200000000000000000e+02
5.184435517472889998e+00 -9.700412640361184557e+00 4.200000000000000000e+02
3.831590296596532497e+00 -1.011249249712683529e+01 4.200000000000000000e+02
2.478745075720174995e+00 -1.052457235389248602e+01 4.200000000000000000e+02
1.125899854843817494e+00 -1.093665221065813675e+01 4.200000000000000000e+02
-2.269453660325400080e-01 -1.134873206742378748e+01 4.200000000000000000e+02
-1.579790586908897509e+00 -1.176081192418943822e+01 4.200000000000000000e+02
1.059581640097832000e+01 -8.052093213298583407e+00 4.210000000000000000e+02
9.242971180101964279e+00 -8.464173070064234139e+00 4.210000000000000000e+02
7.890125959225605001e+00 -8.876252926829883094e+00 4.210000000000000000e+02
6.537280738349247500e+00 -9.288332783595533826e+00 4.210000000000000000e+02
5.184435517472889998e+00 -9.700412640361184557e+00 4.210000000000000000e+02
3.831590296596532497e+00 -1.011249249712683529e+01 4.210000000000000000e+02
2.478745075720174995e+00 -1.052457235389248602e+01 4.210000000000000000e+02
1.125899854843817494e+00 -1.093665221065813675e+01 4.210000000000000000e+02
-2.269453660325400080e-01 -1.134873206742378748e+01 4.210000000000000000e+02
-1.579790586908897509e+00 -1.176081192418943822e+01 4.210000000000000000e+02
1.059581640097832000e+01 -8.052093213298583407e+00 4.220000000000000000e+02
9.242971180101964279e+00 -8.464173070064234139e+00 4.220000000000000000e+02
7.890125959225605001e+00 -8.876252926829883094e+00 4.220000000000000000e+02
6.537280738349247500e+00 -9.288332783595533826e+00 4.220000000000000000e+02
5.184435517472889998e+00 -9.700412640361184557e+00 4.220000000000000000e+02
3.831590296596532497e+00 -1.011249249712683529e+01 4.220000000000000000e+02
2.478745075720174995e+00 -1.052457235389248602e+01 4.220000000000000000e+02
1.125899854843817494e+00 -1.093665221065813675e+01 4.220000000000000000e+02
-2.269453660325400080e-01 -1.134873206742378748e+01 4.220000000000000000e+02
-1.579790586908897509e+00 -1.176081192418943822e+01 4.220000000000000000e+02
1.059581640097832000e+01 -8.052093213298583407e+00 4.230000000000000000e+02
9.242971180101964279e+00 -8.464173070064234139e+00 4.230000000000000000e+02
7.890125959225605001e+00 -8.876252926829883094e+00 4.230000000000000000e+02
6.537280738349247500e+00 -9.288332783595533826e+00 4.230000000000000000e+02
5.184435517472889998e+00 -9.700412640361184557e+00 4.230000000000000000e+02
3.831590296596532497e+00 -1.011249249712683529e+01 4.230000000000000000e+02
2.478745075720174995e+00 -1.052457235389248602e+01 4.230000000000000000e+02
1.125899854843817494e+00 -1.093665221065813675e+01 4.230000000000000000e+02
-2.269453660325400080e-01 -1.134873206742378748e+01 4.230000000000000000e+02
-1.579790586908897509e+00 -1.176081192418943822e+01 4.230000000000000000e+02
1.059581640097832000e+01 -8.052093213298583407e+00 4.240000000000000000e+02
9.242971180101964279e+00 -8.464173070064234139e+00 4.240000000000000000e+02
7.890125959225605001e+00 -8.876252926829883094e+00 4.240000000000000000e+02
6.537280738349247500e+00 -9.288332783595533826e+00 4.240000000000000000e+02
5.184435517472889998e+00 -9.700412640361184557e+00 4.240000000000000000e+02
3.831590296596532497e+00 -1.011249249712683529e+01 4.240000000000000000e+02
2.478745075720174995e+00 -1.052457235389248602e+01 4.240000000000000000e+02
1.125899854843817494e+00 -1.093665221065813675e+01 4.240000000000000000e+02
-2.269453660325400080e-01 -1.134873206742378748e+01 4.240000000000000000e+02
-1.579790586908897509e+00 -1.176081192418943822e+01 4.240000000000000000e+02
1.059581640097832000e+01 -8.052093213298583407e+00 4.250000000000000000e+02
9.242971180101964279e+00 -8.464173070064234139e+00 4.250000000000000000e+02
7.890125959225605001e+00 -8.876252926829883094e+00 4.250000000000000000e+02
6.537280738349247500e+00 -9.288332783595533826e+00 4.250000000000000000e+02
5.184435517472889998e+00 -9.700412640361184557e+00 4.250000000000000000e+02
3.831590296596532497e+00 -1.011249249712683529e+01 4.250000000000000000e+02
2.478745075720174995e+00 -1.052457235389248602e+01 4.250000000000000000e+02
1.125899854843817494e+00 -1.093665221065813675e+01 4.250000000000000000e+02
-2.269453660325400080e-01 -1.134873206742378748e+01 4.250000000000000000e+02
-1.579790586908897509e+00 -1.176081192418943822e+01 4.250000000000000000e+02
1.059581640097832000e+01 -8.052093213298583407e+00 4.260000000000000000e+02
9.242971180101964279e+00 -8.464173070064234139e+00 4.260000000000000000e+02
7.890125959225605001e+00 -8.876252926829883094e+00 4.260000000000000000e+02
6.537280738349247500e+00 -9.288332783595533826e+00 4.260000000000000000e+02
5.184435517472889998e+00 -9.700412640361184557e+00 4.260000000000000000e+02
3.831590296596532497e+00 -1.011249249712683529e+01 4.260000000000000000e+02
2.478745075720174995e+00 -1.052457235389248602e+01 4.260000000000000000e+02
1.125899854843817494e+00 -1.093665221065813675e+01 4.260000000000000000e+02
-2.269453660325400080e-01 -1.134873206742378748e+01 4.260000000000000000e+02
-1.579790586908897509e+00 -1.176081192418943822e+01 4.260000000000000000e+02
1.059581640097832000e+01 -8.052093213298583407e+00 4.270000000000000000e+02
9.242971180101964279e+00 -8.464173070064234139e+00 4.270000000000000000e+02
7.890125959225605001e+00 -8.876252926829883094e+00 4.270000000000000000e+02
6.537280738349247500e+00 -9.288332783595533826e+00 4.270000000000000000e+02
5.184435517472889998e+00 -9.700412640361184557e+00 4.270000000000000000e+02
3.831590296596532497e+00 -1.011249249712683529e+01 4.270000000000000000e+02
2.478745075720174995e+00 -1.052457235389248602e+01 4.270000000000000000e+02
1.125899854843817494e+00 -1.093665221065813675e+01 4.270000000000000000e+02
-2.269453660325400080e-01 -1.134873206742378748e+01 4.270000000000000000e+02
-1.579790586908897509e+00 -1.176081192418943822e+01 4.270000000000000000e+02
1.147827893979932412e+01 -8.522475895353935016e+00 4.280000000000000000e+02
1.012543371892296662e+01 -8.934555752119585748e+00 4.280000000000000000e+02
8.772588498046609118e+00 -9.346635608885236479e+00 4.280000000000000000e+02
7.419743277170251616e+00 -9.758715465650887211e+00 4.280000000000000000e+02
6.066898056293894115e+00 -1.017079532241653794e+01 4.280000000000000000e+02
4.714052835417536613e+00 -1.058287517918218867e+01 4.280000000000000000e+02
3.361207614541179112e+00 -1.099495503594783941e+01 4.280000000000000000e+02
2.008362393664821610e+00 -1.140703489271349014e+01 4.280000000000000000e+02
6.555171727884641086e-01 -1.181911474947914087e+01 4.280000000000000000e+02
-6.973280480878933929e-01 -1.223119460624479160e+01 4.280000000000000000e+02
1.147827893979932412e+01 -8.522475895353935016e+00 4.290000000000000000e+02
1.012543371892296662e+01 -8.934555752119585748e+00 4.290000000000000000e+02
8.772588498046609118e+00 -9.346635608885236479e+00 4.290000000000000000e+02
7.419743277170251616e+00 -9.758715465650887211e+00 4.290000000000000000e+02
6.066898056293894115e+00 -1.017079532241653794e+01 4.290000000000000000e+02
4.714052835417536613e+00 -1.058287517918218867e+01 4.290000000000000000e+02
3.361207614541179112e+00 -1.099495503594783941e+01 4.290000000000000000e+02
2.008362393664821610e+00 -1.140703489271349014e+01 4.290000000000000000e+02
6.555171727884641086e-01 -1.181911474947914087e+01 4.290000000000000000e+02
-6.973280480878933929e-01 -1.223119460624479160e+01 4.290000000000000000e+02
1.236074147862032824e+01 -8.992858577409290177e+00 4.300000000000000000e+02
1.100789625774397074e+01 -9.404938434174940909e+00 4.300000000000000000e+02
9.655051036867613234e+00 -9.817018290940591640e+00 4.300000000000000000e+02
8.302205815991255733e+00 -1.022909814770624237e+01 4.300000000000000000e+02
6.949360595114898231e+00 -1.064117800447189133e+01 4.300000000000000000e+02
5.596515374238540730e+00 -1.105325786123754206e+01 4.300000000000000000e+02
4.243670153362183228e+00 -1.146533771800319279e+01 4.300000000000000000e+02
2.890824932485825727e+00 -1.187741757476884352e+01 4.300000000000000000e+02
1.537979711609467781e+00 -1.228949743153449425e+01 4.300000000000000000e+02
1.851344907331107237e-01 -1.270157728830014499e+01 4.300000000000000000e+02
-1.167710730143246778e+00 -1.311365714506579572e+01 4.300000000000000000e+02
1.236074147862032824e+01 -8.992858577409290177e+00 4.310000000000000000e+02
1.100789625774397074e+01 -9.404938434174940909e+00 4.310000000000000000e+02
9.655051036867613234e+00 -9.817018290940591640e+00 4.310000000000000000e+02
8.302205815991255733e+00 -1.022909814770624237e+01 4.310000000000000000e+02
6.949360595114898231e+00 -1.064117800447189133e+01 4.310000000000000000e+02
5.596515374238540730e+00 -1.105325786123754206e+01 4.310000000000000000e+02
4.243670153362183228e+00 -1.146533771800319279e+01 4.310000000000000000e+02
2.890824932485825727e+00 -1.187741757476884352e+01 4.310000000000000000e+02
1.537979711609467781e+00 -1.228949743153449425e+01 4.310000000000000000e+02
1.851344907331107237e-01 -1.270157728830014499e+01 4.310000000000000000e+02
-1.167710730143246778e+00 -1.311365714506579572e+01 4.310000000000000000e+02
1.412566655626233647e+01 -9.933623941519996947e+00 4.320000000000000000e+02
1.277282133538597897e+01 -1.034570379828564768e+01 4.320000000000000000e+02
1.141997611450962147e+01 -1.075778365505129841e+01 4.320000000000000000e+02
1.006713089363326397e+01 -1.116986351181694914e+01 4.320000000000000000e+02
8.714285672756906465e+00 -1.158194336858259987e+01 4.320000000000000000e+02
7.361440451880548963e+00 -1.199402322534825061e+01 4.320000000000000000e+02
6.008595231004191461e+00 -1.240610308211390134e+01 4.320000000000000000e+02
4.655750010127833960e+00 -1.281818293887955029e+01 4.320000000000000000e+02
3.302904789251476014e+00 -1.323026279564520102e+01 4.320000000000000000e+02
1.950059568375118513e+00 -1.364234265241085176e+01 4.320000000000000000e+02
5.972143474987605671e-01 -1.405442250917650249e+01 4.320000000000000000e+02
-7.556308733775960462e-01 -1.446650236594215322e+01 4.320000000000000000e+02
-2.108476094253953548e+00 -1.487858222270780395e+01 4.320000000000000000e+02
1.853797925036735705e+01 -1.228553735179676387e+01 4.330000000000000000e+02
1.718513402949099955e+01 -1.269761720856241460e+01 4.330000000000000000e+02
1.583228880861464205e+01 -1.310969706532806534e+01 4.330000000000000000e+02
1.447944358773828455e+01 -1.352177692209371607e+01 4.330000000000000000e+02
1.312659836686192705e+01 -1.393385677885936680e+01 4.330000000000000000e+02
1.177375314598556955e+01 -1.434593663562501753e+01 4.330000000000000000e+02
1.042090792510921204e+01 -1.475801649239066826e+01 4.330000000000000000e+02
9.068062704232854543e+00 -1.517009634915631899e+01 4.330000000000000000e+02
7.715217483356496153e+00 -1.558217620592196795e+01 4.330000000000000000e+02
6.362372262480138652e+00 -1.599425606268761868e+01 4.330000000000000000e+02
5.009527041603782038e+00 -1.640633591945326941e+01 4.330000000000000000e+02
3.656681820727424093e+00 -1.681841577621892014e+01 4.330000000000000000e+02
2.303836599851066147e+00 -1.723049563298457088e+01 4.330000000000000000e+02
9.509913789747090895e-01 -1.764257548975022161e+01 4.330000000000000000e+02
-4.018538419016488561e-01 -1.805465534651587234e+01 4.330000000000000000e+02
-1.754699062778007246e+00 -1.846673520328152307e+01 4.330000000000000000e+02
-3.107544283654364747e+00 -1.887881506004717380e+01 4.330000000000000000e+02
-4.460389504530722249e+00 -1.929089491681282453e+01 4.330000000000000000e+02
1.942044178918835939e+01 -1.275592003385211726e+01 4.340000000000000000e+02
1.806759656831200545e+01 -1.316799989061776799e+01 4.340000000000000000e+02
1.671475134743564439e+01 -1.358007974738341872e+01 4.340000000000000000e+02
1.536190612655928867e+01 -1.399215960414906945e+01 4.340000000000000000e+02
1.400906090568293116e+01 -1.440423946091472018e+01 4.340000000000000000e+02
1.265621568480657366e+01 -1.481631931768037092e+01 4.340000000000000000e+02
1.130337046393021616e+01 -1.522839917444602165e+01 4.340000000000000000e+02
9.950525243053858659e+00 -1.564047903121167238e+01 4.340000000000000000e+02
8.597680022177499382e+00 -1.605255888797732311e+01 4.340000000000000000e+02
7.244834801301142768e+00 -1.646463874474297029e+01 4.340000000000000000e+02
5.891989580424785267e+00 -1.687671860150862102e+01 4.340000000000000000e+02
4.539144359548428653e+00 -1.728879845827427175e+01 4.340000000000000000e+02
3.186299138672070708e+00 -1.770087831503992248e+01 4.340000000000000000e+02
1.833453917795712762e+00 -1.811295817180557322e+01 4.340000000000000000e+02
4.806086969193557046e-01 -1.852503802857122395e+01 4.340000000000000000e+02
2.030290432800936529e+01 -1.322630271590747064e+01 4.350000000000000000e+02
