1.705688000339739219e+00 7.245999051423434878e+01 1.860000000000000000e+02
2.595679726647267316e+00 7.136093877427660459e+01 1.860000000000000000e+02
3.485671452954794969e+00 7.026188703431886040e+01 1.860000000000000000e+02
4.375663179262322622e+00 6.916283529436111621e+01 1.860000000000000000e+02
5.265654905569850719e+00 6.806378355440337202e+01 1.860000000000000000e+02
6.155646631877377928e+00 6.696473181444562783e+01 1.860000000000000000e+02
7.045638358184906025e+00 6.586568007448788364e+01 1.860000000000000000e+02
7.935630084492434122e+00 6.476662833453013945e+01 1.860000000000000000e+02
8.825621810799962219e+00 6.366757659457239527e+01 1.860000000000000000e+02
9.715613537107490316e+00 6.256852485461465108e+01 1.860000000000000000e+02
1.705688000339739219e+00 7.245999051423434878e+01 1.870000000000000000e+02
2.595679726647267316e+00 7.136093877427660459e+01 1.870000000000000000e+02
3.485671452954794969e+00 7.026188703431886040e+01 1.870000000000000000e+02
4.375663179262322622e+00 6.916283529436111621e+01 1.870000000000000000e+02
5.265654905569850719e+00 6.806378355440337202e+01 1.870000000000000000e+02
6.155646631877377928e+00 6.696473181444562783e+01 1.870000000000000000e+02
7.045638358184906025e+00 6.586568007448788364e+01 1.870000000000000000e+02
7.935630084492434122e+00 6.476662833453013945e+01 1.870000000000000000e+02
8.825621810799962219e+00 6.366757659457239527e+01 1.870000000000000000e+02
9.715613537107490316e+00 6.256852485461465108e+01 1.870000000000000000e+02
1.705688000339739219e+00 7.245999051423434878e+01 1.880000000000000000e+02
2.595679726647267316e+00 7.136093877427660459e+01 1.880000000000000000e+02
3.485671452954794969e+00 7.026188703431886040e+01 1.880000000000000000e+02
4.375663179262322622e+00 6.916283529436111621e+01 1.880000000000000000e+02
5.265654905569850719e+00 6.806378355440337202e+01 1.880000000000000000e+02
6.155646631877377928e+00 6.696473181444562783e+01 1.880000000000000000e+02
7.045638358184906025e+00 6.586568007448788364e+01 1.880000000000000000e+02
7.935630084492434122e+00 6.476662833453013945e+01 1.880000000000000000e+02
8.825621810799962219e+00 6.366757659457239527e+01 1.880000000000000000e+02
9.715613537107490316e+00 6.256852485461465108e+01 1.880000000000000000e+02
1.060560526341501841e+01 6.146947311465689978e+01 1.880000000000000000e+02
1.705688000339739219e+00 7.245999051423434878e+01 1.890000000000000000e+02
2.595679726647267316e+00 7.136093877427660459e+01 1.890000000000000000e+02
3.485671452954794969e+00 7.026188703431886040e+01 1.890000000000000000e+02
4.375663179262322622e+00 6.916283529436111621e+01 1.890000000000000000e+02
5.265654905569850719e+00 6.806378355440337202e+01 1.890000000000000000e+02
6.155646631877377928e+00 6.696473181444562783e+01 1.890000000000000000e+02
7.045638358184906025e+00 6.586568007448788364e+01 1.890000000000000000e+02
7.935630084492434122e+00 6.476662833453013945e+01 1.890000000000000000e+02
8.825621810799962219e+00 6.366757659457239527e+01 1.890000000000000000e+02
9.715613537107490316e+00 6.256852485461465108e+01 1.890000000000000000e+02
1.060560526341501841e+01 6.146947311465689978e+01 1.890000000000000000e+02
1.705688000339739219e+00 7.245999051423434878e+01 1.900000000000000000e+02
2.595679726647267316e+00 7.136093877427660459e+01 1.900000000000000000e+02
3.485671452954794969e+00 7.026188703431886040e+01 1.900000000000000000e+02
4.375663179262322622e+00 6.916283529436111621e+01 1.900000000000000000e+02
5.265654905569850719e+00 6.806378355440337202e+01 1.900000000000000000e+02
6.155646631877377928e+00 6.696473181444562783e+01 1.900000000000000000e+02
7.045638358184906025e+00 6.586568007448788364e+01 1.900000000000000000e+02
7.935630084492434122e+00 6.476662833453013945e+01 1.900000000000000000e+02
8.825621810799962219e+00 6.366757659457239527e+01 1.900000000000000000e+02
9.715613537107490316e+00 6.256852485461465108e+01 1.900000000000000000e+02
1.705688000339739219e+00 7.245999051423434878e+01 1.910000000000000000e+02
2.595679726647267316e+00 7.136093877427660459e+01 1.910000000000000000e+02
3.485671452954794969e+00 7.026188703431886040e+01 1.910000000000000000e+02
4.375663179262322622e+00 6.916283529436111621e+01 1.910000000000000000e+02
5.265654905569850719e+00 6.806378355440337202e+01 1.910000000000000000e+02
6.155646631877377928e+00 6.696473181444562783e+01 1.910000000000000000e+02
7.045638358184906025e+00 6.586568007448788364e+01 1.910000000000000000e+02
7.935630084492434122e+00 6.476662833453013945e+01 1.910000000000000000e+02
8.825621810799962219e+00 6.366757659457239527e+01 1.910000000000000000e+02
9.715613537107490316e+00 6.256852485461465108e+01 1.910000000000000000e+02
1.705688000339739219e+00 7.245999051423434878e+01 1.920000000000000000e+02
2.595679726647267316e+00 7.136093877427660459e+01 1.920000000000000000e+02
3.485671452954794969e+00 7.026188703431886040e+01 1.920000000000000000e+02
4.375663179262322622e+00 6.916283529436111621e+01 1.920000000000000000e+02
5.265654905569850719e+00 6.806378355440337202e+01 1.920000000000000000e+02
6.155646631877377928e+00 6.696473181444562783e+01 1.920000000000000000e+02
7.045638358184906025e+00 6.586568007448788364e+01 1.920000000000000000e+02
7.935630084492434122e+00 6.476662833453013945e+01 1.920000000000000000e+02
8.825621810799962219e+00 6.366757659457239527e+01 1.920000000000000000e+02
9.715613537107490316e+00 6.256852485461465108e+01 1.920000000000000000e+02
1.705688000339739219e+00 7.245999051423434878e+01 1.930000000000000000e+02
2.595679726647267316e+00 7.136093877427660459e+01 1.930000000000000000e+02
3.485671452954794969e+00 7.026188703431886040e+01 1.930000000000000000e+02
4.375663179262322622e+00 6.916283529436111621e+01 1.930000000000000000e+02
5.265654905569850719e+00 6.806378355440337202e+01 1.930000000000000000e+02
6.155646631877377928e+00 6.696473181444562783e+01 1.930000000000000000e+02
7.045638358184906025e+00 6.586568007448788364e+01 1.930000000000000000e+02
7.935630084492434122e+00 6.476662833453013945e+01 1.930000000000000000e+02
8.825621810799962219e+00 6.366757659457239527e+01 1.930000000000000000e+02
9.715613537107490316e+00 6.256852485461465108e+01 1.930000000000000000e+02
1.705688000339739219e+00 7.245999051423434878e+01 1.940000000000000000e+02
2.595679726647267316e+00 7.136093877427660459e+01 1.940000000000000000e+02
3.485671452954794969e+00 7.026188703431886040e+01 1.940000000000000000e+02
4.375663179262322622e+00 6.916283529436111621e+01 1.940000000000000000e+02
5.265654905569850719e+00 6.806378355440337202e+01 1.940000000000000000e+02
6.155646631877377928e+00 6.696473181444562783e+01 1.940000000000000000e+02
7.045638358184906025e+00 6.586568007448788364e+01 1.940000000000000000e+02
7.935630084492434122e+00 6.476662833453013945e+01 1.940000000000000000e+02
8.825621810799962219e+00 6.366757659457239527e+01 1.940000000000000000e+02
9.715613537107490316e+00 6.256852485461465108e+01 1.940000000000000000e+02
1.601157993514630284e+00 7.146546878110171974e+01 1.950000000000000000e+02
2.491149719822158826e+00 7.036641704114397555e+01 1.950000000000000000e+02
3.381141446129686479e+00 6.926736530118623136e+01 1.950000000000000000e+02
4.271133172437213688e+00 6.816831356122848717e+01 1.950000000000000000e+02
5.161124898744741785e+00 6.706926182127074298e+01 1.950000000000000000e+02
6.051116625052269882e+00 6.597021008131298458e+01 1.950000000000000000e+02
6.941108351359797979e+00 6.487115834135524040e+01 1.950000000000000000e+02
7.831100077667326076e+00 6.377210660139750331e+01 1.950000000000000000e+02
8.721091803974854173e+00 6.267305486143975912e+01 1.950000000000000000e+02
1.601157993514630284e+00 7.146546878110171974e+01 1.960000000000000000e+02
2.491149719822158826e+00 7.036641704114397555e+01 1.960000000000000000e+02
3.381141446129686479e+00 6.926736530118623136e+01 1.960000000000000000e+02
4.271133172437213688e+00 6.816831356122848717e+01 1.960000000000000000e+02
5.161124898744741785e+00 6.706926182127074298e+01 1.960000000000000000e+02
6.051116625052269882e+00 6.597021008131298458e+01 1.960000000000000000e+02
6.941108351359797979e+00 6.487115834135524040e+01 1.960000000000000000e+02
7.831100077667326076e+00 6.377210660139750331e+01 1.960000000000000000e+02
8.721091803974854173e+00 6.267305486143975912e+01 1.960000000000000000e+02
1.705688000339739219e+00 7.245999051423434878e+01 1.970000000000000000e+02
2.595679726647267316e+00 7.136093877427660459e+01 1.970000000000000000e+02
3.485671452954794969e+00 7.026188703431886040e+01 1.970000000000000000e+02
4.375663179262322622e+00 6.916283529436111621e+01 1.970000000000000000e+02
5.265654905569850719e+00 6.806378355440337202e+01 1.970000000000000000e+02
6.155646631877377928e+00 6.696473181444562783e+01 1.970000000000000000e+02
7.045638358184906025e+00 6.586568007448788364e+01 1.970000000000000000e+02
7.935630084492434122e+00 6.476662833453013945e+01 1.970000000000000000e+02
8.825621810799962219e+00 6.366757659457239527e+01 1.970000000000000000e+02
9.715613537107490316e+00 6.256852485461465108e+01 1.970000000000000000e+02
1.705688000339739219e+00 7.245999051423434878e+01 1.980000000000000000e+02
2.595679726647267316e+00 7.136093877427660459e+01 1.980000000000000000e+02
3.485671452954794969e+00 7.026188703431886040e+01 1.980000000000000000e+02
4.375663179262322622e+00 6.916283529436111621e+01 1.980000000000000000e+02
5.265654905569850719e+00 6.806378355440337202e+01 1.980000000000000000e+02
6.155646631877377928e+00 6.696473181444562783e+01 1.980000000000000000e+02
7.045638358184906025e+00 6.586568007448788364e+01 1.980000000000000000e+02
7.935630084492434122e+00 6.476662833453013945e+01 1.980000000000000000e+02
8.825621810799962219e+00 6.366757659457239527e+01 1.980000000000000000e+02
9.715613537107490316e+00 6.256852485461465108e+01 1.980000000000000000e+02
1.705688000339739219e+00 7.245999051423434878e+01 1.990000000000000000e+02
2.595679726647267316e+00 7.136093877427660459e+01 1.990000000000000000e+02
3.485671452954794969e+00 7.026188703431886040e+01 1.990000000000000000e+02
4.375663179262322622e+00 6.916283529436111621e+01 1.990000000000000000e+02
5.265654905569850719e+00 6.806378355440337202e+01 1.990000000000000000e+02
6.155646631877377928e+00 6.696473181444562783e+01 1.990000000000000000e+02
7.045638358184906025e+00 6.586568007448788364e+01 1.990000000000000000e+02
7.935630084492434122e+00 6.476662833453013945e+01 1.990000000000000000e+02
8.825621810799962219e+00 6.366757659457239527e+01 1.990000000000000000e+02
9.715613537107490316e+00 6.256852485461465108e+01 1.990000000000000000e+02
1.705688000339739219e+00 7.245999051423434878e+01 2.000000000000000000e+02
2.595679726647267316e+00 7.136093877427660459e+01 2.000000000000000000e+02
3.485671452954794969e+00 7.026188703431886040e+01 2.000000000000000000e+02
4.375663179262322622e+00 6.916283529436111621e+01 2.000000000000000000e+02
5.265654905569850719e+00 6.806378355440337202e+01 2.000000000000000000e+02
6.155646631877377928e+00 6.696473181444562783e+01 2.000000000000000000e+02
7.045638358184906025e+00 6.586568007448788364e+01 2.000000000000000000e+02
7.935630084492434122e+00 6.476662833453013945e+01 2.000000000000000000e+02
8.825621810799962219e+00 6.366757659457239527e+01 2.000000000000000000e+02
9.715613537107490316e+00 6.256852485461465108e+01 2.000000000000000000e+02
1.705688000339739219e+00 7.245999051423434878e+01 2.010000000000000000e+02
2.595679726647267316e+00 7.136093877427660459e+01 2.010000000000000000e+02
3.485671452954794969e+00 7.026188703431886040e+01 2.010000000000000000e+02
4.375663179262322622e+00 6.916283529436111621e+01 2.010000000000000000e+02
5.265654905569850719e+00 6.806378355440337202e+01 2.010000000000000000e+02
6.155646631877377928e+00 6.696473181444562783e+01 2.010000000000000000e+02
7.045638358184906025e+00 6.586568007448788364e+01 2.010000000000000000e+02
7.935630084492434122e+00 6.476662833453013945e+01 2.010000000000000000e+02
8.825621810799962219e+00 6.366757659457239527e+01 2.010000000000000000e+02
9.715613537107490316e+00 6.256852485461465108e+01 2.010000000000000000e+02
1.705688000339739219e+00 7.245999051423434878e+01 2.020000000000000000e+02
2.595679726647267316e+00 7.136093877427660459e+01 2.020000000000000000e+02
3.485671452954794969e+00 7.026188703431886040e+01 2.020000000000000000e+02
4.375663179262322622e+00 6.916283529436111621e+01 2.020000000000000000e+02
5.265654905569850719e+00 6.806378355440337202e+01 2.020000000000000000e+02
6.155646631877377928e+00 6.696473181444562783e+01 2.020000000000000000e+02
7.045638358184906025e+00 6.586568007448788364e+01 2.020000000000000000e+02
7.935630084492434122e+00 6.476662833453013945e+01 2.020000000000000000e+02
8.825621810799962219e+00 6.366757659457239527e+01 2.020000000000000000e+02
9.715613537107490316e+00 6.256852485461465108e+01 2.020000000000000000e+02
1.705688000339739219e+00 7.245999051423434878e+01 2.030000000000000000e+02
2.595679726647267316e+00 7.136093877427660459e+01 2.030000000000000000e+02
3.485671452954794969e+00 7.026188703431886040e+01 2.030000000000000000e+02
4.375663179262322622e+00 6.916283529436111621e+01 2.030000000000000000e+02
5.265654905569850719e+00 6.806378355440337202e+01 2.030000000000000000e+02
6.155646631877377928e+00 6.696473181444562783e+01 2.030000000000000000e+02
7.045638358184906025e+00 6.586568007448788364e+01 2.030000000000000000e+02
7.935630084492434122e+00 6.476662833453013945e+01 2.030000000000000000e+02
8.825621810799962219e+00 6.366757659457239527e+01 2.030000000000000000e+02
9.715613537107490316e+00 6.256852485461465108e+01 2.030000000000000000e+02
1.705688000339739219e+00 7.245999051423434878e+01 2.040000000000000000e+02
2.595679726647267316e+00 7.136093877427660459e+01 2.040000000000000000e+02
3.485671452954794969e+00 7.026188703431886040e+01 2.040000000000000000e+02
4.375663179262322622e+00 6.916283529436111621e+01 2.040000000000000000e+02
5.265654905569850719e+00 6.806378355440337202e+01 2.040000000000000000e+02
6.155646631877377928e+00 6.696473181444562783e+01 2.040000000000000000e+02
7.045638358184906025e+00 6.586568007448788364e+01 2.040000000000000000e+02
7.935630084492434122e+00 6.476662833453013945e+01 2.040000000000000000e+02
8.825621810799962219e+00 6.366757659457239527e+01 2.040000000000000000e+02
9.715613537107490316e+00 6.256852485461465108e+01 2.040000000000000000e+02
1.601157993514630284e+00 7.146546878110171974e+01 2.050000000000000000e+02
2.491149719822158826e+00 7.036641704114397555e+01 2.050000000000000000e+02
3.381141446129686479e+00 6.926736530118623136e+01 2.050000000000000000e+02
4.271133172437213688e+00 6.816831356122848717e+01 2.050000000000000000e+02
5.161124898744741785e+00 6.706926182127074298e+01 2.050000000000000000e+02
6.051116625052269882e+00 6.597021008131298458e+01 2.050000000000000000e+02
6.941108351359797979e+00 6.487115834135524040e+01 2.050000000000000000e+02
7.831100077667326076e+00 6.377210660139750331e+01 2.050000000000000000e+02
8.721091803974854173e+00 6.267305486143975912e+01 2.050000000000000000e+02
1.601157993514630284e+00 7.146546878110171974e+01 2.060000000000000000e+02
2.491149719822158826e+00 7.036641704114397555e+01 2.060000000000000000e+02
3.381141446129686479e+00 6.926736530118623136e+01 2.060000000000000000e+02
4.271133172437213688e+00 6.816831356122848717e+01 2.060000000000000000e+02
5.161124898744741785e+00 6.706926182127074298e+01 2.060000000000000000e+02
6.051116625052269882e+00 6.597021008131298458e+01 2.060000000000000000e+02
6.941108351359797979e+00 6.487115834135524040e+01 2.060000000000000000e+02
7.831100077667326076e+00 6.377210660139750331e+01 2.060000000000000000e+02
8.721091803974854173e+00 6.267305486143975912e+01 2.060000000000000000e+02
1.705688000339739219e+00 7.245999051423434878e+01 2.070000000000000000e+02
2.595679726647267316e+00 7.136093877427660459e+01 2.070000000000000000e+02
3.485671452954794969e+00 7.026188703431886040e+01 2.070000000000000000e+02
4.375663179262322622e+00 6.916283529436111621e+01 2.070000000000000000e+02
5.265654905569850719e+00 6.806378355440337202e+01 2.070000000000000000e+02
6.155646631877377928e+00 6.696473181444562783e+01 2.070000000000000000e+02
7.045638358184906025e+00 6.586568007448788364e+01 2.070000000000000000e+02
7.935630084492434122e+00 6.476662833453013945e+01 2.070000000000000000e+02
8.825621810799962219e+00 6.366757659457239527e+01 2.070000000000000000e+02
9.715613537107490316e+00 6.256852485461465108e+01 2.070000000000000000e+02
1.705688000339739219e+00 7.245999051423434878e+01 2.080000000000000000e+02
2.595679726647267316e+00 7.136093877427660459e+01 2.080000000000000000e+02
3.485671452954794969e+00 7.026188703431886040e+01 2.080000000000000000e+02
4.375663179262322622e+00 6.916283529436111621e+01 2.080000000000000000e+02
5.265654905569850719e+00 6.806378355440337202e+01 2.080000000000000000e+02
6.155646631877377928e+00 6.696473181444562783e+01 2.080000000000000000e+02
7.045638358184906025e+00 6.586568007448788364e+01 2.080000000000000000e+02
7.935630084492434122e+00 6.476662833453013945e+01 2.080000000000000000e+02
8.825621810799962219e+00 6.366757659457239527e+01 2.080000000000000000e+02
9.715613537107490316e+00 6.256852485461465108e+01 2.080000000000000000e+02
1.705688000339739219e+00 7.245999051423434878e+01 2.090000000000000000e+02
2.595679726647267316e+00 7.136093877427660459e+01 2.090000000000000000e+02
3.485671452954794969e+00 7.026188703431886040e+01 2.090000000000000000e+02
4.375663179262322622e+00 6.916283529436111621e+01 2.090000000000000000e+02
5.265654905569850719e+00 6.806378355440337202e+01 2.090000000000000000e+02
6.155646631877377928e+00 6.696473181444562783e+01 2.090000000000000000e+02
7.045638358184906025e+00 6.586568007448788364e+01 2.090000000000000000e+02
7.935630084492434122e+00 6.476662833453013945e+01 2.090000000000000000e+02
8.825621810799962219e+00 6.366757659457239527e+01 2.090000000000000000e+02
9.715613537107490316e+00 6.256852485461465108e+01 2.090000000000000000e+02
1.705688000339739219e+00 7.245999051423434878e+01 2.100000000000000000e+02
2.595679726647267316e+00 7.136093877427660459e+01 2.100000000000000000e+02
3.485671452954794969e+00 7.026188703431886040e+01 2.100000000000000000e+02
4.375663179262322622e+00 6.916283529436111621e+01 2.100000000000000000e+02
5.265654905569850719e+00 6.806378355440337202e+01 2.100000000000000000e+02
6.155646631877377928e+00 6.696473181444562783e+01 2.100000000000000000e+02
7.045638358184906025e+00 6.586568007448788364e+01 2.100000000000000000e+02
7.935630084492434122e+00 6.476662833453013945e+01 2.100000000000000000e+02
8.825621810799962219e+00 6.366757659457239527e+01 2.100000000000000000e+02
9.715613537107490316e+00 6.256852485461465108e+01 2.100000000000000000e+02
1.705688000339739219e+00 7.245999051423434878e+01 2.110000000000000000e+02
2.595679726647267316e+00 7.136093877427660459e+01 2.110000000000000000e+02
3.485671452954794969e+00 7.026188703431886040e+01 2.110000000000000000e+02
4.375663179262322622e+00 6.916283529436111621e+01 2.110000000000000000e+02
5.265654905569850719e+00 6.806378355440337202e+01 2.110000000000000000e+02
6.155646631877377928e+00 6.696473181444562783e+01 2.110000000000000000e+02
7.045638358184906025e+00 6.586568007448788364e+01 2.110000000000000000e+02
7.935630084492434122e+00 6.476662833453013945e+01 2.110000000000000000e+02
8.825621810799962219e+00 6.366757659457239527e+01 2.110000000000000000e+02
9.715613537107490316e+00 6.256852485461465108e+01 2.110000000000000000e+02
1.705688000339739219e+00 7.245999051423434878e+01 2.120000000000000000e+02
2.595679726647267316e+00 7.136093877427660459e+01 2.120000000000000000e+02
3.485671452954794969e+00 7.026188703431886040e+01 2.120000000000000000e+02
4.375663179262322622e+00 6.916283529436111621e+01 2.120000000000000000e+02
5.265654905569850719e+00 6.806378355440337202e+01 2.120000000000000000e+02
6.155646631877377928e+00 6.696473181444562783e+01 2.120000000000000000e+02
7.045638358184906025e+00 6.586568007448788364e+01 2.120000000000000000e+02
7.935630084492434122e+00 6.476662833453013945e+01 2.120000000000000000e+02
8.825621810799962219e+00 6.366757659457239527e+01 2.120000000000000000e+02
9.715613537107490316e+00 6.256852485461465108e+01 2.120000000000000000e+02
1.705688000339739219e+00 7.245999051423434878e+01 2.130000000000000000e+02
2.595679726647267316e+00 7.136093877427660459e+01 2.130000000000000000e+02
3.485671452954794969e+00 7.026188703431886040e+01 2.130000000000000000e+02
4.375663179262322622e+00 6.916283529436111621e+01 2.130000000000000000e+02
5.265654905569850719e+00 6.806378355440337202e+01 2.130000000000000000e+02
6.155646631877377928e+00 6.696473181444562783e+01 2.130000000000000000e+02
7.045638358184906025e+00 6.586568007448788364e+01 2.130000000000000000e+02
7.935630084492434122e+00 6.476662833453013945e+01 2.130000000000000000e+02
8.825621810799962219e+00 6.366757659457239527e+01 2.130000000000000000e+02
9.715613537107490316e+00 6.256852485461465108e+01 2.130000000000000000e+02
1.601157993514630284e+00 7.146546878110171974e+01 2.140000000000000000e+02
2.491149719822158826e+00 7.036641704114397555e+01 2.140000000000000000e+02
3.381141446129686479e+00 6.926736530118623136e+01 2.140000000000000000e+02
4.271133172437213688e+00 6.816831356122848717e+01 2.140000000000000000e+02
5.161124898744741785e+00 6.706926182127074298e+01 2.140000000000000000e+02
6.051116625052269882e+00 6.597021008131298458e+01 2.140000000000000000e+02
6.941108351359797979e+00 6.487115834135524040e+01 2.140000000000000000e+02
7.831100077667326076e+00 6.377210660139750331e+01 2.140000000000000000e+02
8.721091803974854173e+00 6.267305486143975912e+01 2.140000000000000000e+02
9.611083530282380494e+00 6.157400312148200783e+01 2.140000000000000000e+02
1.601157993514630284e+00 7.146546878110171974e+01 2.150000000000000000e+02
2.491149719822158826e+00 7.036641704114397555e+01 2.150000000000000000e+02
3.381141446129686479e+00 6.926736530118623136e+01 2.150000000000000000e+02
4.271133172437213688e+00 6.816831356122848717e+01 2.150000000000000000e+02
5.161124898744741785e+00 6.706926182127074298e+01 2.150000000000000000e+02
6.051116625052269882e+00 6.597021008131298458e+01 2.150000000000000000e+02
6.941108351359797979e+00 6.487115834135524040e+01 2.150000000000000000e+02
7.831100077667326076e+00 6.377210660139750331e+01 2.150000000000000000e+02
8.721091803974854173e+00 6.267305486143975912e+01 2.150000000000000000e+02
9.611083530282380494e+00 6.157400312148200783e+01 2.150000000000000000e+02
1.601157993514630284e+00 7.146546878110171974e+01 2.160000000000000000e+02
2.491149719822158826e+00 7.036641704114397555e+01 2.160000000000000000e+02
3.381141446129686479e+00 6.926736530118623136e+01 2.160000000000000000e+02
4.271133172437213688e+00 6.816831356122848717e+01 2.160000000000000000e+02
5.161124898744741785e+00 6.706926182127074298e+01 2.160000000000000000e+02
6.051116625052269882e+00 6.597021008131298458e+01 2.160000000000000000e+02
6.941108351359797979e+00 6.487115834135524040e+01 2.160000000000000000e+02
7.831100077667326076e+00 6.377210660139750331e+01 2.160000000000000000e+02
8.721091803974854173e+00 6.267305486143975912e+01 2.160000000000000000e+02
9.611083530282380494e+00 6.157400312148200783e+01 2.160000000000000000e+02
1.601157993514630284e+00 7.146546878110171974e+01 2.170000000000000000e+02
2.491149719822158826e+00 7.036641704114397555e+01 2.170000000000000000e+02
3.381141446129686479e+00 6.926736530118623136e+01 2.170000000000000000e+02
4.271133172437213688e+00 6.816831356122848717e+01 2.170000000000000000e+02
5.161124898744741785e+00 6.706926182127074298e+01 2.170000000000000000e+02
6.051116625052269882e+00 6.597021008131298458e+01 2.170000000000000000e+02
6.941108351359797979e+00 6.487115834135524040e+01 2.170000000000000000e+02
7.831100077667326076e+00 6.377210660139750331e+01 2.170000000000000000e+02
8.721091803974854173e+00 6.267305486143975912e+01 2.170000000000000000e+02
9.611083530282380494e+00 6.157400312148200783e+01 2.170000000000000000e+02
1.601157993514630284e+00 7.146546878110171974e+01 2.180000000000000000e+02
2.491149719822158826e+00 7.036641704114397555e+01 2.180000000000000000e+02
3.381141446129686479e+00 6.926736530118623136e+01 2.180000000000000000e+02
4.271133172437213688e+00 6.816831356122848717e+01 2.180000000000000000e+02
5.161124898744741785e+00 6.706926182127074298e+01 2.180000000000000000e+02
6.051116625052269882e+00 6.597021008131298458e+01 2.180000000000000000e+02
6.941108351359797979e+00 6.487115834135524040e+01 2.180000000000000000e+02
7.831100077667326076e+00 6.377210660139750331e+01 2.180000000000000000e+02
8.721091803974854173e+00 6.267305486143975912e+01 2.180000000000000000e+02
9.611083530282380494e+00 6.157400312148200783e+01 2.180000000000000000e+02
1.601157993514630284e+00 7.146546878110171974e+01 2.190000000000000000e+02
2.491149719822158826e+00 7.036641704114397555e+01 2.190000000000000000e+02
3.381141446129686479e+00 6.926736530118623136e+01 2.190000000000000000e+02
4.271133172437213688e+00 6.816831356122848717e+01 2.190000000000000000e+02
5.161124898744741785e+00 6.706926182127074298e+01 2.190000000000000000e+02
6.051116625052269882e+00 6.597021008131298458e+01 2.190000000000000000e+02
6.941108351359797979e+00 6.487115834135524040e+01 2.190000000000000000e+02
7.831100077667326076e+00 6.377210660139750331e+01 2.190000000000000000e+02
8.721091803974854173e+00 6.267305486143975912e+01 2.190000000000000000e+02
9.611083530282380494e+00 6.157400312148200783e+01 2.190000000000000000e+02
1.601157993514630284e+00 7.146546878110171974e+01 2.200000000000000000e+02
2.491149719822158826e+00 7.036641704114397555e+01 2.200000000000000000e+02
3.381141446129686479e+00 6.926736530118623136e+01 2.200000000000000000e+02
4.271133172437213688e+00 6.816831356122848717e+01 2.200000000000000000e+02
5.161124898744741785e+00 6.706926182127074298e+01 2.200000000000000000e+02
6.051116625052269882e+00 6.597021008131298458e+01 2.200000000000000000e+02
6.941108351359797979e+00 6.487115834135524040e+01 2.200000000000000000e+02
7.831100077667326076e+00 6.377210660139750331e+01 2.200000000000000000e+02
8.721091803974854173e+00 6.267305486143975912e+01 2.200000000000000000e+02
9.611083530282380494e+00 6.157400312148200783e+01 2.200000000000000000e+02
2.332868041290390160e+00 7.842712091303016564e+01 2.210000000000000000e+02
8.562810125443085951e+00 7.073375873332595631e+01 2.210000000000000000e+02
9.452801851750614048e+00 6.963470699336821212e+01 2.210000000000000000e+02
1.034279357805814037e+01 6.853565525341046794e+01 2.210000000000000000e+02
1.123278530436567024e+01 6.743660351345272375e+01 2.210000000000000000e+02
1.212277703067319656e+01 6.633755177349497956e+01 2.210000000000000000e+02
1.301276875698072466e+01 6.523850003353723537e+01 2.210000000000000000e+02
1.390276048328825276e+01 6.413944829357949118e+01 2.210000000000000000e+02
1.479275220959577908e+01 6.304039655362173988e+01 2.210000000000000000e+02
1.568274393590330718e+01 6.194134481366399569e+01 2.210000000000000000e+02
1.657273566221083883e+01 6.084229307370625150e+01 2.210000000000000000e+02
2.646458061765716074e+00 8.141068611242808117e+01 2.220000000000000000e+02
3.536449788073244171e+00 8.031163437247033698e+01 2.220000000000000000e+02
4.426441514380771380e+00 7.921258263251259280e+01 2.220000000000000000e+02
5.316433240688299477e+00 7.811353089255484861e+01 2.220000000000000000e+02
6.206424966995827575e+00 7.701447915259710442e+01 2.220000000000000000e+02
7.096416693303354783e+00 7.591542741263936023e+01 2.220000000000000000e+02
7.986408419610882881e+00 7.481637567268160183e+01 2.220000000000000000e+02
1.154637532484099438e+01 7.042016871285062507e+01 2.220000000000000000e+02
1.243636705114852248e+01 6.932111697289288088e+01 2.220000000000000000e+02
1.332635877745605057e+01 6.822206523293513669e+01 2.220000000000000000e+02
1.421635050376357690e+01 6.712301349297739250e+01 2.220000000000000000e+02
1.510634223007110499e+01 6.602396175301964831e+01 2.220000000000000000e+02
1.599633395637863309e+01 6.492491001306190412e+01 2.220000000000000000e+02
1.688632568268616296e+01 6.382585827310415993e+01 2.220000000000000000e+02
1.777631740899369106e+01 6.272680653314641575e+01 2.220000000000000000e+02
1.866630913530121916e+01 6.162775479318867156e+01 2.220000000000000000e+02
1.955630086160874725e+01 6.052870305323092737e+01 2.220000000000000000e+02
2.750988068590824120e+00 8.240520784556071021e+01 2.230000000000000000e+02
3.640979794898352218e+00 8.130615610560296602e+01 2.230000000000000000e+02
4.530971521205880315e+00 8.020710436564522183e+01 2.230000000000000000e+02
5.420963247513407524e+00 7.910805262568747764e+01 2.230000000000000000e+02
6.310954973820935621e+00 7.800900088572973345e+01 2.230000000000000000e+02
7.200946700128463718e+00 7.690994914577198927e+01 2.230000000000000000e+02
8.090938426435991815e+00 7.581089740581424508e+01 2.230000000000000000e+02
8.980930152743519912e+00 7.471184566585650089e+01 2.230000000000000000e+02
1.254089705797363052e+01 7.031563870602552413e+01 2.230000000000000000e+02
1.343088878428115862e+01 6.921658696606777994e+01 2.230000000000000000e+02
1.432088051058868672e+01 6.811753522611003575e+01 2.230000000000000000e+02
1.521087223689621304e+01 6.701848348615229156e+01 2.230000000000000000e+02
1.610086396320374291e+01 6.591943174619454737e+01 2.230000000000000000e+02
1.699085568951127101e+01 6.482038000623680318e+01 2.230000000000000000e+02
1.788084741581879911e+01 6.372132826627905189e+01 2.230000000000000000e+02
1.877083914212632720e+01 6.262227652632130770e+01 2.230000000000000000e+02
1.966083086843385530e+01 6.152322478636356351e+01 2.230000000000000000e+02
2.055082259474138340e+01 6.042417304640581932e+01 2.230000000000000000e+02
2.960048082241041545e+00 8.439425131182599671e+01 2.240000000000000000e+02
3.850039808548569642e+00 8.329519957186823831e+01 2.240000000000000000e+02
4.740031534856097295e+00 8.219614783191049412e+01 2.240000000000000000e+02
5.630023261163625392e+00 8.109709609195274993e+01 2.240000000000000000e+02
6.520014987471152601e+00 7.999804435199500574e+01 2.240000000000000000e+02
7.410006713778680698e+00 7.889899261203726155e+01 2.240000000000000000e+02
8.299998440086209683e+00 7.779994087207951736e+01 2.240000000000000000e+02
9.189990166393736004e+00 7.670088913212177317e+01 2.240000000000000000e+02
1.007998189270126410e+01 7.560183739216402898e+01 2.240000000000000000e+02
1.096997361900879220e+01 7.450278565220628479e+01 2.240000000000000000e+02
1.541993225054643091e+01 6.900752695241756385e+01 2.240000000000000000e+02
1.630992397685395900e+01 6.790847521245981966e+01 2.240000000000000000e+02
1.719991570316148710e+01 6.680942347250207547e+01 2.240000000000000000e+02
1.808990742946901520e+01 6.571037173254433128e+01 2.240000000000000000e+02
1.897989915577654330e+01 6.461131999258658709e+01 2.240000000000000000e+02
1.986989088208407139e+01 6.351226825262883580e+01 2.240000000000000000e+02
2.075988260839159949e+01 6.241321651267109161e+01 2.240000000000000000e+02
2.164987433469912759e+01 6.131416477271334742e+01 2.240000000000000000e+02
2.960048082241041545e+00 8.439425131182599671e+01 2.250000000000000000e+02
3.850039808548569642e+00 8.329519957186823831e+01 2.250000000000000000e+02
4.740031534856097295e+00 8.219614783191049412e+01 2.250000000000000000e+02
5.630023261163625392e+00 8.109709609195274993e+01 2.250000000000000000e+02
6.520014987471152601e+00 7.999804435199500574e+01 2.250000000000000000e+02
7.410006713778680698e+00 7.889899261203726155e+01 2.250000000000000000e+02
8.299998440086209683e+00 7.779994087207951736e+01 2.250000000000000000e+02
9.189990166393736004e+00 7.670088913212177317e+01 2.250000000000000000e+02
1.007998189270126410e+01 7.560183739216402898e+01 2.250000000000000000e+02
1.096997361900879220e+01 7.450278565220628479e+01 2.250000000000000000e+02
1.185996534531632030e+01 7.340373391224854061e+01 2.250000000000000000e+02
1.541993225054643091e+01 6.900752695241756385e+01 2.250000000000000000e+02
1.630992397685395900e+01 6.790847521245981966e+01 2.250000000000000000e+02
1.719991570316148710e+01 6.680942347250207547e+01 2.250000000000000000e+02
1.808990742946901520e+01 6.571037173254433128e+01 2.250000000000000000e+02
1.897989915577654330e+01 6.461131999258658709e+01 2.250000000000000000e+02
1.986989088208407139e+01 6.351226825262883580e+01 2.250000000000000000e+02
2.075988260839159949e+01 6.241321651267109161e+01 2.250000000000000000e+02
2.164987433469912759e+01 6.131416477271334742e+01 2.250000000000000000e+02
2.960048082241041545e+00 8.439425131182599671e+01 2.260000000000000000e+02
3.850039808548569642e+00 8.329519957186823831e+01 2.260000000000000000e+02
4.740031534856097295e+00 8.219614783191049412e+01 2.260000000000000000e+02
5.630023261163625392e+00 8.109709609195274993e+01 2.260000000000000000e+02
6.520014987471152601e+00 7.999804435199500574e+01 2.260000000000000000e+02
7.410006713778680698e+00 7.889899261203726155e+01 2.260000000000000000e+02
8.299998440086209683e+00 7.779994087207951736e+01 2.260000000000000000e+02
9.189990166393736004e+00 7.670088913212177317e+01 2.260000000000000000e+02
1.007998189270126410e+01 7.560183739216402898e+01 2.260000000000000000e+02
1.096997361900879220e+01 7.450278565220628479e+01 2.260000000000000000e+02
1.185996534531632030e+01 7.340373391224854061e+01 2.260000000000000000e+02
1.719991570316148710e+01 6.680942347250207547e+01 2.260000000000000000e+02
1.808990742946901520e+01 6.571037173254433128e+01 2.260000000000000000e+02
1.897989915577654330e+01 6.461131999258658709e+01 2.260000000000000000e+02
1.986989088208407139e+01 6.351226825262883580e+01 2.260000000000000000e+02
2.075988260839159949e+01 6.241321651267109161e+01 2.260000000000000000e+02
2.960048082241041545e+00 8.439425131182599671e+01 2.270000000000000000e+02
3.850039808548569642e+00 8.329519957186823831e+01 2.270000000000000000e+02
4.740031534856097295e+00 8.219614783191049412e+01 2.270000000000000000e+02
5.630023261163625392e+00 8.109709609195274993e+01 2.270000000000000000e+02
6.520014987471152601e+00 7.999804435199500574e+01 2.270000000000000000e+02
7.410006713778680698e+00 7.889899261203726155e+01 2.270000000000000000e+02
8.299998440086209683e+00 7.779994087207951736e+01 2.270000000000000000e+02
9.189990166393736004e+00 7.670088913212177317e+01 2.270000000000000000e+02
1.007998189270126410e+01 7.560183739216402898e+01 2.270000000000000000e+02
1.096997361900879220e+01 7.450278565220628479e+01 2.270000000000000000e+02
1.185996534531632030e+01 7.340373391224854061e+01 2.270000000000000000e+02
2.855518075415933055e+00 8.339972957869335346e+01 2.280000000000000000e+02
3.745509801723461152e+00 8.230067783873560927e+01 2.280000000000000000e+02
4.635501528030988361e+00 8.120162609877786508e+01 2.280000000000000000e+02
5.525493254338516458e+00 8.010257435882012089e+01 2.280000000000000000e+02
6.415484980646044555e+00 7.900352261886237670e+01 2.280000000000000000e+02
7.305476706953571764e+00 7.790447087890463251e+01 2.280000000000000000e+02
8.195468433261099861e+00 7.680541913894688832e+01 2.280000000000000000e+02
9.085460159568627958e+00 7.570636739898912992e+01 2.280000000000000000e+02
9.975451885876156055e+00 7.460731565903139995e+01 2.280000000000000000e+02
1.086544361218368238e+01 7.350826391907364155e+01 2.280000000000000000e+02
2.855518075415933055e+00 8.339972957869335346e+01 2.290000000000000000e+02
3.745509801723461152e+00 8.230067783873560927e+01 2.290000000000000000e+02
4.635501528030988361e+00 8.120162609877786508e+01 2.290000000000000000e+02
5.525493254338516458e+00 8.010257435882012089e+01 2.290000000000000000e+02
6.415484980646044555e+00 7.900352261886237670e+01 2.290000000000000000e+02
7.305476706953571764e+00 7.790447087890463251e+01 2.290000000000000000e+02
8.195468433261099861e+00 7.680541913894688832e+01 2.290000000000000000e+02
9.085460159568627958e+00 7.570636739898912992e+01 2.290000000000000000e+02
9.975451885876156055e+00 7.460731565903139995e+01 2.290000000000000000e+02
1.086544361218368238e+01 7.350826391907364155e+01 2.290000000000000000e+02
2.855518075415933055e+00 8.339972957869335346e+01 2.300000000000000000e+02
3.745509801723461152e+00 8.230067783873560927e+01 2.300000000000000000e+02
4.635501528030988361e+00 8.120162609877786508e+01 2.300000000000000000e+02
5.525493254338516458e+00 8.010257435882012089e+01 2.300000000000000000e+02
6.415484980646044555e+00 7.900352261886237670e+01 2.300000000000000000e+02
7.305476706953571764e+00 7.790447087890463251e+01 2.300000000000000000e+02
8.195468433261099861e+00 7.680541913894688832e+01 2.300000000000000000e+02
9.085460159568627958e+00 7.570636739898912992e+01 2.300000000000000000e+02
9.975451885876156055e+00 7.460731565903139995e+01 2.300000000000000000e+02
1.086544361218368238e+01 7.350826391907364155e+01 2.300000000000000000e+02
2.750988068590824120e+00 8.240520784556071021e+01 2.310000000000000000e+02
3.640979794898352218e+00 8.130615610560296602e+01 2.310000000000000000e+02
4.530971521205880315e+00 8.020710436564522183e+01 2.310000000000000000e+02
5.420963247513407524e+00 7.910805262568747764e+01 2.310000000000000000e+02
6.310954973820935621e+00 7.800900088572973345e+01 2.310000000000000000e+02
7.200946700128463718e+00 7.690994914577198927e+01 2.310000000000000000e+02
8.090938426435991815e+00 7.581089740581424508e+01 2.310000000000000000e+02
8.980930152743519912e+00 7.471184566585650089e+01 2.310000000000000000e+02
9.870921879051046233e+00 7.361279392589875670e+01 2.310000000000000000e+02
2.750988068590824120e+00 8.240520784556071021e+01 2.320000000000000000e+02
3.640979794898352218e+00 8.130615610560296602e+01 2.320000000000000000e+02
4.530971521205880315e+00 8.020710436564522183e+01 2.320000000000000000e+02
5.420963247513407524e+00 7.910805262568747764e+01 2.320000000000000000e+02
6.310954973820935621e+00 7.800900088572973345e+01 2.320000000000000000e+02
7.200946700128463718e+00 7.690994914577198927e+01 2.320000000000000000e+02
8.090938426435991815e+00 7.581089740581424508e+01 2.320000000000000000e+02
8.980930152743519912e+00 7.471184566585650089e+01 2.320000000000000000e+02
1.610086396320374291e+01 6.591943174619454737e+01 2.320000000000000000e+02
1.699085568951127101e+01 6.482038000623680318e+01 2.320000000000000000e+02
2.646458061765716074e+00 8.141068611242808117e+01 2.330000000000000000e+02
3.536449788073244171e+00 8.031163437247033698e+01 2.330000000000000000e+02
4.426441514380771380e+00 7.921258263251259280e+01 2.330000000000000000e+02
5.316433240688299477e+00 7.811353089255484861e+01 2.330000000000000000e+02
6.206424966995827575e+00 7.701447915259710442e+01 2.330000000000000000e+02
7.096416693303354783e+00 7.591542741263936023e+01 2.330000000000000000e+02
1.421635050376357690e+01 6.712301349297739250e+01 2.330000000000000000e+02
1.510634223007110499e+01 6.602396175301964831e+01 2.330000000000000000e+02
1.599633395637863309e+01 6.492491001306190412e+01 2.330000000000000000e+02
1.688632568268616296e+01 6.382585827310415993e+01 2.330000000000000000e+02
1.777631740899369106e+01 6.272680653314641575e+01 2.330000000000000000e+02
2.541928054940607140e+00 8.041616437929543793e+01 2.340000000000000000e+02
3.431919781248135237e+00 7.931711263933769374e+01 2.340000000000000000e+02
4.321911507555663334e+00 7.821806089937994955e+01 2.340000000000000000e+02
1.322182877063094253e+01 6.722754349980250765e+01 2.340000000000000000e+02
1.411182049693846885e+01 6.612849175984476346e+01 2.340000000000000000e+02
1.500181222324599695e+01 6.502944001988701928e+01 2.340000000000000000e+02
1.589180394955352504e+01 6.393038827992926798e+01 2.340000000000000000e+02
1.678179567586105492e+01 6.283133653997152379e+01 2.340000000000000000e+02
1.767178740216858301e+01 6.173228480001377960e+01 2.340000000000000000e+02
1.392097979864413304e+00 6.947642531483644746e+01 2.350000000000000000e+02
2.282089706171941401e+00 6.837737357487870327e+01 2.350000000000000000e+02
3.172081432479469054e+00 6.727832183492095908e+01 2.350000000000000000e+02
4.062073158786996707e+00 6.617927009496321489e+01 2.350000000000000000e+02
4.952064885094524804e+00 6.508021835500545649e+01 2.350000000000000000e+02
5.842056611402052901e+00 6.398116661504771940e+01 2.350000000000000000e+02
6.732048337709580110e+00 6.288211487508997521e+01 2.350000000000000000e+02
7.622040064017108207e+00 6.178306313513223103e+01 2.350000000000000000e+02
1.392097979864413304e+00 6.947642531483644746e+01 2.360000000000000000e+02
2.282089706171941401e+00 6.837737357487870327e+01 2.360000000000000000e+02
3.172081432479469054e+00 6.727832183492095908e+01 2.360000000000000000e+02
4.062073158786996707e+00 6.617927009496321489e+01 2.360000000000000000e+02
4.952064885094524804e+00 6.508021835500545649e+01 2.360000000000000000e+02
5.842056611402052901e+00 6.398116661504771940e+01 2.360000000000000000e+02
6.732048337709580110e+00 6.288211487508997521e+01 2.360000000000000000e+02
7.622040064017108207e+00 6.178306313513223103e+01 2.360000000000000000e+02
8.512031790324636304e+00 6.068401139517447973e+01 2.360000000000000000e+02
1.392097979864413304e+00 6.947642531483644746e+01 2.370000000000000000e+02
2.282089706171941401e+00 6.837737357487870327e+01 2.370000000000000000e+02
3.172081432479469054e+00 6.727832183492095908e+01 2.370000000000000000e+02
4.062073158786996707e+00 6.617927009496321489e+01 2.370000000000000000e+02
4.952064885094524804e+00 6.508021835500545649e+01 2.370000000000000000e+02
5.842056611402052901e+00 6.398116661504771940e+01 2.370000000000000000e+02
6.732048337709580110e+00 6.288211487508997521e+01 2.370000000000000000e+02
7.622040064017108207e+00 6.178306313513223103e+01 2.370000000000000000e+02
8.512031790324636304e+00 6.068401139517447973e+01 2.370000000000000000e+02
9.402023516632164402e+00 5.958495965521673554e+01 2.370000000000000000e+02
1.392097979864413304e+00 6.947642531483644746e+01 2.380000000000000000e+02
2.282089706171941401e+00 6.837737357487870327e+01 2.380000000000000000e+02
3.172081432479469054e+00 6.727832183492095908e+01 2.380000000000000000e+02
4.062073158786996707e+00 6.617927009496321489e+01 2.380000000000000000e+02
4.952064885094524804e+00 6.508021835500545649e+01 2.380000000000000000e+02
5.842056611402052901e+00 6.398116661504771940e+01 2.380000000000000000e+02
6.732048337709580110e+00 6.288211487508997521e+01 2.380000000000000000e+02
7.622040064017108207e+00 6.178306313513223103e+01 2.380000000000000000e+02
8.512031790324636304e+00 6.068401139517447973e+01 2.380000000000000000e+02
9.402023516632164402e+00 5.958495965521673554e+01 2.380000000000000000e+02
1.287567973039305258e+00 6.848190358170380421e+01 2.390000000000000000e+02
2.177559699346832911e+00 6.738285184174606002e+01 2.390000000000000000e+02
3.067551425654360564e+00 6.628380010178831583e+01 2.390000000000000000e+02
3.957543151961888661e+00 6.518474836183057164e+01 2.390000000000000000e+02
4.847534878269415870e+00 6.408569662187282745e+01 2.390000000000000000e+02
5.737526604576943967e+00 6.298664488191508326e+01 2.390000000000000000e+02
6.627518330884472064e+00 6.188759314195733907e+01 2.390000000000000000e+02
7.517510057192000161e+00 6.078854140199959488e+01 2.390000000000000000e+02
8.407501783499528258e+00 5.968948966204185069e+01 2.390000000000000000e+02
9.297493509807054579e+00 5.859043792208409940e+01 2.390000000000000000e+02
1.287567973039305258e+00 6.848190358170380421e+01 2.400000000000000000e+02
2.177559699346832911e+00 6.738285184174606002e+01 2.400000000000000000e+02
3.067551425654360564e+00 6.628380010178831583e+01 2.400000000000000000e+02
3.957543151961888661e+00 6.518474836183057164e+01 2.400000000000000000e+02
4.847534878269415870e+00 6.408569662187282745e+01 2.400000000000000000e+02
5.737526604576943967e+00 6.298664488191508326e+01 2.400000000000000000e+02
6.627518330884472064e+00 6.188759314195733907e+01 2.400000000000000000e+02
7.517510057192000161e+00 6.078854140199959488e+01 2.400000000000000000e+02
8.407501783499528258e+00 5.968948966204185069e+01 2.400000000000000000e+02
9.297493509807054579e+00 5.859043792208409940e+01 2.400000000000000000e+02
1.287567973039305258e+00 6.848190358170380421e+01 2.410000000000000000e+02
2.177559699346832911e+00 6.738285184174606002e+01 2.410000000000000000e+02
3.067551425654360564e+00 6.628380010178831583e+01 2.410000000000000000e+02
3.957543151961888661e+00 6.518474836183057164e+01 2.410000000000000000e+02
4.847534878269415870e+00 6.408569662187282745e+01 2.410000000000000000e+02
5.737526604576943967e+00 6.298664488191508326e+01 2.410000000000000000e+02
6.627518330884472064e+00 6.188759314195733907e+01 2.410000000000000000e+02
7.517510057192000161e+00 6.078854140199959488e+01 2.410000000000000000e+02
8.407501783499528258e+00 5.968948966204185069e+01 2.410000000000000000e+02
9.297493509807054579e+00 5.859043792208409940e+01 2.410000000000000000e+02
1.287567973039305258e+00 6.848190358170380421e+01 2.420000000000000000e+02
2.177559699346832911e+00 6.738285184174606002e+01 2.420000000000000000e+02
3.067551425654360564e+00 6.628380010178831583e+01 2.420000000000000000e+02
3.957543151961888661e+00 6.518474836183057164e+01 2.420000000000000000e+02
4.847534878269415870e+00 6.408569662187282745e+01 2.420000000000000000e+02
5.737526604576943967e+00 6.298664488191508326e+01 2.420000000000000000e+02
6.627518330884472064e+00 6.188759314195733907e+01 2.420000000000000000e+02
7.517510057192000161e+00 6.078854140199959488e+01 2.420000000000000000e+02
8.407501783499528258e+00 5.968948966204185069e+01 2.420000000000000000e+02
1.287567973039305258e+00 6.848190358170380421e+01 2.430000000000000000e+02
2.177559699346832911e+00 6.738285184174606002e+01 2.430000000000000000e+02
3.067551425654360564e+00 6.628380010178831583e+01 2.430000000000000000e+02
3.957543151961888661e+00 6.518474836183057164e+01 2.430000000000000000e+02
4.847534878269415870e+00 6.408569662187282745e+01 2.430000000000000000e+02
5.737526604576943967e+00 6.298664488191508326e+01 2.430000000000000000e+02
6.627518330884472064e+00 6.188759314195733907e+01 2.430000000000000000e+02
7.517510057192000161e+00 6.078854140199959488e+01 2.430000000000000000e+02
8.407501783499528258e+00 5.968948966204185069e+01 2.430000000000000000e+02
9.297493509807054579e+00 5.859043792208409940e+01 2.430000000000000000e+02
1.287567973039305258e+00 6.848190358170380421e+01 2.440000000000000000e+02
2.177559699346832911e+00 6.738285184174606002e+01 2.440000000000000000e+02
3.067551425654360564e+00 6.628380010178831583e+01 2.440000000000000000e+02
3.957543151961888661e+00 6.518474836183057164e+01 2.440000000000000000e+02
4.847534878269415870e+00 6.408569662187282745e+01 2.440000000000000000e+02
5.737526604576943967e+00 6.298664488191508326e+01 2.440000000000000000e+02
6.627518330884472064e+00 6.188759314195733907e+01 2.440000000000000000e+02
7.517510057192000161e+00 6.078854140199959488e+01 2.440000000000000000e+02
8.407501783499528258e+00 5.968948966204185069e+01 2.440000000000000000e+02
9.297493509807054579e+00 5.859043792208409940e+01 2.440000000000000000e+02
1.287567973039305258e+00 6.848190358170380421e+01 2.450000000000000000e+02
2.177559699346832911e+00 6.738285184174606002e+01 2.450000000000000000e+02
3.067551425654360564e+00 6.628380010178831583e+01 2.450000000000000000e+02
3.957543151961888661e+00 6.518474836183057164e+01 2.450000000000000000e+02
4.847534878269415870e+00 6.408569662187282745e+01 2.450000000000000000e+02
5.737526604576943967e+00 6.298664488191508326e+01 2.450000000000000000e+02
6.627518330884472064e+00 6.188759314195733907e+01 2.450000000000000000e+02
7.517510057192000161e+00 6.078854140199959488e+01 2.450000000000000000e+02
8.407501783499528258e+00 5.968948966204185069e+01 2.450000000000000000e+02
9.297493509807054579e+00 5.859043792208409940e+01 2.450000000000000000e+02
1.287567973039305258e+00 6.848190358170380421e+01 2.460000000000000000e+02
2.177559699346832911e+00 6.738285184174606002e+01 2.460000000000000000e+02
3.067551425654360564e+00 6.628380010178831583e+01 2.460000000000000000e+02
3.957543151961888661e+00 6.518474836183057164e+01 2.460000000000000000e+02
4.847534878269415870e+00 6.408569662187282745e+01 2.460000000000000000e+02
5.737526604576943967e+00 6.298664488191508326e+01 2.460000000000000000e+02
6.627518330884472064e+00 6.188759314195733907e+01 2.460000000000000000e+02
