-2.553767556842843511e+00 2.882889697112949179e-01 1.270000000000000000e+02
-1.144431973876428144e+00 4.056483092830318604e-01 1.270000000000000000e+02
2.649036090899876683e-01 5.230076488547696911e-01 1.270000000000000000e+02
1.674239192056403036e+00 6.403669884265079659e-01 1.270000000000000000e+02
-7.545121767011164771e+00 5.821990726934207494e-01 1.280000000000000000e+02
-6.135786184044750513e+00 6.995584122651585801e-01 1.280000000000000000e+02
-4.726450601078335367e+00 8.169177518368955226e-01 1.280000000000000000e+02
-3.317115018111920222e+00 9.342770914086337974e-01 1.280000000000000000e+02
-1.907779435145504854e+00 1.051636430980371184e+00 1.280000000000000000e+02
-4.984438521790890420e-01 1.168995770552108571e+00 1.280000000000000000e+02
9.108917307873265479e-01 1.286355110123846845e+00 1.280000000000000000e+02
2.320227313753741694e+00 1.403714449695584232e+00 1.280000000000000000e+02
-7.545121767011164771e+00 5.821990726934207494e-01 1.290000000000000000e+02
-6.135786184044750513e+00 6.995584122651585801e-01 1.290000000000000000e+02
-4.726450601078335367e+00 8.169177518368955226e-01 1.290000000000000000e+02
-3.317115018111920222e+00 9.342770914086337974e-01 1.290000000000000000e+02
-1.907779435145504854e+00 1.051636430980371184e+00 1.290000000000000000e+02
-4.984438521790890420e-01 1.168995770552108571e+00 1.290000000000000000e+02
9.108917307873265479e-01 1.286355110123846845e+00 1.290000000000000000e+02
2.320227313753741694e+00 1.403714449695584232e+00 1.290000000000000000e+02
-7.545121767011164771e+00 5.821990726934207494e-01 1.300000000000000000e+02
-6.135786184044750513e+00 6.995584122651585801e-01 1.300000000000000000e+02
-4.726450601078335367e+00 8.169177518368955226e-01 1.300000000000000000e+02
-3.317115018111920222e+00 9.342770914086337974e-01 1.300000000000000000e+02
-1.907779435145504854e+00 1.051636430980371184e+00 1.300000000000000000e+02
-4.984438521790890420e-01 1.168995770552108571e+00 1.300000000000000000e+02
9.108917307873265479e-01 1.286355110123846845e+00 1.300000000000000000e+02
2.320227313753741694e+00 1.403714449695584232e+00 1.300000000000000000e+02
-7.545121767011164771e+00 5.821990726934207494e-01 1.310000000000000000e+02
-6.135786184044750513e+00 6.995584122651585801e-01 1.310000000000000000e+02
-4.726450601078335367e+00 8.169177518368955226e-01 1.310000000000000000e+02
-3.317115018111920222e+00 9.342770914086337974e-01 1.310000000000000000e+02
-1.907779435145504854e+00 1.051636430980371184e+00 1.310000000000000000e+02
-4.984438521790890420e-01 1.168995770552108571e+00 1.310000000000000000e+02
9.108917307873265479e-01 1.286355110123846845e+00 1.310000000000000000e+02
-7.545121767011164771e+00 5.821990726934207494e-01 1.320000000000000000e+02
-6.135786184044750513e+00 6.995584122651585801e-01 1.320000000000000000e+02
-4.726450601078335367e+00 8.169177518368955226e-01 1.320000000000000000e+02
-3.317115018111920222e+00 9.342770914086337974e-01 1.320000000000000000e+02
-1.907779435145504854e+00 1.051636430980371184e+00 1.320000000000000000e+02
-4.984438521790890420e-01 1.168995770552108571e+00 1.320000000000000000e+02
9.108917307873265479e-01 1.286355110123846845e+00 1.320000000000000000e+02
-7.545121767011164771e+00 5.821990726934207494e-01 1.330000000000000000e+02
-6.135786184044750513e+00 6.995584122651585801e-01 1.330000000000000000e+02
-4.726450601078335367e+00 8.169177518368955226e-01 1.330000000000000000e+02
-3.317115018111920222e+00 9.342770914086337974e-01 1.330000000000000000e+02
-1.907779435145504854e+00 1.051636430980371184e+00 1.330000000000000000e+02
-4.984438521790890420e-01 1.168995770552108571e+00 1.330000000000000000e+02
9.108917307873265479e-01 1.286355110123846845e+00 1.330000000000000000e+02
-7.545121767011164771e+00 5.821990726934207494e-01 1.340000000000000000e+02
-6.135786184044750513e+00 6.995584122651585801e-01 1.340000000000000000e+02
-4.726450601078335367e+00 8.169177518368955226e-01 1.340000000000000000e+02
-3.317115018111920222e+00 9.342770914086337974e-01 1.340000000000000000e+02
-1.907779435145504854e+00 1.051636430980371184e+00 1.340000000000000000e+02
-4.984438521790890420e-01 1.168995770552108571e+00 1.340000000000000000e+02
9.108917307873265479e-01 1.286355110123846845e+00 1.340000000000000000e+02
-7.545121767011164771e+00 5.821990726934207494e-01 1.350000000000000000e+02
-6.135786184044750513e+00 6.995584122651585801e-01 1.350000000000000000e+02
-4.726450601078335367e+00 8.169177518368955226e-01 1.350000000000000000e+02
-3.317115018111920222e+00 9.342770914086337974e-01 1.350000000000000000e+02
-1.907779435145504854e+00 1.051636430980371184e+00 1.350000000000000000e+02
-4.984438521790890420e-01 1.168995770552108571e+00 1.350000000000000000e+02
9.108917307873265479e-01 1.286355110123846845e+00 1.350000000000000000e+02
-7.545121767011164771e+00 5.821990726934207494e-01 1.360000000000000000e+02
-6.135786184044750513e+00 6.995584122651585801e-01 1.360000000000000000e+02
-4.726450601078335367e+00 8.169177518368955226e-01 1.360000000000000000e+02
-3.317115018111920222e+00 9.342770914086337974e-01 1.360000000000000000e+02
-1.907779435145504854e+00 1.051636430980371184e+00 1.360000000000000000e+02
-4.984438521790890420e-01 1.168995770552108571e+00 1.360000000000000000e+02
9.108917307873265479e-01 1.286355110123846845e+00 1.360000000000000000e+02
-7.545121767011164771e+00 5.821990726934207494e-01 1.370000000000000000e+02
-6.135786184044750513e+00 6.995584122651585801e-01 1.370000000000000000e+02
-4.726450601078335367e+00 8.169177518368955226e-01 1.370000000000000000e+02
-3.317115018111920222e+00 9.342770914086337974e-01 1.370000000000000000e+02
-1.907779435145504854e+00 1.051636430980371184e+00 1.370000000000000000e+02
-4.984438521790890420e-01 1.168995770552108571e+00 1.370000000000000000e+02
9.108917307873265479e-01 1.286355110123846845e+00 1.370000000000000000e+02
-7.545121767011164771e+00 5.821990726934207494e-01 1.380000000000000000e+02
-6.135786184044750513e+00 6.995584122651585801e-01 1.380000000000000000e+02
-4.726450601078335367e+00 8.169177518368955226e-01 1.380000000000000000e+02
-3.317115018111920222e+00 9.342770914086337974e-01 1.380000000000000000e+02
-1.907779435145504854e+00 1.051636430980371184e+00 1.380000000000000000e+02
-4.984438521790890420e-01 1.168995770552108571e+00 1.380000000000000000e+02
9.108917307873265479e-01 1.286355110123846845e+00 1.380000000000000000e+02
-7.545121767011164771e+00 5.821990726934207494e-01 1.390000000000000000e+02
-6.135786184044750513e+00 6.995584122651585801e-01 1.390000000000000000e+02
-4.726450601078335367e+00 8.169177518368955226e-01 1.390000000000000000e+02
-3.317115018111920222e+00 9.342770914086337974e-01 1.390000000000000000e+02
-1.907779435145504854e+00 1.051636430980371184e+00 1.390000000000000000e+02
-4.984438521790890420e-01 1.168995770552108571e+00 1.390000000000000000e+02
9.108917307873265479e-01 1.286355110123846845e+00 1.390000000000000000e+02
-7.545121767011164771e+00 5.821990726934207494e-01 1.400000000000000000e+02
-6.135786184044750513e+00 6.995584122651585801e-01 1.400000000000000000e+02
-4.726450601078335367e+00 8.169177518368955226e-01 1.400000000000000000e+02
-3.317115018111920222e+00 9.342770914086337974e-01 1.400000000000000000e+02
-1.907779435145504854e+00 1.051636430980371184e+00 1.400000000000000000e+02
-4.984438521790890420e-01 1.168995770552108571e+00 1.400000000000000000e+02
9.108917307873265479e-01 1.286355110123846845e+00 1.400000000000000000e+02
-7.545121767011164771e+00 5.821990726934207494e-01 1.410000000000000000e+02
-6.135786184044750513e+00 6.995584122651585801e-01 1.410000000000000000e+02
-4.726450601078335367e+00 8.169177518368955226e-01 1.410000000000000000e+02
-3.317115018111920222e+00 9.342770914086337974e-01 1.410000000000000000e+02
-1.907779435145504854e+00 1.051636430980371184e+00 1.410000000000000000e+02
-4.984438521790890420e-01 1.168995770552108571e+00 1.410000000000000000e+02
9.108917307873265479e-01 1.286355110123846845e+00 1.410000000000000000e+02
-6.781774305742088949e+00 -6.378904900391768606e-02 1.420000000000000000e+02
-5.372438722775673803e+00 5.357029056781925647e-02 1.420000000000000000e+02
-3.963103139809258657e+00 1.709296301395570872e-01 1.420000000000000000e+02
-2.553767556842843511e+00 2.882889697112949179e-01 1.420000000000000000e+02
-1.144431973876428144e+00 4.056483092830318604e-01 1.420000000000000000e+02
2.649036090899876683e-01 5.230076488547696911e-01 1.420000000000000000e+02
-6.781774305742088949e+00 -6.378904900391768606e-02 1.430000000000000000e+02
-5.372438722775673803e+00 5.357029056781925647e-02 1.430000000000000000e+02
-3.963103139809258657e+00 1.709296301395570872e-01 1.430000000000000000e+02
-2.553767556842843511e+00 2.882889697112949179e-01 1.430000000000000000e+02
-1.144431973876428144e+00 4.056483092830318604e-01 1.430000000000000000e+02
2.649036090899876683e-01 5.230076488547696911e-01 1.430000000000000000e+02
1.674239192056403036e+00 6.403669884265079659e-01 1.430000000000000000e+02
-6.781774305742088949e+00 -6.378904900391768606e-02 1.440000000000000000e+02
-5.372438722775673803e+00 5.357029056781925647e-02 1.440000000000000000e+02
-3.963103139809258657e+00 1.709296301395570872e-01 1.440000000000000000e+02
-2.553767556842843511e+00 2.882889697112949179e-01 1.440000000000000000e+02
-1.144431973876428144e+00 4.056483092830318604e-01 1.440000000000000000e+02
2.649036090899876683e-01 5.230076488547696911e-01 1.440000000000000000e+02
1.674239192056403036e+00 6.403669884265079659e-01 1.440000000000000000e+02
-6.018426844473013126e+00 -7.097771707012570097e-01 1.450000000000000000e+02
-4.609091261506597093e+00 -5.924178311295191790e-01 1.450000000000000000e+02
-3.199755678540182835e+00 -4.750584915577817924e-01 1.450000000000000000e+02
-1.790420095573766579e+00 -3.576991519860444058e-01 1.450000000000000000e+02
-3.810845126073512112e-01 -2.403398124143065751e-01 1.450000000000000000e+02
1.028251070359064157e+00 -1.229804728425691884e-01 1.450000000000000000e+02
-6.018426844473013126e+00 -7.097771707012570097e-01 1.460000000000000000e+02
-4.609091261506597093e+00 -5.924178311295191790e-01 1.460000000000000000e+02
-3.199755678540182835e+00 -4.750584915577817924e-01 1.460000000000000000e+02
-1.790420095573766579e+00 -3.576991519860444058e-01 1.460000000000000000e+02
-3.810845126073512112e-01 -2.403398124143065751e-01 1.460000000000000000e+02
1.028251070359064157e+00 -1.229804728425691884e-01 1.460000000000000000e+02
-6.018426844473013126e+00 -7.097771707012570097e-01 1.470000000000000000e+02
-4.609091261506597093e+00 -5.924178311295191790e-01 1.470000000000000000e+02
-3.199755678540182835e+00 -4.750584915577817924e-01 1.470000000000000000e+02
-1.790420095573766579e+00 -3.576991519860444058e-01 1.470000000000000000e+02
-3.810845126073512112e-01 -2.403398124143065751e-01 1.470000000000000000e+02
1.028251070359064157e+00 -1.229804728425691884e-01 1.470000000000000000e+02
2.437586653325479524e+00 -5.621133270830913631e-03 1.470000000000000000e+02
-5.255079383203935528e+00 -1.355765292398595445e+00 1.480000000000000000e+02
-3.845743800237521270e+00 -1.238405952826858059e+00 1.480000000000000000e+02
-2.436408217271105237e+00 -1.121046613255121116e+00 1.480000000000000000e+02
-1.027072634304689869e+00 -1.003687273683383285e+00 1.480000000000000000e+02
3.822629486617252770e-01 -8.863279341116454546e-01 1.480000000000000000e+02
1.791598531628140645e+00 -7.689685945399078459e-01 1.480000000000000000e+02
-4.491731921934859706e+00 -2.001753414095934325e+00 1.490000000000000000e+02
-3.082396338968444560e+00 -1.884394074524197382e+00 1.490000000000000000e+02
-1.673060756002028748e+00 -1.767034734952459551e+00 1.490000000000000000e+02
-2.637251730356133805e-01 -1.649675395380721943e+00 1.490000000000000000e+02
1.145610409930801765e+00 -1.532316055808984112e+00 1.490000000000000000e+02
2.554945992897216911e+00 -1.414956716237246503e+00 1.490000000000000000e+02
-4.491731921934859706e+00 -2.001753414095934325e+00 1.500000000000000000e+02
-3.082396338968444560e+00 -1.884394074524197382e+00 1.500000000000000000e+02
-1.673060756002028748e+00 -1.767034734952459551e+00 1.500000000000000000e+02
-2.637251730356133805e-01 -1.649675395380721943e+00 1.500000000000000000e+02
1.145610409930801765e+00 -1.532316055808984112e+00 1.500000000000000000e+02
2.554945992897216911e+00 -1.414956716237246503e+00 1.500000000000000000e+02
-4.491731921934859706e+00 -2.001753414095934325e+00 1.510000000000000000e+02
-3.082396338968444560e+00 -1.884394074524197382e+00 1.510000000000000000e+02
-1.673060756002028748e+00 -1.767034734952459551e+00 1.510000000000000000e+02
-2.637251730356133805e-01 -1.649675395380721943e+00 1.510000000000000000e+02
1.145610409930801765e+00 -1.532316055808984112e+00 1.510000000000000000e+02
2.554945992897216911e+00 -1.414956716237246503e+00 1.510000000000000000e+02
-4.491731921934859706e+00 -2.001753414095934325e+00 1.520000000000000000e+02
-3.082396338968444560e+00 -1.884394074524197382e+00 1.520000000000000000e+02
-1.673060756002028748e+00 -1.767034734952459551e+00 1.520000000000000000e+02
-2.637251730356133805e-01 -1.649675395380721943e+00 1.520000000000000000e+02
1.145610409930801765e+00 -1.532316055808984112e+00 1.520000000000000000e+02
2.554945992897216911e+00 -1.414956716237246503e+00 1.520000000000000000e+02
-3.728384460665782996e+00 -2.647741535793273648e+00 1.530000000000000000e+02
-2.319048877699367850e+00 -2.530382196221536262e+00 1.530000000000000000e+02
-9.097132947329522601e-01 -2.413022856649798431e+00 1.530000000000000000e+02
4.996222882334629967e-01 -2.295663517078060600e+00 1.530000000000000000e+02
1.908957871199878253e+00 -2.178304177506322770e+00 1.530000000000000000e+02
3.318293454166293621e+00 -2.060944837934585383e+00 1.530000000000000000e+02
-3.728384460665782996e+00 -2.647741535793273648e+00 1.540000000000000000e+02
-2.319048877699367850e+00 -2.530382196221536262e+00 1.540000000000000000e+02
-9.097132947329522601e-01 -2.413022856649798431e+00 1.540000000000000000e+02
4.996222882334629967e-01 -2.295663517078060600e+00 1.540000000000000000e+02
1.908957871199878253e+00 -2.178304177506322770e+00 1.540000000000000000e+02
3.318293454166293621e+00 -2.060944837934585383e+00 1.540000000000000000e+02
4.727629037132708767e+00 -1.943585498362847108e+00 1.540000000000000000e+02
-3.728384460665782996e+00 -2.647741535793273648e+00 1.550000000000000000e+02
-2.319048877699367850e+00 -2.530382196221536262e+00 1.550000000000000000e+02
-9.097132947329522601e-01 -2.413022856649798431e+00 1.550000000000000000e+02
4.996222882334629967e-01 -2.295663517078060600e+00 1.550000000000000000e+02
1.908957871199878253e+00 -2.178304177506322770e+00 1.550000000000000000e+02
3.318293454166293621e+00 -2.060944837934585383e+00 1.550000000000000000e+02
4.727629037132708767e+00 -1.943585498362847108e+00 1.550000000000000000e+02
-2.965036999396706285e+00 -3.293729657490612084e+00 1.560000000000000000e+02
-1.555701416430290918e+00 -3.176370317918874697e+00 1.560000000000000000e+02
-1.463658334638757719e-01 -3.059010978347137311e+00 1.560000000000000000e+02
1.262969749502539596e+00 -2.941651638775399480e+00 1.560000000000000000e+02
2.672305332468954742e+00 -2.824292299203661649e+00 1.560000000000000000e+02
4.081640915435370331e+00 -2.706932959631924263e+00 1.560000000000000000e+02
5.490976498401785477e+00 -2.589573620060185988e+00 1.560000000000000000e+02
-2.965036999396706285e+00 -3.293729657490612084e+00 1.570000000000000000e+02
-1.555701416430290918e+00 -3.176370317918874697e+00 1.570000000000000000e+02
-1.463658334638757719e-01 -3.059010978347137311e+00 1.570000000000000000e+02
1.262969749502539596e+00 -2.941651638775399480e+00 1.570000000000000000e+02
2.672305332468954742e+00 -2.824292299203661649e+00 1.570000000000000000e+02
4.081640915435370331e+00 -2.706932959631924263e+00 1.570000000000000000e+02
5.490976498401785477e+00 -2.589573620060185988e+00 1.570000000000000000e+02
-2.965036999396706285e+00 -3.293729657490612084e+00 1.580000000000000000e+02
-1.555701416430290918e+00 -3.176370317918874697e+00 1.580000000000000000e+02
-1.463658334638757719e-01 -3.059010978347137311e+00 1.580000000000000000e+02
1.262969749502539596e+00 -2.941651638775399480e+00 1.580000000000000000e+02
2.672305332468954742e+00 -2.824292299203661649e+00 1.580000000000000000e+02
4.081640915435370331e+00 -2.706932959631924263e+00 1.580000000000000000e+02
5.490976498401785477e+00 -2.589573620060185988e+00 1.580000000000000000e+02
6.900312081368199735e+00 -2.472214280488448157e+00 1.580000000000000000e+02
-2.965036999396706285e+00 -3.293729657490612084e+00 1.590000000000000000e+02
-1.555701416430290918e+00 -3.176370317918874697e+00 1.590000000000000000e+02
-1.463658334638757719e-01 -3.059010978347137311e+00 1.590000000000000000e+02
1.262969749502539596e+00 -2.941651638775399480e+00 1.590000000000000000e+02
2.672305332468954742e+00 -2.824292299203661649e+00 1.590000000000000000e+02
4.081640915435370331e+00 -2.706932959631924263e+00 1.590000000000000000e+02
5.490976498401785477e+00 -2.589573620060185988e+00 1.590000000000000000e+02
6.900312081368199735e+00 -2.472214280488448157e+00 1.590000000000000000e+02
-2.965036999396706285e+00 -3.293729657490612084e+00 1.600000000000000000e+02
-1.555701416430290918e+00 -3.176370317918874697e+00 1.600000000000000000e+02
-1.463658334638757719e-01 -3.059010978347137311e+00 1.600000000000000000e+02
1.262969749502539596e+00 -2.941651638775399480e+00 1.600000000000000000e+02
2.672305332468954742e+00 -2.824292299203661649e+00 1.600000000000000000e+02
4.081640915435370331e+00 -2.706932959631924263e+00 1.600000000000000000e+02
5.490976498401785477e+00 -2.589573620060185988e+00 1.600000000000000000e+02
6.900312081368199735e+00 -2.472214280488448157e+00 1.600000000000000000e+02
-2.201689538127629575e+00 -3.939717779187950963e+00 1.610000000000000000e+02
-7.923539551612144294e-01 -3.822358439616213577e+00 1.610000000000000000e+02
6.169816278052007164e-01 -3.704999100044475746e+00 1.610000000000000000e+02
2.026317210771615862e+00 -3.587639760472738359e+00 1.610000000000000000e+02
3.435652793738031008e+00 -3.470280420901000529e+00 1.610000000000000000e+02
4.844988376704446154e+00 -3.352921081329262698e+00 1.610000000000000000e+02
6.254323959670861299e+00 -3.235561741757524423e+00 1.610000000000000000e+02
-2.201689538127629575e+00 -3.939717779187950963e+00 1.620000000000000000e+02
-7.923539551612144294e-01 -3.822358439616213577e+00 1.620000000000000000e+02
6.169816278052007164e-01 -3.704999100044475746e+00 1.620000000000000000e+02
2.026317210771615862e+00 -3.587639760472738359e+00 1.620000000000000000e+02
3.435652793738031008e+00 -3.470280420901000529e+00 1.620000000000000000e+02
4.844988376704446154e+00 -3.352921081329262698e+00 1.620000000000000000e+02
6.254323959670861299e+00 -3.235561741757524423e+00 1.620000000000000000e+02
-2.201689538127629575e+00 -3.939717779187950963e+00 1.630000000000000000e+02
-7.923539551612144294e-01 -3.822358439616213577e+00 1.630000000000000000e+02
6.169816278052007164e-01 -3.704999100044475746e+00 1.630000000000000000e+02
2.026317210771615862e+00 -3.587639760472738359e+00 1.630000000000000000e+02
3.435652793738031008e+00 -3.470280420901000529e+00 1.630000000000000000e+02
4.844988376704446154e+00 -3.352921081329262698e+00 1.630000000000000000e+02
6.254323959670861299e+00 -3.235561741757524423e+00 1.630000000000000000e+02
7.663659542637276445e+00 -3.118202402185787037e+00 1.630000000000000000e+02
-2.201689538127629575e+00 -3.939717779187950963e+00 1.640000000000000000e+02
-7.923539551612144294e-01 -3.822358439616213577e+00 1.640000000000000000e+02
6.169816278052007164e-01 -3.704999100044475746e+00 1.640000000000000000e+02
2.026317210771615862e+00 -3.587639760472738359e+00 1.640000000000000000e+02
3.435652793738031008e+00 -3.470280420901000529e+00 1.640000000000000000e+02
4.844988376704446154e+00 -3.352921081329262698e+00 1.640000000000000000e+02
6.254323959670861299e+00 -3.235561741757524423e+00 1.640000000000000000e+02
7.663659542637276445e+00 -3.118202402185787037e+00 1.640000000000000000e+02
-1.438342076858553087e+00 -4.585705900885289843e+00 1.650000000000000000e+02
-2.900649389213794116e-02 -4.468346561313552456e+00 1.650000000000000000e+02
1.380329089074277205e+00 -4.350987221741814182e+00 1.650000000000000000e+02
2.789664672040692572e+00 -4.233627882170076795e+00 1.650000000000000000e+02
4.199000255007107718e+00 -4.116268542598339408e+00 1.650000000000000000e+02
5.608335837973522864e+00 -3.998909203026601134e+00 1.650000000000000000e+02
7.017671420939938010e+00 -3.881549863454863303e+00 1.650000000000000000e+02
-1.438342076858553087e+00 -4.585705900885289843e+00 1.660000000000000000e+02
-2.900649389213794116e-02 -4.468346561313552456e+00 1.660000000000000000e+02
1.380329089074277205e+00 -4.350987221741814182e+00 1.660000000000000000e+02
2.789664672040692572e+00 -4.233627882170076795e+00 1.660000000000000000e+02
4.199000255007107718e+00 -4.116268542598339408e+00 1.660000000000000000e+02
5.608335837973522864e+00 -3.998909203026601134e+00 1.660000000000000000e+02
7.017671420939938010e+00 -3.881549863454863303e+00 1.660000000000000000e+02
-1.438342076858553087e+00 -4.585705900885289843e+00 1.670000000000000000e+02
-2.900649389213794116e-02 -4.468346561313552456e+00 1.670000000000000000e+02
1.380329089074277205e+00 -4.350987221741814182e+00 1.670000000000000000e+02
2.789664672040692572e+00 -4.233627882170076795e+00 1.670000000000000000e+02
4.199000255007107718e+00 -4.116268542598339408e+00 1.670000000000000000e+02
5.608335837973522864e+00 -3.998909203026601134e+00 1.670000000000000000e+02
7.017671420939938010e+00 -3.881549863454863303e+00 1.670000000000000000e+02
-1.438342076858553087e+00 -4.585705900885289843e+00 1.680000000000000000e+02
-2.900649389213794116e-02 -4.468346561313552456e+00 1.680000000000000000e+02
1.380329089074277205e+00 -4.350987221741814182e+00 1.680000000000000000e+02
2.789664672040692572e+00 -4.233627882170076795e+00 1.680000000000000000e+02
4.199000255007107718e+00 -4.116268542598339408e+00 1.680000000000000000e+02
5.608335837973522864e+00 -3.998909203026601134e+00 1.680000000000000000e+02
7.017671420939938010e+00 -3.881549863454863303e+00 1.680000000000000000e+02
8.427007003906354043e+00 -3.764190523883125916e+00 1.680000000000000000e+02
-1.438342076858553087e+00 -4.585705900885289843e+00 1.690000000000000000e+02
-2.900649389213794116e-02 -4.468346561313552456e+00 1.690000000000000000e+02
1.380329089074277205e+00 -4.350987221741814182e+00 1.690000000000000000e+02
2.789664672040692572e+00 -4.233627882170076795e+00 1.690000000000000000e+02
4.199000255007107718e+00 -4.116268542598339408e+00 1.690000000000000000e+02
5.608335837973522864e+00 -3.998909203026601134e+00 1.690000000000000000e+02
7.017671420939938010e+00 -3.881549863454863303e+00 1.690000000000000000e+02
8.427007003906354043e+00 -3.764190523883125916e+00 1.690000000000000000e+02
-1.438342076858553087e+00 -4.585705900885289843e+00 1.700000000000000000e+02
-2.900649389213794116e-02 -4.468346561313552456e+00 1.700000000000000000e+02
1.380329089074277205e+00 -4.350987221741814182e+00 1.700000000000000000e+02
2.789664672040692572e+00 -4.233627882170076795e+00 1.700000000000000000e+02
4.199000255007107718e+00 -4.116268542598339408e+00 1.700000000000000000e+02
5.608335837973522864e+00 -3.998909203026601134e+00 1.700000000000000000e+02
7.017671420939938010e+00 -3.881549863454863303e+00 1.700000000000000000e+02
8.427007003906354043e+00 -3.764190523883125916e+00 1.700000000000000000e+02
-1.438342076858553087e+00 -4.585705900885289843e+00 1.710000000000000000e+02
-2.900649389213794116e-02 -4.468346561313552456e+00 1.710000000000000000e+02
1.380329089074277205e+00 -4.350987221741814182e+00 1.710000000000000000e+02
2.789664672040692572e+00 -4.233627882170076795e+00 1.710000000000000000e+02
4.199000255007107718e+00 -4.116268542598339408e+00 1.710000000000000000e+02
5.608335837973522864e+00 -3.998909203026601134e+00 1.710000000000000000e+02
7.017671420939938010e+00 -3.881549863454863303e+00 1.710000000000000000e+02
8.427007003906354043e+00 -3.764190523883125916e+00 1.710000000000000000e+02
-1.438342076858553087e+00 -4.585705900885289843e+00 1.720000000000000000e+02
-2.900649389213794116e-02 -4.468346561313552456e+00 1.720000000000000000e+02
1.380329089074277205e+00 -4.350987221741814182e+00 1.720000000000000000e+02
2.789664672040692572e+00 -4.233627882170076795e+00 1.720000000000000000e+02
4.199000255007107718e+00 -4.116268542598339408e+00 1.720000000000000000e+02
5.608335837973522864e+00 -3.998909203026601134e+00 1.720000000000000000e+02
7.017671420939938010e+00 -3.881549863454863303e+00 1.720000000000000000e+02
8.427007003906354043e+00 -3.764190523883125916e+00 1.720000000000000000e+02
-1.438342076858553087e+00 -4.585705900885289843e+00 1.730000000000000000e+02
-2.900649389213794116e-02 -4.468346561313552456e+00 1.730000000000000000e+02
1.380329089074277205e+00 -4.350987221741814182e+00 1.730000000000000000e+02
2.789664672040692572e+00 -4.233627882170076795e+00 1.730000000000000000e+02
4.199000255007107718e+00 -4.116268542598339408e+00 1.730000000000000000e+02
5.608335837973522864e+00 -3.998909203026601134e+00 1.730000000000000000e+02
7.017671420939938010e+00 -3.881549863454863303e+00 1.730000000000000000e+02
8.427007003906354043e+00 -3.764190523883125916e+00 1.730000000000000000e+02
-1.438342076858553087e+00 -4.585705900885289843e+00 1.740000000000000000e+02
-2.900649389213794116e-02 -4.468346561313552456e+00 1.740000000000000000e+02
1.380329089074277205e+00 -4.350987221741814182e+00 1.740000000000000000e+02
2.789664672040692572e+00 -4.233627882170076795e+00 1.740000000000000000e+02
4.199000255007107718e+00 -4.116268542598339408e+00 1.740000000000000000e+02
5.608335837973522864e+00 -3.998909203026601134e+00 1.740000000000000000e+02
7.017671420939938010e+00 -3.881549863454863303e+00 1.740000000000000000e+02
8.427007003906354043e+00 -3.764190523883125916e+00 1.740000000000000000e+02
-6.749946155894765987e-01 -5.231694022582628278e+00 1.750000000000000000e+02
7.343409673769385471e-01 -5.114334683010890892e+00 1.750000000000000000e+02
2.143676550343353693e+00 -4.996975343439153505e+00 1.750000000000000000e+02
3.553012133309769283e+00 -4.879616003867415230e+00 1.750000000000000000e+02
4.962347716276183540e+00 -4.762256664295677844e+00 1.750000000000000000e+02
6.371683299242598686e+00 -4.644897324723940457e+00 1.750000000000000000e+02
7.781018882209014720e+00 -4.527537985152202182e+00 1.750000000000000000e+02
-6.749946155894765987e-01 -5.231694022582628278e+00 1.760000000000000000e+02
7.343409673769385471e-01 -5.114334683010890892e+00 1.760000000000000000e+02
2.143676550343353693e+00 -4.996975343439153505e+00 1.760000000000000000e+02
3.553012133309769283e+00 -4.879616003867415230e+00 1.760000000000000000e+02
4.962347716276183540e+00 -4.762256664295677844e+00 1.760000000000000000e+02
6.371683299242598686e+00 -4.644897324723940457e+00 1.760000000000000000e+02
7.781018882209014720e+00 -4.527537985152202182e+00 1.760000000000000000e+02
-6.749946155894765987e-01 -5.231694022582628278e+00 1.770000000000000000e+02
7.343409673769385471e-01 -5.114334683010890892e+00 1.770000000000000000e+02
2.143676550343353693e+00 -4.996975343439153505e+00 1.770000000000000000e+02
3.553012133309769283e+00 -4.879616003867415230e+00 1.770000000000000000e+02
4.962347716276183540e+00 -4.762256664295677844e+00 1.770000000000000000e+02
6.371683299242598686e+00 -4.644897324723940457e+00 1.770000000000000000e+02
7.781018882209014720e+00 -4.527537985152202182e+00 1.770000000000000000e+02
-6.749946155894765987e-01 -5.231694022582628278e+00 1.780000000000000000e+02
7.343409673769385471e-01 -5.114334683010890892e+00 1.780000000000000000e+02
2.143676550343353693e+00 -4.996975343439153505e+00 1.780000000000000000e+02
3.553012133309769283e+00 -4.879616003867415230e+00 1.780000000000000000e+02
4.962347716276183540e+00 -4.762256664295677844e+00 1.780000000000000000e+02
6.371683299242598686e+00 -4.644897324723940457e+00 1.780000000000000000e+02
7.781018882209014720e+00 -4.527537985152202182e+00 1.780000000000000000e+02
-6.749946155894765987e-01 -5.231694022582628278e+00 1.790000000000000000e+02
7.343409673769385471e-01 -5.114334683010890892e+00 1.790000000000000000e+02
2.143676550343353693e+00 -4.996975343439153505e+00 1.790000000000000000e+02
3.553012133309769283e+00 -4.879616003867415230e+00 1.790000000000000000e+02
4.962347716276183540e+00 -4.762256664295677844e+00 1.790000000000000000e+02
6.371683299242598686e+00 -4.644897324723940457e+00 1.790000000000000000e+02
7.781018882209014720e+00 -4.527537985152202182e+00 1.790000000000000000e+02
-6.749946155894765987e-01 -5.231694022582628278e+00 1.800000000000000000e+02
7.343409673769385471e-01 -5.114334683010890892e+00 1.800000000000000000e+02
2.143676550343353693e+00 -4.996975343439153505e+00 1.800000000000000000e+02
3.553012133309769283e+00 -4.879616003867415230e+00 1.800000000000000000e+02
4.962347716276183540e+00 -4.762256664295677844e+00 1.800000000000000000e+02
6.371683299242598686e+00 -4.644897324723940457e+00 1.800000000000000000e+02
7.781018882209014720e+00 -4.527537985152202182e+00 1.800000000000000000e+02
-6.749946155894765987e-01 -5.231694022582628278e+00 1.810000000000000000e+02
7.343409673769385471e-01 -5.114334683010890892e+00 1.810000000000000000e+02
2.143676550343353693e+00 -4.996975343439153505e+00 1.810000000000000000e+02
3.553012133309769283e+00 -4.879616003867415230e+00 1.810000000000000000e+02
4.962347716276183540e+00 -4.762256664295677844e+00 1.810000000000000000e+02
6.371683299242598686e+00 -4.644897324723940457e+00 1.810000000000000000e+02
7.781018882209014720e+00 -4.527537985152202182e+00 1.810000000000000000e+02
-6.749946155894765987e-01 -5.231694022582628278e+00 1.820000000000000000e+02
7.343409673769385471e-01 -5.114334683010890892e+00 1.820000000000000000e+02
2.143676550343353693e+00 -4.996975343439153505e+00 1.820000000000000000e+02
3.553012133309769283e+00 -4.879616003867415230e+00 1.820000000000000000e+02
4.962347716276183540e+00 -4.762256664295677844e+00 1.820000000000000000e+02
6.371683299242598686e+00 -4.644897324723940457e+00 1.820000000000000000e+02
7.781018882209014720e+00 -4.527537985152202182e+00 1.820000000000000000e+02
-6.749946155894765987e-01 -5.231694022582628278e+00 1.830000000000000000e+02
7.343409673769385471e-01 -5.114334683010890892e+00 1.830000000000000000e+02
2.143676550343353693e+00 -4.996975343439153505e+00 1.830000000000000000e+02
3.553012133309769283e+00 -4.879616003867415230e+00 1.830000000000000000e+02
4.962347716276183540e+00 -4.762256664295677844e+00 1.830000000000000000e+02
6.371683299242598686e+00 -4.644897324723940457e+00 1.830000000000000000e+02
7.781018882209014720e+00 -4.527537985152202182e+00 1.830000000000000000e+02
-6.749946155894765987e-01 -5.231694022582628278e+00 1.840000000000000000e+02
7.343409673769385471e-01 -5.114334683010890892e+00 1.840000000000000000e+02
2.143676550343353693e+00 -4.996975343439153505e+00 1.840000000000000000e+02
3.553012133309769283e+00 -4.879616003867415230e+00 1.840000000000000000e+02
4.962347716276183540e+00 -4.762256664295677844e+00 1.840000000000000000e+02
6.371683299242598686e+00 -4.644897324723940457e+00 1.840000000000000000e+02
7.781018882209014720e+00 -4.527537985152202182e+00 1.840000000000000000e+02
-6.749946155894765987e-01 -5.231694022582628278e+00 1.850000000000000000e+02
7.343409673769385471e-01 -5.114334683010890892e+00 1.850000000000000000e+02
2.143676550343353693e+00 -4.996975343439153505e+00 1.850000000000000000e+02
3.553012133309769283e+00 -4.879616003867415230e+00 1.850000000000000000e+02
4.962347716276183540e+00 -4.762256664295677844e+00 1.850000000000000000e+02
6.371683299242598686e+00 -4.644897324723940457e+00 1.850000000000000000e+02
7.781018882209014720e+00 -4.527537985152202182e+00 1.850000000000000000e+02
-6.749946155894765987e-01 -5.231694022582628278e+00 1.860000000000000000e+02
7.343409673769385471e-01 -5.114334683010890892e+00 1.860000000000000000e+02
2.143676550343353693e+00 -4.996975343439153505e+00 1.860000000000000000e+02
3.553012133309769283e+00 -4.879616003867415230e+00 1.860000000000000000e+02
4.962347716276183540e+00 -4.762256664295677844e+00 1.860000000000000000e+02
6.371683299242598686e+00 -4.644897324723940457e+00 1.860000000000000000e+02
7.781018882209014720e+00 -4.527537985152202182e+00 1.860000000000000000e+02
-6.749946155894765987e-01 -5.231694022582628278e+00 1.870000000000000000e+02
7.343409673769385471e-01 -5.114334683010890892e+00 1.870000000000000000e+02
2.143676550343353693e+00 -4.996975343439153505e+00 1.870000000000000000e+02
3.553012133309769283e+00 -4.879616003867415230e+00 1.870000000000000000e+02
4.962347716276183540e+00 -4.762256664295677844e+00 1.870000000000000000e+02
6.371683299242598686e+00 -4.644897324723940457e+00 1.870000000000000000e+02
7.781018882209014720e+00 -4.527537985152202182e+00 1.870000000000000000e+02
-6.749946155894765987e-01 -5.231694022582628278e+00 1.880000000000000000e+02
7.343409673769385471e-01 -5.114334683010890892e+00 1.880000000000000000e+02
2.143676550343353693e+00 -4.996975343439153505e+00 1.880000000000000000e+02
3.553012133309769283e+00 -4.879616003867415230e+00 1.880000000000000000e+02
4.962347716276183540e+00 -4.762256664295677844e+00 1.880000000000000000e+02
6.371683299242598686e+00 -4.644897324723940457e+00 1.880000000000000000e+02
7.781018882209014720e+00 -4.527537985152202182e+00 1.880000000000000000e+02
-6.749946155894765987e-01 -5.231694022582628278e+00 1.890000000000000000e+02
7.343409673769385471e-01 -5.114334683010890892e+00 1.890000000000000000e+02
2.143676550343353693e+00 -4.996975343439153505e+00 1.890000000000000000e+02
3.553012133309769283e+00 -4.879616003867415230e+00 1.890000000000000000e+02
4.962347716276183540e+00 -4.762256664295677844e+00 1.890000000000000000e+02
6.371683299242598686e+00 -4.644897324723940457e+00 1.890000000000000000e+02
7.781018882209014720e+00 -4.527537985152202182e+00 1.890000000000000000e+02
-6.749946155894765987e-01 -5.231694022582628278e+00 1.900000000000000000e+02
7.343409673769385471e-01 -5.114334683010890892e+00 1.900000000000000000e+02
2.143676550343353693e+00 -4.996975343439153505e+00 1.900000000000000000e+02
3.553012133309769283e+00 -4.879616003867415230e+00 1.900000000000000000e+02
4.962347716276183540e+00 -4.762256664295677844e+00 1.900000000000000000e+02
6.371683299242598686e+00 -4.644897324723940457e+00 1.900000000000000000e+02
7.781018882209014720e+00 -4.527537985152202182e+00 1.900000000000000000e+02
-6.749946155894765987e-01 -5.231694022582628278e+00 1.910000000000000000e+02
7.343409673769385471e-01 -5.114334683010890892e+00 1.910000000000000000e+02
2.143676550343353693e+00 -4.996975343439153505e+00 1.910000000000000000e+02
3.553012133309769283e+00 -4.879616003867415230e+00 1.910000000000000000e+02
4.962347716276183540e+00 -4.762256664295677844e+00 1.910000000000000000e+02
6.371683299242598686e+00 -4.644897324723940457e+00 1.910000000000000000e+02
7.781018882209014720e+00 -4.527537985152202182e+00 1.910000000000000000e+02
-6.749946155894765987e-01 -5.231694022582628278e+00 1.920000000000000000e+02
7.343409673769385471e-01 -5.114334683010890892e+00 1.920000000000000000e+02
2.143676550343353693e+00 -4.996975343439153505e+00 1.920000000000000000e+02
3.553012133309769283e+00 -4.879616003867415230e+00 1.920000000000000000e+02
4.962347716276183540e+00 -4.762256664295677844e+00 1.920000000000000000e+02
6.371683299242598686e+00 -4.644897324723940457e+00 1.920000000000000000e+02
7.781018882209014720e+00 -4.527537985152202182e+00 1.920000000000000000e+02
-6.749946155894765987e-01 -5.231694022582628278e+00 1.930000000000000000e+02
7.343409673769385471e-01 -5.114334683010890892e+00 1.930000000000000000e+02
2.143676550343353693e+00 -4.996975343439153505e+00 1.930000000000000000e+02
3.553012133309769283e+00 -4.879616003867415230e+00 1.930000000000000000e+02
4.962347716276183540e+00 -4.762256664295677844e+00 1.930000000000000000e+02
6.371683299242598686e+00 -4.644897324723940457e+00 1.930000000000000000e+02
7.781018882209014720e+00 -4.527537985152202182e+00 1.930000000000000000e+02
-6.749946155894765987e-01 -5.231694022582628278e+00 1.940000000000000000e+02
7.343409673769385471e-01 -5.114334683010890892e+00 1.940000000000000000e+02
2.143676550343353693e+00 -4.996975343439153505e+00 1.940000000000000000e+02
3.553012133309769283e+00 -4.879616003867415230e+00 1.940000000000000000e+02
4.962347716276183540e+00 -4.762256664295677844e+00 1.940000000000000000e+02
6.371683299242598686e+00 -4.644897324723940457e+00 1.940000000000000000e+02
7.781018882209014720e+00 -4.527537985152202182e+00 1.940000000000000000e+02
-6.749946155894765987e-01 -5.231694022582628278e+00 1.950000000000000000e+02
7.343409673769385471e-01 -5.114334683010890892e+00 1.950000000000000000e+02
2.143676550343353693e+00 -4.996975343439153505e+00 1.950000000000000000e+02
3.553012133309769283e+00 -4.879616003867415230e+00 1.950000000000000000e+02
4.962347716276183540e+00 -4.762256664295677844e+00 1.950000000000000000e+02
6.371683299242598686e+00 -4.644897324723940457e+00 1.950000000000000000e+02
7.781018882209014720e+00 -4.527537985152202182e+00 1.950000000000000000e+02
-6.749946155894765987e-01 -5.231694022582628278e+00 1.960000000000000000e+02
7.343409673769385471e-01 -5.114334683010890892e+00 1.960000000000000000e+02
2.143676550343353693e+00 -4.996975343439153505e+00 1.960000000000000000e+02
3.553012133309769283e+00 -4.879616003867415230e+00 1.960000000000000000e+02
4.962347716276183540e+00 -4.762256664295677844e+00 1.960000000000000000e+02
6.371683299242598686e+00 -4.644897324723940457e+00 1.960000000000000000e+02
7.781018882209014720e+00 -4.527537985152202182e+00 1.960000000000000000e+02
-6.749946155894765987e-01 -5.231694022582628278e+00 1.970000000000000000e+02
7.343409673769385471e-01 -5.114334683010890892e+00 1.970000000000000000e+02
2.143676550343353693e+00 -4.996975343439153505e+00 1.970000000000000000e+02
3.553012133309769283e+00 -4.879616003867415230e+00 1.970000000000000000e+02
4.962347716276183540e+00 -4.762256664295677844e+00 1.970000000000000000e+02
6.371683299242598686e+00 -4.644897324723940457e+00 1.970000000000000000e+02
7.781018882209014720e+00 -4.527537985152202182e+00 1.970000000000000000e+02
-6.749946155894765987e-01 -5.231694022582628278e+00 1.980000000000000000e+02
7.343409673769385471e-01 -5.114334683010890892e+00 1.980000000000000000e+02
2.143676550343353693e+00 -4.996975343439153505e+00 1.980000000000000000e+02
3.553012133309769283e+00 -4.879616003867415230e+00 1.980000000000000000e+02
4.962347716276183540e+00 -4.762256664295677844e+00 1.980000000000000000e+02
6.371683299242598686e+00 -4.644897324723940457e+00 1.980000000000000000e+02
7.781018882209014720e+00 -4.527537985152202182e+00 1.980000000000000000e+02
-6.749946155894765987e-01 -5.231694022582628278e+00 1.990000000000000000e+02
7.343409673769385471e-01 -5.114334683010890892e+00 1.990000000000000000e+02
2.143676550343353693e+00 -4.996975343439153505e+00 1.990000000000000000e+02
3.553012133309769283e+00 -4.879616003867415230e+00 1.990000000000000000e+02
4.962347716276183540e+00 -4.762256664295677844e+00 1.990000000000000000e+02
6.371683299242598686e+00 -4.644897324723940457e+00 1.990000000000000000e+02
7.781018882209014720e+00 -4.527537985152202182e+00 1.990000000000000000e+02
-6.749946155894765987e-01 -5.231694022582628278e+00 2.000000000000000000e+02
7.343409673769385471e-01 -5.114334683010890892e+00 2.000000000000000000e+02
2.143676550343353693e+00 -4.996975343439153505e+00 2.000000000000000000e+02
3.553012133309769283e+00 -4.879616003867415230e+00 2.000000000000000000e+02
4.962347716276183540e+00 -4.762256664295677844e+00 2.000000000000000000e+02
6.371683299242598686e+00 -4.644897324723940457e+00 2.000000000000000000e+02
7.781018882209014720e+00 -4.527537985152202182e+00 2.000000000000000000e+02
-6.749946155894765987e-01 -5.231694022582628278e+00 2.010000000000000000e+02
7.343409673769385471e-01 -5.114334683010890892e+00 2.010000000000000000e+02
2.143676550343353693e+00 -4.996975343439153505e+00 2.010000000000000000e+02
3.553012133309769283e+00 -4.879616003867415230e+00 2.010000000000000000e+02
4.962347716276183540e+00 -4.762256664295677844e+00 2.010000000000000000e+02
6.371683299242598686e+00 -4.644897324723940457e+00 2.010000000000000000e+02
7.781018882209014720e+00 -4.527537985152202182e+00 2.010000000000000000e+02
-6.749946155894765987e-01 -5.231694022582628278e+00 2.020000000000000000e+02
7.343409673769385471e-01 -5.114334683010890892e+00 2.020000000000000000e+02
2.143676550343353693e+00 -4.996975343439153505e+00 2.020000000000000000e+02
3.553012133309769283e+00 -4.879616003867415230e+00 2.020000000000000000e+02
4.962347716276183540e+00 -4.762256664295677844e+00 2.020000000000000000e+02
6.371683299242598686e+00 -4.644897324723940457e+00 2.020000000000000000e+02
7.781018882209014720e+00 -4.527537985152202182e+00 2.020000000000000000e+02
-6.749946155894765987e-01 -5.231694022582628278e+00 2.030000000000000000e+02
7.343409673769385471e-01 -5.114334683010890892e+00 2.030000000000000000e+02
2.143676550343353693e+00 -4.996975343439153505e+00 2.030000000000000000e+02
3.553012133309769283e+00 -4.879616003867415230e+00 2.030000000000000000e+02
4.962347716276183540e+00 -4.762256664295677844e+00 2.030000000000000000e+02
6.371683299242598686e+00 -4.644897324723940457e+00 2.030000000000000000e+02
7.781018882209014720e+00 -4.527537985152202182e+00 2.030000000000000000e+02
-6.749946155894765987e-01 -5.231694022582628278e+00 2.040000000000000000e+02
7.343409673769385471e-01 -5.114334683010890892e+00 2.040000000000000000e+02
2.143676550343353693e+00 -4.996975343439153505e+00 2.040000000000000000e+02
3.553012133309769283e+00 -4.879616003867415230e+00 2.040000000000000000e+02
4.962347716276183540e+00 -4.762256664295677844e+00 2.040000000000000000e+02
6.371683299242598686e+00 -4.644897324723940457e+00 2.040000000000000000e+02
7.781018882209014720e+00 -4.527537985152202182e+00 2.040000000000000000e+02
-6.749946155894765987e-01 -5.231694022582628278e+00 2.050000000000000000e+02
7.343409673769385471e-01 -5.114334683010890892e+00 2.050000000000000000e+02
2.143676550343353693e+00 -4.996975343439153505e+00 2.050000000000000000e+02
3.553012133309769283e+00 -4.879616003867415230e+00 2.050000000000000000e+02
4.962347716276183540e+00 -4.762256664295677844e+00 2.050000000000000000e+02
6.371683299242598686e+00 -4.644897324723940457e+00 2.050000000000000000e+02
7.781018882209014720e+00 -4.527537985152202182e+00 2.050000000000000000e+02
-6.749946155894765987e-01 -5.231694022582628278e+00 2.060000000000000000e+02
7.343409673769385471e-01 -5.114334683010890892e+00 2.060000000000000000e+02
2.143676550343353693e+00 -4.996975343439153505e+00 2.060000000000000000e+02
3.553012133309769283e+00 -4.879616003867415230e+00 2.060000000000000000e+02
4.962347716276183540e+00 -4.762256664295677844e+00 2.060000000000000000e+02
6.371683299242598686e+00 -4.644897324723940457e+00 2.060000000000000000e+02
7.781018882209014720e+00 -4.527537985152202182e+00 2.060000000000000000e+02
-6.749946155894765987e-01 -5.231694022582628278e+00 2.070000000000000000e+02
7.343409673769385471e-01 -5.114334683010890892e+00 2.070000000000000000e+02
2.143676550343353693e+00 -4.996975343439153505e+00 2.070000000000000000e+02
3.553012133309769283e+00 -4.879616003867415230e+00 2.070000000000000000e+02
4.962347716276183540e+00 -4.762256664295677844e+00 2.070000000000000000e+02
6.371683299242598686e+00 -4.644897324723940457e+00 2.070000000000000000e+02
7.781018882209014720e+00 -4.527537985152202182e+00 2.070000000000000000e+02
-1.438342076858553087e+00 -4.585705900885289843e+00 2.080000000000000000e+02
-2.900649389213794116e-02 -4.468346561313552456e+00 2.080000000000000000e+02
1.380329089074277205e+00 -4.350987221741814182e+00 2.080000000000000000e+02
2.789664672040692572e+00 -4.233627882170076795e+00 2.080000000000000000e+02
4.199000255007107718e+00 -4.116268542598339408e+00 2.080000000000000000e+02
5.608335837973522864e+00 -3.998909203026601134e+00 2.080000000000000000e+02
7.017671420939938010e+00 -3.881549863454863303e+00 2.080000000000000000e+02
8.427007003906354043e+00 -3.764190523883125916e+00 2.080000000000000000e+02
-1.438342076858553087e+00 -4.585705900885289843e+00 2.090000000000000000e+02
-2.900649389213794116e-02 -4.468346561313552456e+00 2.090000000000000000e+02
1.380329089074277205e+00 -4.350987221741814182e+00 2.090000000000000000e+02
2.789664672040692572e+00 -4.233627882170076795e+00 2.090000000000000000e+02
4.199000255007107718e+00 -4.116268542598339408e+00 2.090000000000000000e+02
5.608335837973522864e+00 -3.998909203026601134e+00 2.090000000000000000e+02
7.017671420939938010e+00 -3.881549863454863303e+00 2.090000000000000000e+02
8.427007003906354043e+00 -3.764190523883125916e+00 2.090000000000000000e+02
-1.438342076858553087e+00 -4.585705900885289843e+00 2.100000000000000000e+02
-2.900649389213794116e-02 -4.468346561313552456e+00 2.100000000000000000e+02
1.380329089074277205e+00 -4.350987221741814182e+00 2.100000000000000000e+02
2.789664672040692572e+00 -4.233627882170076795e+00 2.100000000000000000e+02
4.199000255007107718e+00 -4.116268542598339408e+00 2.100000000000000000e+02
5.608335837973522864e+00 -3.998909203026601134e+00 2.100000000000000000e+02
7.017671420939938010e+00 -3.881549863454863303e+00 2.100000000000000000e+02
8.427007003906354043e+00 -3.764190523883125916e+00 2.100000000000000000e+02
-1.438342076858553087e+00 -4.585705900885289843e+00 2.110000000000000000e+02
-2.900649389213794116e-02 -4.468346561313552456e+00 2.110000000000000000e+02
1.380329089074277205e+00 -4.350987221741814182e+00 2.110000000000000000e+02
2.789664672040692572e+00 -4.233627882170076795e+00 2.110000000000000000e+02
4.199000255007107718e+00 -4.116268542598339408e+00 2.110000000000000000e+02
5.608335837973522864e+00 -3.998909203026601134e+00 2.110000000000000000e+02
7.017671420939938010e+00 -3.881549863454863303e+00 2.110000000000000000e+02
8.427007003906354043e+00 -3.764190523883125916e+00 2.110000000000000000e+02
-1.438342076858553087e+00 -4.585705900885289843e+00 2.120000000000000000e+02
-2.900649389213794116e-02 -4.468346561313552456e+00 2.120000000000000000e+02
1.380329089074277205e+00 -4.350987221741814182e+00 2.120000000000000000e+02
2.789664672040692572e+00 -4.233627882170076795e+00 2.120000000000000000e+02
4.199000255007107718e+00 -4.116268542598339408e+00 2.120000000000000000e+02
5.608335837973522864e+00 -3.998909203026601134e+00 2.120000000000000000e+02
7.017671420939938010e+00 -3.881549863454863303e+00 2.120000000000000000e+02
8.427007003906354043e+00 -3.764190523883125916e+00 2.120000000000000000e+02
-1.438342076858553087e+00 -4.585705900885289843e+00 2.130000000000000000e+02
-2.900649389213794116e-02 -4.468346561313552456e+00 2.130000000000000000e+02
1.380329089074277205e+00 -4.350987221741814182e+00 2.130000000000000000e+02
2.789664672040692572e+00 -4.233627882170076795e+00 2.130000000000000000e+02
4.199000255007107718e+00 -4.116268542598339408e+00 2.130000000000000000e+02
5.608335837973522864e+00 -3.998909203026601134e+00 2.130000000000000000e+02
7.017671420939938010e+00 -3.881549863454863303e+00 2.130000000000000000e+02
8.427007003906354043e+00 -3.764190523883125916e+00 2.130000000000000000e+02
-1.438342076858553087e+00 -4.585705900885289843e+00 2.140000000000000000e+02
-2.900649389213794116e-02 -4.468346561313552456e+00 2.140000000000000000e+02
1.380329089074277205e+00 -4.350987221741814182e+00 2.140000000000000000e+02
2.789664672040692572e+00 -4.233627882170076795e+00 2.140000000000000000e+02
4.199000255007107718e+00 -4.116268542598339408e+00 2.140000000000000000e+02
5.608335837973522864e+00 -3.998909203026601134e+00 2.140000000000000000e+02
7.017671420939938010e+00 -3.881549863454863303e+00 2.140000000000000000e+02
8.427007003906354043e+00 -3.764190523883125916e+00 2.140000000000000000e+02
-1.438342076858553087e+00 -4.585705900885289843e+00 2.150000000000000000e+02
-2.900649389213794116e-02 -4.468346561313552456e+00 2.150000000000000000e+02
1.380329089074277205e+00 -4.350987221741814182e+00 2.150000000000000000e+02
2.789664672040692572e+00 -4.233627882170076795e+00 2.150000000000000000e+02
