-4.083949093525502505e+00 -4.025087159316261598e+00 3.020000000000000000e+02
-3.193304398959305956e+00 -2.926564502271316925e+00 3.020000000000000000e+02
-2.302659704393108520e+00 -1.828041845226372475e+00 3.020000000000000000e+02
-1.412015009826911749e+00 -7.295191881814276913e-01 3.020000000000000000e+02
-5.213703152607147562e-01 3.690034688635170923e-01 3.020000000000000000e+02
3.692743793054823476e-01 1.467526125908461987e+00 3.020000000000000000e+02
1.259919073871679229e+00 2.566048782953407326e+00 3.020000000000000000e+02
2.150563768437876444e+00 3.664571439998351998e+00 3.020000000000000000e+02
-3.980010112286129331e+00 -5.019670835121832653e+00 3.030000000000000000e+02
-3.089365417719931894e+00 -3.921148178076887980e+00 3.030000000000000000e+02
-2.198720723153734902e+00 -2.822625521031943308e+00 3.030000000000000000e+02
-1.308076028587537909e+00 -1.724102863986998413e+00 3.030000000000000000e+02
-4.174313340213409163e-01 -6.255802069420537403e-01 3.030000000000000000e+02
4.732133605448561875e-01 4.729424501028910433e-01 3.030000000000000000e+02
1.363858055111053291e+00 1.571465107147836049e+00 3.030000000000000000e+02
2.254502749677250062e+00 2.669987764192780944e+00 3.030000000000000000e+02
3.145147444243447499e+00 3.768510421237726504e+00 3.030000000000000000e+02
-3.980010112286129331e+00 -5.019670835121832653e+00 3.040000000000000000e+02
-3.089365417719931894e+00 -3.921148178076887980e+00 3.040000000000000000e+02
-2.198720723153734902e+00 -2.822625521031943308e+00 3.040000000000000000e+02
-1.308076028587537909e+00 -1.724102863986998413e+00 3.040000000000000000e+02
-4.174313340213409163e-01 -6.255802069420537403e-01 3.040000000000000000e+02
4.732133605448561875e-01 4.729424501028910433e-01 3.040000000000000000e+02
1.363858055111053291e+00 1.571465107147836049e+00 3.040000000000000000e+02
2.254502749677250062e+00 2.669987764192780944e+00 3.040000000000000000e+02
3.145147444243447499e+00 3.768510421237726504e+00 3.040000000000000000e+02
-3.980010112286129331e+00 -5.019670835121832653e+00 3.050000000000000000e+02
-3.089365417719931894e+00 -3.921148178076887980e+00 3.050000000000000000e+02
-2.198720723153734902e+00 -2.822625521031943308e+00 3.050000000000000000e+02
-1.308076028587537909e+00 -1.724102863986998413e+00 3.050000000000000000e+02
-4.174313340213409163e-01 -6.255802069420537403e-01 3.050000000000000000e+02
4.732133605448561875e-01 4.729424501028910433e-01 3.050000000000000000e+02
1.363858055111053291e+00 1.571465107147836049e+00 3.050000000000000000e+02
2.254502749677250062e+00 2.669987764192780944e+00 3.050000000000000000e+02
-3.980010112286129331e+00 -5.019670835121832653e+00 3.060000000000000000e+02
-3.089365417719931894e+00 -3.921148178076887980e+00 3.060000000000000000e+02
-2.198720723153734902e+00 -2.822625521031943308e+00 3.060000000000000000e+02
-1.308076028587537909e+00 -1.724102863986998413e+00 3.060000000000000000e+02
-4.174313340213409163e-01 -6.255802069420537403e-01 3.060000000000000000e+02
4.732133605448561875e-01 4.729424501028910433e-01 3.060000000000000000e+02
1.363858055111053291e+00 1.571465107147836049e+00 3.060000000000000000e+02
2.254502749677250062e+00 2.669987764192780944e+00 3.060000000000000000e+02
-3.980010112286129331e+00 -5.019670835121832653e+00 3.070000000000000000e+02
-3.089365417719931894e+00 -3.921148178076887980e+00 3.070000000000000000e+02
-2.198720723153734902e+00 -2.822625521031943308e+00 3.070000000000000000e+02
-1.308076028587537909e+00 -1.724102863986998413e+00 3.070000000000000000e+02
-4.174313340213409163e-01 -6.255802069420537403e-01 3.070000000000000000e+02
4.732133605448561875e-01 4.729424501028910433e-01 3.070000000000000000e+02
1.363858055111053291e+00 1.571465107147836049e+00 3.070000000000000000e+02
2.254502749677250062e+00 2.669987764192780944e+00 3.070000000000000000e+02
-3.980010112286129331e+00 -5.019670835121832653e+00 3.080000000000000000e+02
-3.089365417719931894e+00 -3.921148178076887980e+00 3.080000000000000000e+02
-2.198720723153734902e+00 -2.822625521031943308e+00 3.080000000000000000e+02
-1.308076028587537909e+00 -1.724102863986998413e+00 3.080000000000000000e+02
-4.174313340213409163e-01 -6.255802069420537403e-01 3.080000000000000000e+02
4.732133605448561875e-01 4.729424501028910433e-01 3.080000000000000000e+02
1.363858055111053291e+00 1.571465107147836049e+00 3.080000000000000000e+02
2.254502749677250062e+00 2.669987764192780944e+00 3.080000000000000000e+02
3.145147444243447499e+00 3.768510421237726504e+00 3.080000000000000000e+02
-3.980010112286129331e+00 -5.019670835121832653e+00 3.090000000000000000e+02
-3.089365417719931894e+00 -3.921148178076887980e+00 3.090000000000000000e+02
-2.198720723153734902e+00 -2.822625521031943308e+00 3.090000000000000000e+02
-1.308076028587537909e+00 -1.724102863986998413e+00 3.090000000000000000e+02
-4.174313340213409163e-01 -6.255802069420537403e-01 3.090000000000000000e+02
4.732133605448561875e-01 4.729424501028910433e-01 3.090000000000000000e+02
1.363858055111053291e+00 1.571465107147836049e+00 3.090000000000000000e+02
2.254502749677250062e+00 2.669987764192780944e+00 3.090000000000000000e+02
3.145147444243447499e+00 3.768510421237726504e+00 3.090000000000000000e+02
-3.980010112286129331e+00 -5.019670835121832653e+00 3.100000000000000000e+02
-3.089365417719931894e+00 -3.921148178076887980e+00 3.100000000000000000e+02
-2.198720723153734902e+00 -2.822625521031943308e+00 3.100000000000000000e+02
-1.308076028587537909e+00 -1.724102863986998413e+00 3.100000000000000000e+02
-4.174313340213409163e-01 -6.255802069420537403e-01 3.100000000000000000e+02
4.732133605448561875e-01 4.729424501028910433e-01 3.100000000000000000e+02
1.363858055111053291e+00 1.571465107147836049e+00 3.100000000000000000e+02
2.254502749677250062e+00 2.669987764192780944e+00 3.100000000000000000e+02
3.145147444243447499e+00 3.768510421237726504e+00 3.100000000000000000e+02
-3.980010112286129331e+00 -5.019670835121832653e+00 3.110000000000000000e+02
-3.089365417719931894e+00 -3.921148178076887980e+00 3.110000000000000000e+02
-2.198720723153734902e+00 -2.822625521031943308e+00 3.110000000000000000e+02
-1.308076028587537909e+00 -1.724102863986998413e+00 3.110000000000000000e+02
-4.174313340213409163e-01 -6.255802069420537403e-01 3.110000000000000000e+02
4.732133605448561875e-01 4.729424501028910433e-01 3.110000000000000000e+02
1.363858055111053291e+00 1.571465107147836049e+00 3.110000000000000000e+02
2.254502749677250062e+00 2.669987764192780944e+00 3.110000000000000000e+02
3.145147444243447499e+00 3.768510421237726504e+00 3.110000000000000000e+02
-3.980010112286129331e+00 -5.019670835121832653e+00 3.120000000000000000e+02
-3.089365417719931894e+00 -3.921148178076887980e+00 3.120000000000000000e+02
-2.198720723153734902e+00 -2.822625521031943308e+00 3.120000000000000000e+02
-1.308076028587537909e+00 -1.724102863986998413e+00 3.120000000000000000e+02
-4.174313340213409163e-01 -6.255802069420537403e-01 3.120000000000000000e+02
4.732133605448561875e-01 4.729424501028910433e-01 3.120000000000000000e+02
1.363858055111053291e+00 1.571465107147836049e+00 3.120000000000000000e+02
2.254502749677250062e+00 2.669987764192780944e+00 3.120000000000000000e+02
3.145147444243447499e+00 3.768510421237726504e+00 3.120000000000000000e+02
-3.980010112286129331e+00 -5.019670835121832653e+00 3.130000000000000000e+02
-3.089365417719931894e+00 -3.921148178076887980e+00 3.130000000000000000e+02
-2.198720723153734902e+00 -2.822625521031943308e+00 3.130000000000000000e+02
-1.308076028587537909e+00 -1.724102863986998413e+00 3.130000000000000000e+02
-4.174313340213409163e-01 -6.255802069420537403e-01 3.130000000000000000e+02
4.732133605448561875e-01 4.729424501028910433e-01 3.130000000000000000e+02
1.363858055111053291e+00 1.571465107147836049e+00 3.130000000000000000e+02
2.254502749677250062e+00 2.669987764192780944e+00 3.130000000000000000e+02
3.145147444243447499e+00 3.768510421237726504e+00 3.130000000000000000e+02
-3.980010112286129331e+00 -5.019670835121832653e+00 3.140000000000000000e+02
-3.089365417719931894e+00 -3.921148178076887980e+00 3.140000000000000000e+02
-2.198720723153734902e+00 -2.822625521031943308e+00 3.140000000000000000e+02
-1.308076028587537909e+00 -1.724102863986998413e+00 3.140000000000000000e+02
-4.174313340213409163e-01 -6.255802069420537403e-01 3.140000000000000000e+02
4.732133605448561875e-01 4.729424501028910433e-01 3.140000000000000000e+02
1.363858055111053291e+00 1.571465107147836049e+00 3.140000000000000000e+02
2.254502749677250062e+00 2.669987764192780944e+00 3.140000000000000000e+02
3.145147444243447499e+00 3.768510421237726504e+00 3.140000000000000000e+02
-3.980010112286129331e+00 -5.019670835121832653e+00 3.150000000000000000e+02
-3.089365417719931894e+00 -3.921148178076887980e+00 3.150000000000000000e+02
-2.198720723153734902e+00 -2.822625521031943308e+00 3.150000000000000000e+02
-1.308076028587537909e+00 -1.724102863986998413e+00 3.150000000000000000e+02
-4.174313340213409163e-01 -6.255802069420537403e-01 3.150000000000000000e+02
4.732133605448561875e-01 4.729424501028910433e-01 3.150000000000000000e+02
1.363858055111053291e+00 1.571465107147836049e+00 3.150000000000000000e+02
2.254502749677250062e+00 2.669987764192780944e+00 3.150000000000000000e+02
3.145147444243447499e+00 3.768510421237726504e+00 3.150000000000000000e+02
-3.980010112286129331e+00 -5.019670835121832653e+00 3.160000000000000000e+02
-3.089365417719931894e+00 -3.921148178076887980e+00 3.160000000000000000e+02
-2.198720723153734902e+00 -2.822625521031943308e+00 3.160000000000000000e+02
-1.308076028587537909e+00 -1.724102863986998413e+00 3.160000000000000000e+02
-4.174313340213409163e-01 -6.255802069420537403e-01 3.160000000000000000e+02
4.732133605448561875e-01 4.729424501028910433e-01 3.160000000000000000e+02
1.363858055111053291e+00 1.571465107147836049e+00 3.160000000000000000e+02
2.254502749677250062e+00 2.669987764192780944e+00 3.160000000000000000e+02
3.145147444243447499e+00 3.768510421237726504e+00 3.160000000000000000e+02
-3.980010112286129331e+00 -5.019670835121832653e+00 3.170000000000000000e+02
-3.089365417719931894e+00 -3.921148178076887980e+00 3.170000000000000000e+02
-2.198720723153734902e+00 -2.822625521031943308e+00 3.170000000000000000e+02
-1.308076028587537909e+00 -1.724102863986998413e+00 3.170000000000000000e+02
-4.174313340213409163e-01 -6.255802069420537403e-01 3.170000000000000000e+02
4.732133605448561875e-01 4.729424501028910433e-01 3.170000000000000000e+02
1.363858055111053291e+00 1.571465107147836049e+00 3.170000000000000000e+02
2.254502749677250062e+00 2.669987764192780944e+00 3.170000000000000000e+02
3.145147444243447499e+00 3.768510421237726504e+00 3.170000000000000000e+02
-3.980010112286129331e+00 -5.019670835121832653e+00 3.180000000000000000e+02
-3.089365417719931894e+00 -3.921148178076887980e+00 3.180000000000000000e+02
-2.198720723153734902e+00 -2.822625521031943308e+00 3.180000000000000000e+02
-1.308076028587537909e+00 -1.724102863986998413e+00 3.180000000000000000e+02
-4.174313340213409163e-01 -6.255802069420537403e-01 3.180000000000000000e+02
4.732133605448561875e-01 4.729424501028910433e-01 3.180000000000000000e+02
1.363858055111053291e+00 1.571465107147836049e+00 3.180000000000000000e+02
2.254502749677250062e+00 2.669987764192780944e+00 3.180000000000000000e+02
3.145147444243447499e+00 3.768510421237726504e+00 3.180000000000000000e+02
-3.980010112286129331e+00 -5.019670835121832653e+00 3.190000000000000000e+02
-3.089365417719931894e+00 -3.921148178076887980e+00 3.190000000000000000e+02
-2.198720723153734902e+00 -2.822625521031943308e+00 3.190000000000000000e+02
-1.308076028587537909e+00 -1.724102863986998413e+00 3.190000000000000000e+02
-4.174313340213409163e-01 -6.255802069420537403e-01 3.190000000000000000e+02
4.732133605448561875e-01 4.729424501028910433e-01 3.190000000000000000e+02
1.363858055111053291e+00 1.571465107147836049e+00 3.190000000000000000e+02
2.254502749677250062e+00 2.669987764192780944e+00 3.190000000000000000e+02
3.145147444243447499e+00 3.768510421237726504e+00 3.190000000000000000e+02
-3.980010112286129331e+00 -5.019670835121832653e+00 3.200000000000000000e+02
-3.089365417719931894e+00 -3.921148178076887980e+00 3.200000000000000000e+02
-2.198720723153734902e+00 -2.822625521031943308e+00 3.200000000000000000e+02
-1.308076028587537909e+00 -1.724102863986998413e+00 3.200000000000000000e+02
-4.174313340213409163e-01 -6.255802069420537403e-01 3.200000000000000000e+02
4.732133605448561875e-01 4.729424501028910433e-01 3.200000000000000000e+02
1.363858055111053291e+00 1.571465107147836049e+00 3.200000000000000000e+02
2.254502749677250062e+00 2.669987764192780944e+00 3.200000000000000000e+02
3.145147444243447499e+00 3.768510421237726504e+00 3.200000000000000000e+02
-3.980010112286129331e+00 -5.019670835121832653e+00 3.210000000000000000e+02
-3.089365417719931894e+00 -3.921148178076887980e+00 3.210000000000000000e+02
-2.198720723153734902e+00 -2.822625521031943308e+00 3.210000000000000000e+02
-1.308076028587537909e+00 -1.724102863986998413e+00 3.210000000000000000e+02
-4.174313340213409163e-01 -6.255802069420537403e-01 3.210000000000000000e+02
4.732133605448561875e-01 4.729424501028910433e-01 3.210000000000000000e+02
1.363858055111053291e+00 1.571465107147836049e+00 3.210000000000000000e+02
2.254502749677250062e+00 2.669987764192780944e+00 3.210000000000000000e+02
3.145147444243447499e+00 3.768510421237726504e+00 3.210000000000000000e+02
4.035792138809644491e+00 4.867033078282670289e+00 3.210000000000000000e+02
-3.980010112286129331e+00 -5.019670835121832653e+00 3.220000000000000000e+02
-3.089365417719931894e+00 -3.921148178076887980e+00 3.220000000000000000e+02
-2.198720723153734902e+00 -2.822625521031943308e+00 3.220000000000000000e+02
-1.308076028587537909e+00 -1.724102863986998413e+00 3.220000000000000000e+02
-4.174313340213409163e-01 -6.255802069420537403e-01 3.220000000000000000e+02
4.732133605448561875e-01 4.729424501028910433e-01 3.220000000000000000e+02
1.363858055111053291e+00 1.571465107147836049e+00 3.220000000000000000e+02
2.254502749677250062e+00 2.669987764192780944e+00 3.220000000000000000e+02
3.145147444243447499e+00 3.768510421237726504e+00 3.220000000000000000e+02
4.035792138809644491e+00 4.867033078282670289e+00 3.220000000000000000e+02
-2.985426436480558277e+00 -4.915731853882459035e+00 3.230000000000000000e+02
-2.094781741914360840e+00 -3.817209196837514362e+00 3.230000000000000000e+02
-1.204137047348164069e+00 -2.718686539792569690e+00 3.230000000000000000e+02
-3.134923527819669653e-01 -1.620163882747624573e+00 3.230000000000000000e+02
5.771523417842301384e-01 -5.216412257026799004e-01 3.230000000000000000e+02
1.467797036350427131e+00 5.768814313422649942e-01 3.230000000000000000e+02
2.358441730916624124e+00 1.675404088387209667e+00 3.230000000000000000e+02
3.249086425482821117e+00 2.773926745432154561e+00 3.230000000000000000e+02
4.139731120049018998e+00 3.872449402477100122e+00 3.230000000000000000e+02
-2.985426436480558277e+00 -4.915731853882459035e+00 3.240000000000000000e+02
-2.094781741914360840e+00 -3.817209196837514362e+00 3.240000000000000000e+02
-1.204137047348164069e+00 -2.718686539792569690e+00 3.240000000000000000e+02
-3.134923527819669653e-01 -1.620163882747624573e+00 3.240000000000000000e+02
5.771523417842301384e-01 -5.216412257026799004e-01 3.240000000000000000e+02
1.467797036350427131e+00 5.768814313422649942e-01 3.240000000000000000e+02
2.358441730916624124e+00 1.675404088387209667e+00 3.240000000000000000e+02
3.249086425482821117e+00 2.773926745432154561e+00 3.240000000000000000e+02
-2.985426436480558277e+00 -4.915731853882459035e+00 3.250000000000000000e+02
-2.094781741914360840e+00 -3.817209196837514362e+00 3.250000000000000000e+02
-1.204137047348164069e+00 -2.718686539792569690e+00 3.250000000000000000e+02
-3.134923527819669653e-01 -1.620163882747624573e+00 3.250000000000000000e+02
5.771523417842301384e-01 -5.216412257026799004e-01 3.250000000000000000e+02
1.467797036350427131e+00 5.768814313422649942e-01 3.250000000000000000e+02
2.358441730916624124e+00 1.675404088387209667e+00 3.250000000000000000e+02
3.249086425482821117e+00 2.773926745432154561e+00 3.250000000000000000e+02
-3.980010112286129331e+00 -5.019670835121832653e+00 3.260000000000000000e+02
-3.089365417719931894e+00 -3.921148178076887980e+00 3.260000000000000000e+02
-2.198720723153734902e+00 -2.822625521031943308e+00 3.260000000000000000e+02
-1.308076028587537909e+00 -1.724102863986998413e+00 3.260000000000000000e+02
-4.174313340213409163e-01 -6.255802069420537403e-01 3.260000000000000000e+02
4.732133605448561875e-01 4.729424501028910433e-01 3.260000000000000000e+02
1.363858055111053291e+00 1.571465107147836049e+00 3.260000000000000000e+02
2.254502749677250062e+00 2.669987764192780944e+00 3.260000000000000000e+02
3.145147444243447499e+00 3.768510421237726504e+00 3.260000000000000000e+02
-3.980010112286129331e+00 -5.019670835121832653e+00 3.270000000000000000e+02
-3.089365417719931894e+00 -3.921148178076887980e+00 3.270000000000000000e+02
-2.198720723153734902e+00 -2.822625521031943308e+00 3.270000000000000000e+02
-1.308076028587537909e+00 -1.724102863986998413e+00 3.270000000000000000e+02
-4.174313340213409163e-01 -6.255802069420537403e-01 3.270000000000000000e+02
4.732133605448561875e-01 4.729424501028910433e-01 3.270000000000000000e+02
1.363858055111053291e+00 1.571465107147836049e+00 3.270000000000000000e+02
2.254502749677250062e+00 2.669987764192780944e+00 3.270000000000000000e+02
3.145147444243447499e+00 3.768510421237726504e+00 3.270000000000000000e+02
-3.980010112286129331e+00 -5.019670835121832653e+00 3.280000000000000000e+02
-3.089365417719931894e+00 -3.921148178076887980e+00 3.280000000000000000e+02
-2.198720723153734902e+00 -2.822625521031943308e+00 3.280000000000000000e+02
-1.308076028587537909e+00 -1.724102863986998413e+00 3.280000000000000000e+02
-4.174313340213409163e-01 -6.255802069420537403e-01 3.280000000000000000e+02
4.732133605448561875e-01 4.729424501028910433e-01 3.280000000000000000e+02
1.363858055111053291e+00 1.571465107147836049e+00 3.280000000000000000e+02
2.254502749677250062e+00 2.669987764192780944e+00 3.280000000000000000e+02
3.145147444243447499e+00 3.768510421237726504e+00 3.280000000000000000e+02
-3.980010112286129331e+00 -5.019670835121832653e+00 3.290000000000000000e+02
-3.089365417719931894e+00 -3.921148178076887980e+00 3.290000000000000000e+02
-2.198720723153734902e+00 -2.822625521031943308e+00 3.290000000000000000e+02
-1.308076028587537909e+00 -1.724102863986998413e+00 3.290000000000000000e+02
-4.174313340213409163e-01 -6.255802069420537403e-01 3.290000000000000000e+02
4.732133605448561875e-01 4.729424501028910433e-01 3.290000000000000000e+02
1.363858055111053291e+00 1.571465107147836049e+00 3.290000000000000000e+02
2.254502749677250062e+00 2.669987764192780944e+00 3.290000000000000000e+02
3.145147444243447499e+00 3.768510421237726504e+00 3.290000000000000000e+02
-3.980010112286129331e+00 -5.019670835121832653e+00 3.300000000000000000e+02
-3.089365417719931894e+00 -3.921148178076887980e+00 3.300000000000000000e+02
-2.198720723153734902e+00 -2.822625521031943308e+00 3.300000000000000000e+02
-1.308076028587537909e+00 -1.724102863986998413e+00 3.300000000000000000e+02
-4.174313340213409163e-01 -6.255802069420537403e-01 3.300000000000000000e+02
4.732133605448561875e-01 4.729424501028910433e-01 3.300000000000000000e+02
1.363858055111053291e+00 1.571465107147836049e+00 3.300000000000000000e+02
2.254502749677250062e+00 2.669987764192780944e+00 3.300000000000000000e+02
3.145147444243447499e+00 3.768510421237726504e+00 3.300000000000000000e+02
-3.980010112286129331e+00 -5.019670835121832653e+00 3.310000000000000000e+02
-3.089365417719931894e+00 -3.921148178076887980e+00 3.310000000000000000e+02
-2.198720723153734902e+00 -2.822625521031943308e+00 3.310000000000000000e+02
-1.308076028587537909e+00 -1.724102863986998413e+00 3.310000000000000000e+02
-4.174313340213409163e-01 -6.255802069420537403e-01 3.310000000000000000e+02
4.732133605448561875e-01 4.729424501028910433e-01 3.310000000000000000e+02
1.363858055111053291e+00 1.571465107147836049e+00 3.310000000000000000e+02
2.254502749677250062e+00 2.669987764192780944e+00 3.310000000000000000e+02
3.145147444243447499e+00 3.768510421237726504e+00 3.310000000000000000e+02
-3.980010112286129331e+00 -5.019670835121832653e+00 3.320000000000000000e+02
-3.089365417719931894e+00 -3.921148178076887980e+00 3.320000000000000000e+02
-2.198720723153734902e+00 -2.822625521031943308e+00 3.320000000000000000e+02
-1.308076028587537909e+00 -1.724102863986998413e+00 3.320000000000000000e+02
-4.174313340213409163e-01 -6.255802069420537403e-01 3.320000000000000000e+02
4.732133605448561875e-01 4.729424501028910433e-01 3.320000000000000000e+02
1.363858055111053291e+00 1.571465107147836049e+00 3.320000000000000000e+02
2.254502749677250062e+00 2.669987764192780944e+00 3.320000000000000000e+02
3.145147444243447499e+00 3.768510421237726504e+00 3.320000000000000000e+02
-3.980010112286129331e+00 -5.019670835121832653e+00 3.330000000000000000e+02
-3.089365417719931894e+00 -3.921148178076887980e+00 3.330000000000000000e+02
-2.198720723153734902e+00 -2.822625521031943308e+00 3.330000000000000000e+02
-1.308076028587537909e+00 -1.724102863986998413e+00 3.330000000000000000e+02
-4.174313340213409163e-01 -6.255802069420537403e-01 3.330000000000000000e+02
4.732133605448561875e-01 4.729424501028910433e-01 3.330000000000000000e+02
1.363858055111053291e+00 1.571465107147836049e+00 3.330000000000000000e+02
2.254502749677250062e+00 2.669987764192780944e+00 3.330000000000000000e+02
3.145147444243447499e+00 3.768510421237726504e+00 3.330000000000000000e+02
4.035792138809644491e+00 4.867033078282670289e+00 3.330000000000000000e+02
-3.980010112286129331e+00 -5.019670835121832653e+00 3.340000000000000000e+02
-3.089365417719931894e+00 -3.921148178076887980e+00 3.340000000000000000e+02
-2.198720723153734902e+00 -2.822625521031943308e+00 3.340000000000000000e+02
-1.308076028587537909e+00 -1.724102863986998413e+00 3.340000000000000000e+02
-4.174313340213409163e-01 -6.255802069420537403e-01 3.340000000000000000e+02
4.732133605448561875e-01 4.729424501028910433e-01 3.340000000000000000e+02
1.363858055111053291e+00 1.571465107147836049e+00 3.340000000000000000e+02
2.254502749677250062e+00 2.669987764192780944e+00 3.340000000000000000e+02
3.145147444243447499e+00 3.768510421237726504e+00 3.340000000000000000e+02
4.035792138809644491e+00 4.867033078282670289e+00 3.340000000000000000e+02
-3.980010112286129331e+00 -5.019670835121832653e+00 3.350000000000000000e+02
-3.089365417719931894e+00 -3.921148178076887980e+00 3.350000000000000000e+02
-2.198720723153734902e+00 -2.822625521031943308e+00 3.350000000000000000e+02
-1.308076028587537909e+00 -1.724102863986998413e+00 3.350000000000000000e+02
-4.174313340213409163e-01 -6.255802069420537403e-01 3.350000000000000000e+02
4.732133605448561875e-01 4.729424501028910433e-01 3.350000000000000000e+02
1.363858055111053291e+00 1.571465107147836049e+00 3.350000000000000000e+02
2.254502749677250062e+00 2.669987764192780944e+00 3.350000000000000000e+02
3.145147444243447499e+00 3.768510421237726504e+00 3.350000000000000000e+02
4.035792138809644491e+00 4.867033078282670289e+00 3.350000000000000000e+02
-3.980010112286129331e+00 -5.019670835121832653e+00 3.360000000000000000e+02
-3.089365417719931894e+00 -3.921148178076887980e+00 3.360000000000000000e+02
-2.198720723153734902e+00 -2.822625521031943308e+00 3.360000000000000000e+02
-1.308076028587537909e+00 -1.724102863986998413e+00 3.360000000000000000e+02
-4.174313340213409163e-01 -6.255802069420537403e-01 3.360000000000000000e+02
4.732133605448561875e-01 4.729424501028910433e-01 3.360000000000000000e+02
1.363858055111053291e+00 1.571465107147836049e+00 3.360000000000000000e+02
2.254502749677250062e+00 2.669987764192780944e+00 3.360000000000000000e+02
3.145147444243447499e+00 3.768510421237726504e+00 3.360000000000000000e+02
4.035792138809644491e+00 4.867033078282670289e+00 3.360000000000000000e+02
-3.980010112286129331e+00 -5.019670835121832653e+00 3.370000000000000000e+02
-3.089365417719931894e+00 -3.921148178076887980e+00 3.370000000000000000e+02
-2.198720723153734902e+00 -2.822625521031943308e+00 3.370000000000000000e+02
-1.308076028587537909e+00 -1.724102863986998413e+00 3.370000000000000000e+02
-4.174313340213409163e-01 -6.255802069420537403e-01 3.370000000000000000e+02
4.732133605448561875e-01 4.729424501028910433e-01 3.370000000000000000e+02
1.363858055111053291e+00 1.571465107147836049e+00 3.370000000000000000e+02
2.254502749677250062e+00 2.669987764192780944e+00 3.370000000000000000e+02
3.145147444243447499e+00 3.768510421237726504e+00 3.370000000000000000e+02
4.035792138809644491e+00 4.867033078282670289e+00 3.370000000000000000e+02
-3.980010112286129331e+00 -5.019670835121832653e+00 3.380000000000000000e+02
-3.089365417719931894e+00 -3.921148178076887980e+00 3.380000000000000000e+02
-2.198720723153734902e+00 -2.822625521031943308e+00 3.380000000000000000e+02
-1.308076028587537909e+00 -1.724102863986998413e+00 3.380000000000000000e+02
-4.174313340213409163e-01 -6.255802069420537403e-01 3.380000000000000000e+02
4.732133605448561875e-01 4.729424501028910433e-01 3.380000000000000000e+02
1.363858055111053291e+00 1.571465107147836049e+00 3.380000000000000000e+02
2.254502749677250062e+00 2.669987764192780944e+00 3.380000000000000000e+02
3.145147444243447499e+00 3.768510421237726504e+00 3.380000000000000000e+02
-3.980010112286129331e+00 -5.019670835121832653e+00 3.390000000000000000e+02
-3.089365417719931894e+00 -3.921148178076887980e+00 3.390000000000000000e+02
-2.198720723153734902e+00 -2.822625521031943308e+00 3.390000000000000000e+02
-1.308076028587537909e+00 -1.724102863986998413e+00 3.390000000000000000e+02
-4.174313340213409163e-01 -6.255802069420537403e-01 3.390000000000000000e+02
4.732133605448561875e-01 4.729424501028910433e-01 3.390000000000000000e+02
1.363858055111053291e+00 1.571465107147836049e+00 3.390000000000000000e+02
2.254502749677250062e+00 2.669987764192780944e+00 3.390000000000000000e+02
3.145147444243447499e+00 3.768510421237726504e+00 3.390000000000000000e+02
-3.980010112286129331e+00 -5.019670835121832653e+00 3.400000000000000000e+02
-3.089365417719931894e+00 -3.921148178076887980e+00 3.400000000000000000e+02
-2.198720723153734902e+00 -2.822625521031943308e+00 3.400000000000000000e+02
-1.308076028587537909e+00 -1.724102863986998413e+00 3.400000000000000000e+02
-4.174313340213409163e-01 -6.255802069420537403e-01 3.400000000000000000e+02
4.732133605448561875e-01 4.729424501028910433e-01 3.400000000000000000e+02
1.363858055111053291e+00 1.571465107147836049e+00 3.400000000000000000e+02
2.254502749677250062e+00 2.669987764192780944e+00 3.400000000000000000e+02
3.145147444243447499e+00 3.768510421237726504e+00 3.400000000000000000e+02
-3.980010112286129331e+00 -5.019670835121832653e+00 3.410000000000000000e+02
-3.089365417719931894e+00 -3.921148178076887980e+00 3.410000000000000000e+02
-2.198720723153734902e+00 -2.822625521031943308e+00 3.410000000000000000e+02
-1.308076028587537909e+00 -1.724102863986998413e+00 3.410000000000000000e+02
-4.174313340213409163e-01 -6.255802069420537403e-01 3.410000000000000000e+02
4.732133605448561875e-01 4.729424501028910433e-01 3.410000000000000000e+02
1.363858055111053291e+00 1.571465107147836049e+00 3.410000000000000000e+02
2.254502749677250062e+00 2.669987764192780944e+00 3.410000000000000000e+02
3.145147444243447499e+00 3.768510421237726504e+00 3.410000000000000000e+02
-3.980010112286129331e+00 -5.019670835121832653e+00 3.420000000000000000e+02
-3.089365417719931894e+00 -3.921148178076887980e+00 3.420000000000000000e+02
-2.198720723153734902e+00 -2.822625521031943308e+00 3.420000000000000000e+02
-1.308076028587537909e+00 -1.724102863986998413e+00 3.420000000000000000e+02
-4.174313340213409163e-01 -6.255802069420537403e-01 3.420000000000000000e+02
4.732133605448561875e-01 4.729424501028910433e-01 3.420000000000000000e+02
1.363858055111053291e+00 1.571465107147836049e+00 3.420000000000000000e+02
2.254502749677250062e+00 2.669987764192780944e+00 3.420000000000000000e+02
3.145147444243447499e+00 3.768510421237726504e+00 3.420000000000000000e+02
-3.980010112286129331e+00 -5.019670835121832653e+00 3.430000000000000000e+02
-3.089365417719931894e+00 -3.921148178076887980e+00 3.430000000000000000e+02
-2.198720723153734902e+00 -2.822625521031943308e+00 3.430000000000000000e+02
-1.308076028587537909e+00 -1.724102863986998413e+00 3.430000000000000000e+02
-4.174313340213409163e-01 -6.255802069420537403e-01 3.430000000000000000e+02
4.732133605448561875e-01 4.729424501028910433e-01 3.430000000000000000e+02
1.363858055111053291e+00 1.571465107147836049e+00 3.430000000000000000e+02
2.254502749677250062e+00 2.669987764192780944e+00 3.430000000000000000e+02
3.145147444243447499e+00 3.768510421237726504e+00 3.430000000000000000e+02
-3.980010112286129331e+00 -5.019670835121832653e+00 3.440000000000000000e+02
-3.089365417719931894e+00 -3.921148178076887980e+00 3.440000000000000000e+02
-2.198720723153734902e+00 -2.822625521031943308e+00 3.440000000000000000e+02
-1.308076028587537909e+00 -1.724102863986998413e+00 3.440000000000000000e+02
-4.174313340213409163e-01 -6.255802069420537403e-01 3.440000000000000000e+02
4.732133605448561875e-01 4.729424501028910433e-01 3.440000000000000000e+02
1.363858055111053291e+00 1.571465107147836049e+00 3.440000000000000000e+02
2.254502749677250062e+00 2.669987764192780944e+00 3.440000000000000000e+02
3.145147444243447499e+00 3.768510421237726504e+00 3.440000000000000000e+02
4.035792138809644491e+00 4.867033078282670289e+00 3.440000000000000000e+02
-3.980010112286129331e+00 -5.019670835121832653e+00 3.450000000000000000e+02
-3.089365417719931894e+00 -3.921148178076887980e+00 3.450000000000000000e+02
-2.198720723153734902e+00 -2.822625521031943308e+00 3.450000000000000000e+02
-1.308076028587537909e+00 -1.724102863986998413e+00 3.450000000000000000e+02
-4.174313340213409163e-01 -6.255802069420537403e-01 3.450000000000000000e+02
4.732133605448561875e-01 4.729424501028910433e-01 3.450000000000000000e+02
1.363858055111053291e+00 1.571465107147836049e+00 3.450000000000000000e+02
2.254502749677250062e+00 2.669987764192780944e+00 3.450000000000000000e+02
3.145147444243447499e+00 3.768510421237726504e+00 3.450000000000000000e+02
4.035792138809644491e+00 4.867033078282670289e+00 3.450000000000000000e+02
-2.985426436480558277e+00 -4.915731853882459035e+00 3.460000000000000000e+02
-2.094781741914360840e+00 -3.817209196837514362e+00 3.460000000000000000e+02
-1.204137047348164069e+00 -2.718686539792569690e+00 3.460000000000000000e+02
-3.134923527819669653e-01 -1.620163882747624573e+00 3.460000000000000000e+02
5.771523417842301384e-01 -5.216412257026799004e-01 3.460000000000000000e+02
1.467797036350427131e+00 5.768814313422649942e-01 3.460000000000000000e+02
2.358441730916624124e+00 1.675404088387209667e+00 3.460000000000000000e+02
3.249086425482821117e+00 2.773926745432154561e+00 3.460000000000000000e+02
4.139731120049018998e+00 3.872449402477100122e+00 3.460000000000000000e+02
-3.980010112286129331e+00 -5.019670835121832653e+00 3.470000000000000000e+02
-3.089365417719931894e+00 -3.921148178076887980e+00 3.470000000000000000e+02
-2.198720723153734902e+00 -2.822625521031943308e+00 3.470000000000000000e+02
-1.308076028587537909e+00 -1.724102863986998413e+00 3.470000000000000000e+02
-4.174313340213409163e-01 -6.255802069420537403e-01 3.470000000000000000e+02
4.732133605448561875e-01 4.729424501028910433e-01 3.470000000000000000e+02
1.363858055111053291e+00 1.571465107147836049e+00 3.470000000000000000e+02
2.254502749677250062e+00 2.669987764192780944e+00 3.470000000000000000e+02
3.145147444243447499e+00 3.768510421237726504e+00 3.470000000000000000e+02
4.035792138809644491e+00 4.867033078282670289e+00 3.470000000000000000e+02
-2.985426436480558277e+00 -4.915731853882459035e+00 3.480000000000000000e+02
-2.094781741914360840e+00 -3.817209196837514362e+00 3.480000000000000000e+02
-1.204137047348164069e+00 -2.718686539792569690e+00 3.480000000000000000e+02
-3.134923527819669653e-01 -1.620163882747624573e+00 3.480000000000000000e+02
5.771523417842301384e-01 -5.216412257026799004e-01 3.480000000000000000e+02
1.467797036350427131e+00 5.768814313422649942e-01 3.480000000000000000e+02
2.358441730916624124e+00 1.675404088387209667e+00 3.480000000000000000e+02
3.249086425482821117e+00 2.773926745432154561e+00 3.480000000000000000e+02
4.139731120049018998e+00 3.872449402477100122e+00 3.480000000000000000e+02
-2.985426436480558277e+00 -4.915731853882459035e+00 3.490000000000000000e+02
-2.094781741914360840e+00 -3.817209196837514362e+00 3.490000000000000000e+02
-1.204137047348164069e+00 -2.718686539792569690e+00 3.490000000000000000e+02
-3.134923527819669653e-01 -1.620163882747624573e+00 3.490000000000000000e+02
5.771523417842301384e-01 -5.216412257026799004e-01 3.490000000000000000e+02
1.467797036350427131e+00 5.768814313422649942e-01 3.490000000000000000e+02
2.358441730916624124e+00 1.675404088387209667e+00 3.490000000000000000e+02
3.249086425482821117e+00 2.773926745432154561e+00 3.490000000000000000e+02
4.139731120049018998e+00 3.872449402477100122e+00 3.490000000000000000e+02
-2.985426436480558277e+00 -4.915731853882459035e+00 3.500000000000000000e+02
-2.094781741914360840e+00 -3.817209196837514362e+00 3.500000000000000000e+02
-1.204137047348164069e+00 -2.718686539792569690e+00 3.500000000000000000e+02
-3.134923527819669653e-01 -1.620163882747624573e+00 3.500000000000000000e+02
5.771523417842301384e-01 -5.216412257026799004e-01 3.500000000000000000e+02
1.467797036350427131e+00 5.768814313422649942e-01 3.500000000000000000e+02
2.358441730916624124e+00 1.675404088387209667e+00 3.500000000000000000e+02
3.249086425482821117e+00 2.773926745432154561e+00 3.500000000000000000e+02
4.139731120049018998e+00 3.872449402477100122e+00 3.500000000000000000e+02
-2.985426436480558277e+00 -4.915731853882459035e+00 3.510000000000000000e+02
-2.094781741914360840e+00 -3.817209196837514362e+00 3.510000000000000000e+02
-1.204137047348164069e+00 -2.718686539792569690e+00 3.510000000000000000e+02
-3.134923527819669653e-01 -1.620163882747624573e+00 3.510000000000000000e+02
5.771523417842301384e-01 -5.216412257026799004e-01 3.510000000000000000e+02
1.467797036350427131e+00 5.768814313422649942e-01 3.510000000000000000e+02
2.358441730916624124e+00 1.675404088387209667e+00 3.510000000000000000e+02
3.249086425482821117e+00 2.773926745432154561e+00 3.510000000000000000e+02
4.139731120049018998e+00 3.872449402477100122e+00 3.510000000000000000e+02
-2.985426436480558277e+00 -4.915731853882459035e+00 3.520000000000000000e+02
-2.094781741914360840e+00 -3.817209196837514362e+00 3.520000000000000000e+02
-1.204137047348164069e+00 -2.718686539792569690e+00 3.520000000000000000e+02
-3.134923527819669653e-01 -1.620163882747624573e+00 3.520000000000000000e+02
5.771523417842301384e-01 -5.216412257026799004e-01 3.520000000000000000e+02
1.467797036350427131e+00 5.768814313422649942e-01 3.520000000000000000e+02
2.358441730916624124e+00 1.675404088387209667e+00 3.520000000000000000e+02
3.249086425482821117e+00 2.773926745432154561e+00 3.520000000000000000e+02
4.139731120049018998e+00 3.872449402477100122e+00 3.520000000000000000e+02
-2.985426436480558277e+00 -4.915731853882459035e+00 3.530000000000000000e+02
-2.094781741914360840e+00 -3.817209196837514362e+00 3.530000000000000000e+02
-1.204137047348164069e+00 -2.718686539792569690e+00 3.530000000000000000e+02
-3.134923527819669653e-01 -1.620163882747624573e+00 3.530000000000000000e+02
5.771523417842301384e-01 -5.216412257026799004e-01 3.530000000000000000e+02
1.467797036350427131e+00 5.768814313422649942e-01 3.530000000000000000e+02
2.358441730916624124e+00 1.675404088387209667e+00 3.530000000000000000e+02
3.249086425482821117e+00 2.773926745432154561e+00 3.530000000000000000e+02
4.139731120049018998e+00 3.872449402477100122e+00 3.530000000000000000e+02
-3.980010112286129331e+00 -5.019670835121832653e+00 3.540000000000000000e+02
-3.089365417719931894e+00 -3.921148178076887980e+00 3.540000000000000000e+02
-2.198720723153734902e+00 -2.822625521031943308e+00 3.540000000000000000e+02
-1.308076028587537909e+00 -1.724102863986998413e+00 3.540000000000000000e+02
-4.174313340213409163e-01 -6.255802069420537403e-01 3.540000000000000000e+02
4.732133605448561875e-01 4.729424501028910433e-01 3.540000000000000000e+02
1.363858055111053291e+00 1.571465107147836049e+00 3.540000000000000000e+02
2.254502749677250062e+00 2.669987764192780944e+00 3.540000000000000000e+02
3.145147444243447499e+00 3.768510421237726504e+00 3.540000000000000000e+02
4.035792138809644491e+00 4.867033078282670289e+00 3.540000000000000000e+02
-2.985426436480558277e+00 -4.915731853882459035e+00 3.550000000000000000e+02
-2.094781741914360840e+00 -3.817209196837514362e+00 3.550000000000000000e+02
-1.204137047348164069e+00 -2.718686539792569690e+00 3.550000000000000000e+02
-3.134923527819669653e-01 -1.620163882747624573e+00 3.550000000000000000e+02
5.771523417842301384e-01 -5.216412257026799004e-01 3.550000000000000000e+02
1.467797036350427131e+00 5.768814313422649942e-01 3.550000000000000000e+02
2.358441730916624124e+00 1.675404088387209667e+00 3.550000000000000000e+02
3.249086425482821117e+00 2.773926745432154561e+00 3.550000000000000000e+02
4.139731120049018998e+00 3.872449402477100122e+00 3.550000000000000000e+02
-2.985426436480558277e+00 -4.915731853882459035e+00 3.560000000000000000e+02
-2.094781741914360840e+00 -3.817209196837514362e+00 3.560000000000000000e+02
-1.204137047348164069e+00 -2.718686539792569690e+00 3.560000000000000000e+02
-3.134923527819669653e-01 -1.620163882747624573e+00 3.560000000000000000e+02
5.771523417842301384e-01 -5.216412257026799004e-01 3.560000000000000000e+02
1.467797036350427131e+00 5.768814313422649942e-01 3.560000000000000000e+02
2.358441730916624124e+00 1.675404088387209667e+00 3.560000000000000000e+02
3.249086425482821117e+00 2.773926745432154561e+00 3.560000000000000000e+02
4.139731120049018998e+00 3.872449402477100122e+00 3.560000000000000000e+02
-2.985426436480558277e+00 -4.915731853882459035e+00 3.570000000000000000e+02
-2.094781741914360840e+00 -3.817209196837514362e+00 3.570000000000000000e+02
-1.204137047348164069e+00 -2.718686539792569690e+00 3.570000000000000000e+02
-3.134923527819669653e-01 -1.620163882747624573e+00 3.570000000000000000e+02
5.771523417842301384e-01 -5.216412257026799004e-01 3.570000000000000000e+02
1.467797036350427131e+00 5.768814313422649942e-01 3.570000000000000000e+02
2.358441730916624124e+00 1.675404088387209667e+00 3.570000000000000000e+02
3.249086425482821117e+00 2.773926745432154561e+00 3.570000000000000000e+02
4.139731120049018998e+00 3.872449402477100122e+00 3.570000000000000000e+02
-2.985426436480558277e+00 -4.915731853882459035e+00 3.580000000000000000e+02
-2.094781741914360840e+00 -3.817209196837514362e+00 3.580000000000000000e+02
-1.204137047348164069e+00 -2.718686539792569690e+00 3.580000000000000000e+02
-3.134923527819669653e-01 -1.620163882747624573e+00 3.580000000000000000e+02
5.771523417842301384e-01 -5.216412257026799004e-01 3.580000000000000000e+02
1.467797036350427131e+00 5.768814313422649942e-01 3.580000000000000000e+02
2.358441730916624124e+00 1.675404088387209667e+00 3.580000000000000000e+02
3.249086425482821117e+00 2.773926745432154561e+00 3.580000000000000000e+02
4.139731120049018998e+00 3.872449402477100122e+00 3.580000000000000000e+02
-3.980010112286129331e+00 -5.019670835121832653e+00 3.590000000000000000e+02
-3.089365417719931894e+00 -3.921148178076887980e+00 3.590000000000000000e+02
-2.198720723153734902e+00 -2.822625521031943308e+00 3.590000000000000000e+02
-1.308076028587537909e+00 -1.724102863986998413e+00 3.590000000000000000e+02
-4.174313340213409163e-01 -6.255802069420537403e-01 3.590000000000000000e+02
4.732133605448561875e-01 4.729424501028910433e-01 3.590000000000000000e+02
1.363858055111053291e+00 1.571465107147836049e+00 3.590000000000000000e+02
2.254502749677250062e+00 2.669987764192780944e+00 3.590000000000000000e+02
3.145147444243447499e+00 3.768510421237726504e+00 3.590000000000000000e+02
4.035792138809644491e+00 4.867033078282670289e+00 3.590000000000000000e+02
-3.980010112286129331e+00 -5.019670835121832653e+00 3.600000000000000000e+02
-3.089365417719931894e+00 -3.921148178076887980e+00 3.600000000000000000e+02
-2.198720723153734902e+00 -2.822625521031943308e+00 3.600000000000000000e+02
-1.308076028587537909e+00 -1.724102863986998413e+00 3.600000000000000000e+02
-4.174313340213409163e-01 -6.255802069420537403e-01 3.600000000000000000e+02
4.732133605448561875e-01 4.729424501028910433e-01 3.600000000000000000e+02
1.363858055111053291e+00 1.571465107147836049e+00 3.600000000000000000e+02
2.254502749677250062e+00 2.669987764192780944e+00 3.600000000000000000e+02
3.145147444243447499e+00 3.768510421237726504e+00 3.600000000000000000e+02
4.035792138809644491e+00 4.867033078282670289e+00 3.600000000000000000e+02
-3.980010112286129331e+00 -5.019670835121832653e+00 3.610000000000000000e+02
-3.089365417719931894e+00 -3.921148178076887980e+00 3.610000000000000000e+02
-2.198720723153734902e+00 -2.822625521031943308e+00 3.610000000000000000e+02
-1.308076028587537909e+00 -1.724102863986998413e+00 3.610000000000000000e+02
-4.174313340213409163e-01 -6.255802069420537403e-01 3.610000000000000000e+02
4.732133605448561875e-01 4.729424501028910433e-01 3.610000000000000000e+02
1.363858055111053291e+00 1.571465107147836049e+00 3.610000000000000000e+02
2.254502749677250062e+00 2.669987764192780944e+00 3.610000000000000000e+02
3.145147444243447499e+00 3.768510421237726504e+00 3.610000000000000000e+02
4.035792138809644491e+00 4.867033078282670289e+00 3.610000000000000000e+02
-3.980010112286129331e+00 -5.019670835121832653e+00 3.620000000000000000e+02
-3.089365417719931894e+00 -3.921148178076887980e+00 3.620000000000000000e+02
-2.198720723153734902e+00 -2.822625521031943308e+00 3.620000000000000000e+02
-1.308076028587537909e+00 -1.724102863986998413e+00 3.620000000000000000e+02
-4.174313340213409163e-01 -6.255802069420537403e-01 3.620000000000000000e+02
4.732133605448561875e-01 4.729424501028910433e-01 3.620000000000000000e+02
1.363858055111053291e+00 1.571465107147836049e+00 3.620000000000000000e+02
2.254502749677250062e+00 2.669987764192780944e+00 3.620000000000000000e+02
3.145147444243447499e+00 3.768510421237726504e+00 3.620000000000000000e+02
4.035792138809644491e+00 4.867033078282670289e+00 3.620000000000000000e+02
-3.980010112286129331e+00 -5.019670835121832653e+00 3.630000000000000000e+02
-3.089365417719931894e+00 -3.921148178076887980e+00 3.630000000000000000e+02
-2.198720723153734902e+00 -2.822625521031943308e+00 3.630000000000000000e+02
-1.308076028587537909e+00 -1.724102863986998413e+00 3.630000000000000000e+02
-4.174313340213409163e-01 -6.255802069420537403e-01 3.630000000000000000e+02
4.732133605448561875e-01 4.729424501028910433e-01 3.630000000000000000e+02
1.363858055111053291e+00 1.571465107147836049e+00 3.630000000000000000e+02
2.254502749677250062e+00 2.669987764192780944e+00 3.630000000000000000e+02
3.145147444243447499e+00 3.768510421237726504e+00 3.630000000000000000e+02
4.035792138809644491e+00 4.867033078282670289e+00 3.630000000000000000e+02
-2.985426436480558277e+00 -4.915731853882459035e+00 3.640000000000000000e+02
-2.094781741914360840e+00 -3.817209196837514362e+00 3.640000000000000000e+02
-1.204137047348164069e+00 -2.718686539792569690e+00 3.640000000000000000e+02
-3.134923527819669653e-01 -1.620163882747624573e+00 3.640000000000000000e+02
5.771523417842301384e-01 -5.216412257026799004e-01 3.640000000000000000e+02
1.467797036350427131e+00 5.768814313422649942e-01 3.640000000000000000e+02
2.358441730916624124e+00 1.675404088387209667e+00 3.640000000000000000e+02
3.249086425482821117e+00 2.773926745432154561e+00 3.640000000000000000e+02
4.139731120049018998e+00 3.872449402477100122e+00 3.640000000000000000e+02
-2.985426436480558277e+00 -4.915731853882459035e+00 3.650000000000000000e+02
-2.094781741914360840e+00 -3.817209196837514362e+00 3.650000000000000000e+02
-1.204137047348164069e+00 -2.718686539792569690e+00 3.650000000000000000e+02
-3.134923527819669653e-01 -1.620163882747624573e+00 3.650000000000000000e+02
5.771523417842301384e-01 -5.216412257026799004e-01 3.650000000000000000e+02
1.467797036350427131e+00 5.768814313422649942e-01 3.650000000000000000e+02
2.358441730916624124e+00 1.675404088387209667e+00 3.650000000000000000e+02
3.249086425482821117e+00 2.773926745432154561e+00 3.650000000000000000e+02
4.139731120049018998e+00 3.872449402477100122e+00 3.650000000000000000e+02
-2.985426436480558277e+00 -4.915731853882459035e+00 3.660000000000000000e+02
-2.094781741914360840e+00 -3.817209196837514362e+00 3.660000000000000000e+02
-1.204137047348164069e+00 -2.718686539792569690e+00 3.660000000000000000e+02
-3.134923527819669653e-01 -1.620163882747624573e+00 3.660000000000000000e+02
5.771523417842301384e-01 -5.216412257026799004e-01 3.660000000000000000e+02
1.467797036350427131e+00 5.768814313422649942e-01 3.660000000000000000e+02
2.358441730916624124e+00 1.675404088387209667e+00 3.660000000000000000e+02
3.249086425482821117e+00 2.773926745432154561e+00 3.660000000000000000e+02
4.139731120049018998e+00 3.872449402477100122e+00 3.660000000000000000e+02
-2.985426436480558277e+00 -4.915731853882459035e+00 3.670000000000000000e+02
-2.094781741914360840e+00 -3.817209196837514362e+00 3.670000000000000000e+02
-1.204137047348164069e+00 -2.718686539792569690e+00 3.670000000000000000e+02
-3.134923527819669653e-01 -1.620163882747624573e+00 3.670000000000000000e+02
5.771523417842301384e-01 -5.216412257026799004e-01 3.670000000000000000e+02
1.467797036350427131e+00 5.768814313422649942e-01 3.670000000000000000e+02
2.358441730916624124e+00 1.675404088387209667e+00 3.670000000000000000e+02
3.249086425482821117e+00 2.773926745432154561e+00 3.670000000000000000e+02
4.139731120049018998e+00 3.872449402477100122e+00 3.670000000000000000e+02
-2.985426436480558277e+00 -4.915731853882459035e+00 3.680000000000000000e+02
-2.094781741914360840e+00 -3.817209196837514362e+00 3.680000000000000000e+02
-1.204137047348164069e+00 -2.718686539792569690e+00 3.680000000000000000e+02
-3.134923527819669653e-01 -1.620163882747624573e+00 3.680000000000000000e+02
5.771523417842301384e-01 -5.216412257026799004e-01 3.680000000000000000e+02
1.467797036350427131e+00 5.768814313422649942e-01 3.680000000000000000e+02
2.358441730916624124e+00 1.675404088387209667e+00 3.680000000000000000e+02
3.249086425482821117e+00 2.773926745432154561e+00 3.680000000000000000e+02
4.139731120049018998e+00 3.872449402477100122e+00 3.680000000000000000e+02
-2.985426436480558277e+00 -4.915731853882459035e+00 3.690000000000000000e+02
-2.094781741914360840e+00 -3.817209196837514362e+00 3.690000000000000000e+02
-1.204137047348164069e+00 -2.718686539792569690e+00 3.690000000000000000e+02
-3.134923527819669653e-01 -1.620163882747624573e+00 3.690000000000000000e+02
5.771523417842301384e-01 -5.216412257026799004e-01 3.690000000000000000e+02
1.467797036350427131e+00 5.768814313422649942e-01 3.690000000000000000e+02
2.358441730916624124e+00 1.675404088387209667e+00 3.690000000000000000e+02
3.249086425482821117e+00 2.773926745432154561e+00 3.690000000000000000e+02
4.139731120049018998e+00 3.872449402477100122e+00 3.690000000000000000e+02
-2.985426436480558277e+00 -4.915731853882459035e+00 3.700000000000000000e+02
-2.094781741914360840e+00 -3.817209196837514362e+00 3.700000000000000000e+02
-1.204137047348164069e+00 -2.718686539792569690e+00 3.700000000000000000e+02
-3.134923527819669653e-01 -1.620163882747624573e+00 3.700000000000000000e+02
5.771523417842301384e-01 -5.216412257026799004e-01 3.700000000000000000e+02
1.467797036350427131e+00 5.768814313422649942e-01 3.700000000000000000e+02
2.358441730916624124e+00 1.675404088387209667e+00 3.700000000000000000e+02
3.249086425482821117e+00 2.773926745432154561e+00 3.700000000000000000e+02
4.139731120049018998e+00 3.872449402477100122e+00 3.700000000000000000e+02
