-9.861126426145279567e+00 3.919117002089561597e-01 3.680000000000000000e+02
1.186058930832489811e+00 2.833160497152018120e+00 3.690000000000000000e+02
-1.948392387897306399e-01 2.528004397534135972e+00 3.690000000000000000e+02
-1.575737408411951979e+00 2.222848297916252935e+00 3.690000000000000000e+02
-2.956635578034173317e+00 1.917692198298370343e+00 3.690000000000000000e+02
-4.337533747656394212e+00 1.612536098680487529e+00 3.690000000000000000e+02
-5.718431917278615551e+00 1.307379999062604714e+00 3.690000000000000000e+02
-7.099330086900836889e+00 1.002223899444721678e+00 3.690000000000000000e+02
-8.480228256523057340e+00 6.970677998268391962e-01 3.690000000000000000e+02
-9.861126426145279567e+00 3.919117002089561597e-01 3.690000000000000000e+02
1.186058930832489811e+00 2.833160497152018120e+00 3.700000000000000000e+02
-1.948392387897306399e-01 2.528004397534135972e+00 3.700000000000000000e+02
-1.575737408411951979e+00 2.222848297916252935e+00 3.700000000000000000e+02
-2.956635578034173317e+00 1.917692198298370343e+00 3.700000000000000000e+02
-4.337533747656394212e+00 1.612536098680487529e+00 3.700000000000000000e+02
-5.718431917278615551e+00 1.307379999062604714e+00 3.700000000000000000e+02
-7.099330086900836889e+00 1.002223899444721678e+00 3.700000000000000000e+02
-8.480228256523057340e+00 6.970677998268391962e-01 3.700000000000000000e+02
-9.861126426145279567e+00 3.919117002089561597e-01 3.700000000000000000e+02
1.186058930832489811e+00 2.833160497152018120e+00 3.710000000000000000e+02
-1.948392387897306399e-01 2.528004397534135972e+00 3.710000000000000000e+02
-1.575737408411951979e+00 2.222848297916252935e+00 3.710000000000000000e+02
-2.956635578034173317e+00 1.917692198298370343e+00 3.710000000000000000e+02
-4.337533747656394212e+00 1.612536098680487529e+00 3.710000000000000000e+02
-5.718431917278615551e+00 1.307379999062604714e+00 3.710000000000000000e+02
-7.099330086900836889e+00 1.002223899444721678e+00 3.710000000000000000e+02
-8.480228256523057340e+00 6.970677998268391962e-01 3.710000000000000000e+02
1.186058930832489811e+00 2.833160497152018120e+00 3.720000000000000000e+02
-1.948392387897306399e-01 2.528004397534135972e+00 3.720000000000000000e+02
-1.575737408411951979e+00 2.222848297916252935e+00 3.720000000000000000e+02
-2.956635578034173317e+00 1.917692198298370343e+00 3.720000000000000000e+02
-4.337533747656394212e+00 1.612536098680487529e+00 3.720000000000000000e+02
-5.718431917278615551e+00 1.307379999062604714e+00 3.720000000000000000e+02
-7.099330086900836889e+00 1.002223899444721678e+00 3.720000000000000000e+02
-8.480228256523057340e+00 6.970677998268391962e-01 3.720000000000000000e+02
2.029086065452541110e+00 2.295289462149848969e+00 3.730000000000000000e+02
6.481878958303206595e-01 1.990133362531966821e+00 3.730000000000000000e+02
-7.327102737918997910e-01 1.684977262914083784e+00 3.730000000000000000e+02
-2.113608443414121130e+00 1.379821163296200970e+00 3.730000000000000000e+02
-3.494506613036342468e+00 1.074665063678318377e+00 3.730000000000000000e+02
-4.875404782658563363e+00 7.695089640604355630e-01 3.730000000000000000e+02
-6.256302952280783813e+00 4.643528644425526375e-01 3.730000000000000000e+02
-7.637201121903006040e+00 1.591967648246700451e-01 3.730000000000000000e+02
-9.018099291525226491e+00 -1.459593347932129914e-01 3.730000000000000000e+02
-1.039899746114744872e+01 -4.511154344110960279e-01 3.730000000000000000e+02
2.029086065452541110e+00 2.295289462149848969e+00 3.740000000000000000e+02
6.481878958303206595e-01 1.990133362531966821e+00 3.740000000000000000e+02
-7.327102737918997910e-01 1.684977262914083784e+00 3.740000000000000000e+02
-2.113608443414121130e+00 1.379821163296200970e+00 3.740000000000000000e+02
-3.494506613036342468e+00 1.074665063678318377e+00 3.740000000000000000e+02
-4.875404782658563363e+00 7.695089640604355630e-01 3.740000000000000000e+02
-6.256302952280783813e+00 4.643528644425526375e-01 3.740000000000000000e+02
-7.637201121903006040e+00 1.591967648246700451e-01 3.740000000000000000e+02
-9.018099291525226491e+00 -1.459593347932129914e-01 3.740000000000000000e+02
-1.039899746114744872e+01 -4.511154344110960279e-01 3.740000000000000000e+02
2.029086065452541110e+00 2.295289462149848969e+00 3.750000000000000000e+02
6.481878958303206595e-01 1.990133362531966821e+00 3.750000000000000000e+02
-7.327102737918997910e-01 1.684977262914083784e+00 3.750000000000000000e+02
-2.113608443414121130e+00 1.379821163296200970e+00 3.750000000000000000e+02
-3.494506613036342468e+00 1.074665063678318377e+00 3.750000000000000000e+02
-4.875404782658563363e+00 7.695089640604355630e-01 3.750000000000000000e+02
-6.256302952280783813e+00 4.643528644425526375e-01 3.750000000000000000e+02
-7.637201121903006040e+00 1.591967648246700451e-01 3.750000000000000000e+02
-9.018099291525226491e+00 -1.459593347932129914e-01 3.750000000000000000e+02
-1.039899746114744872e+01 -4.511154344110960279e-01 3.750000000000000000e+02
1.186058930832489811e+00 2.833160497152018120e+00 3.760000000000000000e+02
-1.948392387897306399e-01 2.528004397534135972e+00 3.760000000000000000e+02
-1.575737408411951979e+00 2.222848297916252935e+00 3.760000000000000000e+02
-2.956635578034173317e+00 1.917692198298370343e+00 3.760000000000000000e+02
-4.337533747656394212e+00 1.612536098680487529e+00 3.760000000000000000e+02
-5.718431917278615551e+00 1.307379999062604714e+00 3.760000000000000000e+02
-7.099330086900836889e+00 1.002223899444721678e+00 3.760000000000000000e+02
-8.480228256523057340e+00 6.970677998268391962e-01 3.760000000000000000e+02
-9.861126426145279567e+00 3.919117002089561597e-01 3.760000000000000000e+02
2.029086065452541110e+00 2.295289462149848969e+00 3.770000000000000000e+02
6.481878958303206595e-01 1.990133362531966821e+00 3.770000000000000000e+02
-7.327102737918997910e-01 1.684977262914083784e+00 3.770000000000000000e+02
-2.113608443414121130e+00 1.379821163296200970e+00 3.770000000000000000e+02
-3.494506613036342468e+00 1.074665063678318377e+00 3.770000000000000000e+02
-4.875404782658563363e+00 7.695089640604355630e-01 3.770000000000000000e+02
-6.256302952280783813e+00 4.643528644425526375e-01 3.770000000000000000e+02
-7.637201121903006040e+00 1.591967648246700451e-01 3.770000000000000000e+02
-9.018099291525226491e+00 -1.459593347932129914e-01 3.770000000000000000e+02
-1.039899746114744872e+01 -4.511154344110960279e-01 3.770000000000000000e+02
1.186058930832489811e+00 2.833160497152018120e+00 3.780000000000000000e+02
-1.948392387897306399e-01 2.528004397534135972e+00 3.780000000000000000e+02
-1.575737408411951979e+00 2.222848297916252935e+00 3.780000000000000000e+02
-2.956635578034173317e+00 1.917692198298370343e+00 3.780000000000000000e+02
-4.337533747656394212e+00 1.612536098680487529e+00 3.780000000000000000e+02
-5.718431917278615551e+00 1.307379999062604714e+00 3.780000000000000000e+02
-7.099330086900836889e+00 1.002223899444721678e+00 3.780000000000000000e+02
-8.480228256523057340e+00 6.970677998268391962e-01 3.780000000000000000e+02
2.029086065452541110e+00 2.295289462149848969e+00 3.790000000000000000e+02
6.481878958303206595e-01 1.990133362531966821e+00 3.790000000000000000e+02
-7.327102737918997910e-01 1.684977262914083784e+00 3.790000000000000000e+02
-2.113608443414121130e+00 1.379821163296200970e+00 3.790000000000000000e+02
-3.494506613036342468e+00 1.074665063678318377e+00 3.790000000000000000e+02
-4.875404782658563363e+00 7.695089640604355630e-01 3.790000000000000000e+02
-6.256302952280783813e+00 4.643528644425526375e-01 3.790000000000000000e+02
-7.637201121903006040e+00 1.591967648246700451e-01 3.790000000000000000e+02
-9.018099291525226491e+00 -1.459593347932129914e-01 3.790000000000000000e+02
1.186058930832489811e+00 2.833160497152018120e+00 3.800000000000000000e+02
-1.948392387897306399e-01 2.528004397534135972e+00 3.800000000000000000e+02
-1.575737408411951979e+00 2.222848297916252935e+00 3.800000000000000000e+02
-2.956635578034173317e+00 1.917692198298370343e+00 3.800000000000000000e+02
-4.337533747656394212e+00 1.612536098680487529e+00 3.800000000000000000e+02
-5.718431917278615551e+00 1.307379999062604714e+00 3.800000000000000000e+02
-7.099330086900836889e+00 1.002223899444721678e+00 3.800000000000000000e+02
-8.480228256523057340e+00 6.970677998268391962e-01 3.800000000000000000e+02
1.186058930832489811e+00 2.833160497152018120e+00 3.810000000000000000e+02
-1.948392387897306399e-01 2.528004397534135972e+00 3.810000000000000000e+02
-1.575737408411951979e+00 2.222848297916252935e+00 3.810000000000000000e+02
-2.956635578034173317e+00 1.917692198298370343e+00 3.810000000000000000e+02
-4.337533747656394212e+00 1.612536098680487529e+00 3.810000000000000000e+02
-5.718431917278615551e+00 1.307379999062604714e+00 3.810000000000000000e+02
-7.099330086900836889e+00 1.002223899444721678e+00 3.810000000000000000e+02
-8.480228256523057340e+00 6.970677998268391962e-01 3.810000000000000000e+02
1.186058930832489811e+00 2.833160497152018120e+00 3.820000000000000000e+02
-1.948392387897306399e-01 2.528004397534135972e+00 3.820000000000000000e+02
-1.575737408411951979e+00 2.222848297916252935e+00 3.820000000000000000e+02
-2.956635578034173317e+00 1.917692198298370343e+00 3.820000000000000000e+02
-4.337533747656394212e+00 1.612536098680487529e+00 3.820000000000000000e+02
-5.718431917278615551e+00 1.307379999062604714e+00 3.820000000000000000e+02
-7.099330086900836889e+00 1.002223899444721678e+00 3.820000000000000000e+02
-8.480228256523057340e+00 6.970677998268391962e-01 3.820000000000000000e+02
-9.861126426145279567e+00 3.919117002089561597e-01 3.820000000000000000e+02
1.186058930832489811e+00 2.833160497152018120e+00 3.830000000000000000e+02
-1.948392387897306399e-01 2.528004397534135972e+00 3.830000000000000000e+02
-1.575737408411951979e+00 2.222848297916252935e+00 3.830000000000000000e+02
-2.956635578034173317e+00 1.917692198298370343e+00 3.830000000000000000e+02
-4.337533747656394212e+00 1.612536098680487529e+00 3.830000000000000000e+02
-5.718431917278615551e+00 1.307379999062604714e+00 3.830000000000000000e+02
-7.099330086900836889e+00 1.002223899444721678e+00 3.830000000000000000e+02
-8.480228256523057340e+00 6.970677998268391962e-01 3.830000000000000000e+02
-9.861126426145279567e+00 3.919117002089561597e-01 3.830000000000000000e+02
2.029086065452541110e+00 2.295289462149848969e+00 3.840000000000000000e+02
6.481878958303206595e-01 1.990133362531966821e+00 3.840000000000000000e+02
-7.327102737918997910e-01 1.684977262914083784e+00 3.840000000000000000e+02
-2.113608443414121130e+00 1.379821163296200970e+00 3.840000000000000000e+02
-3.494506613036342468e+00 1.074665063678318377e+00 3.840000000000000000e+02
-4.875404782658563363e+00 7.695089640604355630e-01 3.840000000000000000e+02
-6.256302952280783813e+00 4.643528644425526375e-01 3.840000000000000000e+02
-7.637201121903006040e+00 1.591967648246700451e-01 3.840000000000000000e+02
-9.018099291525226491e+00 -1.459593347932129914e-01 3.840000000000000000e+02
-1.039899746114744872e+01 -4.511154344110960279e-01 3.840000000000000000e+02
2.029086065452541110e+00 2.295289462149848969e+00 3.850000000000000000e+02
6.481878958303206595e-01 1.990133362531966821e+00 3.850000000000000000e+02
-7.327102737918997910e-01 1.684977262914083784e+00 3.850000000000000000e+02
-2.113608443414121130e+00 1.379821163296200970e+00 3.850000000000000000e+02
-3.494506613036342468e+00 1.074665063678318377e+00 3.850000000000000000e+02
-4.875404782658563363e+00 7.695089640604355630e-01 3.850000000000000000e+02
-6.256302952280783813e+00 4.643528644425526375e-01 3.850000000000000000e+02
-7.637201121903006040e+00 1.591967648246700451e-01 3.850000000000000000e+02
-9.018099291525226491e+00 -1.459593347932129914e-01 3.850000000000000000e+02
-1.039899746114744872e+01 -4.511154344110960279e-01 3.850000000000000000e+02
2.029086065452541110e+00 2.295289462149848969e+00 3.860000000000000000e+02
6.481878958303206595e-01 1.990133362531966821e+00 3.860000000000000000e+02
-7.327102737918997910e-01 1.684977262914083784e+00 3.860000000000000000e+02
-2.113608443414121130e+00 1.379821163296200970e+00 3.860000000000000000e+02
-3.494506613036342468e+00 1.074665063678318377e+00 3.860000000000000000e+02
-4.875404782658563363e+00 7.695089640604355630e-01 3.860000000000000000e+02
-6.256302952280783813e+00 4.643528644425526375e-01 3.860000000000000000e+02
-7.637201121903006040e+00 1.591967648246700451e-01 3.860000000000000000e+02
-9.018099291525226491e+00 -1.459593347932129914e-01 3.860000000000000000e+02
2.029086065452541110e+00 2.295289462149848969e+00 3.870000000000000000e+02
6.481878958303206595e-01 1.990133362531966821e+00 3.870000000000000000e+02
-7.327102737918997910e-01 1.684977262914083784e+00 3.870000000000000000e+02
-2.113608443414121130e+00 1.379821163296200970e+00 3.870000000000000000e+02
-3.494506613036342468e+00 1.074665063678318377e+00 3.870000000000000000e+02
-4.875404782658563363e+00 7.695089640604355630e-01 3.870000000000000000e+02
-6.256302952280783813e+00 4.643528644425526375e-01 3.870000000000000000e+02
-7.637201121903006040e+00 1.591967648246700451e-01 3.870000000000000000e+02
-9.018099291525226491e+00 -1.459593347932129914e-01 3.870000000000000000e+02
2.029086065452541110e+00 2.295289462149848969e+00 3.880000000000000000e+02
6.481878958303206595e-01 1.990133362531966821e+00 3.880000000000000000e+02
-7.327102737918997910e-01 1.684977262914083784e+00 3.880000000000000000e+02
-2.113608443414121130e+00 1.379821163296200970e+00 3.880000000000000000e+02
-3.494506613036342468e+00 1.074665063678318377e+00 3.880000000000000000e+02
-4.875404782658563363e+00 7.695089640604355630e-01 3.880000000000000000e+02
-6.256302952280783813e+00 4.643528644425526375e-01 3.880000000000000000e+02
-7.637201121903006040e+00 1.591967648246700451e-01 3.880000000000000000e+02
-9.018099291525226491e+00 -1.459593347932129914e-01 3.880000000000000000e+02
2.029086065452541110e+00 2.295289462149848969e+00 3.890000000000000000e+02
6.481878958303206595e-01 1.990133362531966821e+00 3.890000000000000000e+02
-7.327102737918997910e-01 1.684977262914083784e+00 3.890000000000000000e+02
-2.113608443414121130e+00 1.379821163296200970e+00 3.890000000000000000e+02
-3.494506613036342468e+00 1.074665063678318377e+00 3.890000000000000000e+02
-4.875404782658563363e+00 7.695089640604355630e-01 3.890000000000000000e+02
-6.256302952280783813e+00 4.643528644425526375e-01 3.890000000000000000e+02
-7.637201121903006040e+00 1.591967648246700451e-01 3.890000000000000000e+02
-9.018099291525226491e+00 -1.459593347932129914e-01 3.890000000000000000e+02
1.186058930832489811e+00 2.833160497152018120e+00 3.900000000000000000e+02
-1.948392387897306399e-01 2.528004397534135972e+00 3.900000000000000000e+02
-1.575737408411951979e+00 2.222848297916252935e+00 3.900000000000000000e+02
-2.956635578034173317e+00 1.917692198298370343e+00 3.900000000000000000e+02
-4.337533747656394212e+00 1.612536098680487529e+00 3.900000000000000000e+02
-5.718431917278615551e+00 1.307379999062604714e+00 3.900000000000000000e+02
-7.099330086900836889e+00 1.002223899444721678e+00 3.900000000000000000e+02
-8.480228256523057340e+00 6.970677998268391962e-01 3.900000000000000000e+02
2.029086065452541110e+00 2.295289462149848969e+00 3.910000000000000000e+02
6.481878958303206595e-01 1.990133362531966821e+00 3.910000000000000000e+02
-7.327102737918997910e-01 1.684977262914083784e+00 3.910000000000000000e+02
-2.113608443414121130e+00 1.379821163296200970e+00 3.910000000000000000e+02
-3.494506613036342468e+00 1.074665063678318377e+00 3.910000000000000000e+02
-4.875404782658563363e+00 7.695089640604355630e-01 3.910000000000000000e+02
-6.256302952280783813e+00 4.643528644425526375e-01 3.910000000000000000e+02
-7.637201121903006040e+00 1.591967648246700451e-01 3.910000000000000000e+02
-9.018099291525226491e+00 -1.459593347932129914e-01 3.910000000000000000e+02
1.186058930832489811e+00 2.833160497152018120e+00 3.920000000000000000e+02
-1.948392387897306399e-01 2.528004397534135972e+00 3.920000000000000000e+02
-1.575737408411951979e+00 2.222848297916252935e+00 3.920000000000000000e+02
-2.956635578034173317e+00 1.917692198298370343e+00 3.920000000000000000e+02
-4.337533747656394212e+00 1.612536098680487529e+00 3.920000000000000000e+02
-5.718431917278615551e+00 1.307379999062604714e+00 3.920000000000000000e+02
-7.099330086900836889e+00 1.002223899444721678e+00 3.920000000000000000e+02
-8.480228256523057340e+00 6.970677998268391962e-01 3.920000000000000000e+02
1.186058930832489811e+00 2.833160497152018120e+00 3.930000000000000000e+02
-1.948392387897306399e-01 2.528004397534135972e+00 3.930000000000000000e+02
-1.575737408411951979e+00 2.222848297916252935e+00 3.930000000000000000e+02
-2.956635578034173317e+00 1.917692198298370343e+00 3.930000000000000000e+02
-4.337533747656394212e+00 1.612536098680487529e+00 3.930000000000000000e+02
-5.718431917278615551e+00 1.307379999062604714e+00 3.930000000000000000e+02
-7.099330086900836889e+00 1.002223899444721678e+00 3.930000000000000000e+02
-8.480228256523057340e+00 6.970677998268391962e-01 3.930000000000000000e+02
1.186058930832489811e+00 2.833160497152018120e+00 3.940000000000000000e+02
-1.948392387897306399e-01 2.528004397534135972e+00 3.940000000000000000e+02
-1.575737408411951979e+00 2.222848297916252935e+00 3.940000000000000000e+02
-2.956635578034173317e+00 1.917692198298370343e+00 3.940000000000000000e+02
-4.337533747656394212e+00 1.612536098680487529e+00 3.940000000000000000e+02
-5.718431917278615551e+00 1.307379999062604714e+00 3.940000000000000000e+02
-7.099330086900836889e+00 1.002223899444721678e+00 3.940000000000000000e+02
-8.480228256523057340e+00 6.970677998268391962e-01 3.940000000000000000e+02
1.186058930832489811e+00 2.833160497152018120e+00 3.950000000000000000e+02
-1.948392387897306399e-01 2.528004397534135972e+00 3.950000000000000000e+02
-1.575737408411951979e+00 2.222848297916252935e+00 3.950000000000000000e+02
-2.956635578034173317e+00 1.917692198298370343e+00 3.950000000000000000e+02
-4.337533747656394212e+00 1.612536098680487529e+00 3.950000000000000000e+02
-5.718431917278615551e+00 1.307379999062604714e+00 3.950000000000000000e+02
-7.099330086900836889e+00 1.002223899444721678e+00 3.950000000000000000e+02
-8.480228256523057340e+00 6.970677998268391962e-01 3.950000000000000000e+02
2.029086065452541110e+00 2.295289462149848969e+00 3.960000000000000000e+02
6.481878958303206595e-01 1.990133362531966821e+00 3.960000000000000000e+02
-7.327102737918997910e-01 1.684977262914083784e+00 3.960000000000000000e+02
-2.113608443414121130e+00 1.379821163296200970e+00 3.960000000000000000e+02
-3.494506613036342468e+00 1.074665063678318377e+00 3.960000000000000000e+02
-4.875404782658563363e+00 7.695089640604355630e-01 3.960000000000000000e+02
-6.256302952280783813e+00 4.643528644425526375e-01 3.960000000000000000e+02
-7.637201121903006040e+00 1.591967648246700451e-01 3.960000000000000000e+02
-9.018099291525226491e+00 -1.459593347932129914e-01 3.960000000000000000e+02
2.029086065452541110e+00 2.295289462149848969e+00 3.970000000000000000e+02
6.481878958303206595e-01 1.990133362531966821e+00 3.970000000000000000e+02
-7.327102737918997910e-01 1.684977262914083784e+00 3.970000000000000000e+02
-2.113608443414121130e+00 1.379821163296200970e+00 3.970000000000000000e+02
-3.494506613036342468e+00 1.074665063678318377e+00 3.970000000000000000e+02
-4.875404782658563363e+00 7.695089640604355630e-01 3.970000000000000000e+02
-6.256302952280783813e+00 4.643528644425526375e-01 3.970000000000000000e+02
-7.637201121903006040e+00 1.591967648246700451e-01 3.970000000000000000e+02
-9.018099291525226491e+00 -1.459593347932129914e-01 3.970000000000000000e+02
2.029086065452541110e+00 2.295289462149848969e+00 3.980000000000000000e+02
6.481878958303206595e-01 1.990133362531966821e+00 3.980000000000000000e+02
-7.327102737918997910e-01 1.684977262914083784e+00 3.980000000000000000e+02
-2.113608443414121130e+00 1.379821163296200970e+00 3.980000000000000000e+02
-3.494506613036342468e+00 1.074665063678318377e+00 3.980000000000000000e+02
-4.875404782658563363e+00 7.695089640604355630e-01 3.980000000000000000e+02
-6.256302952280783813e+00 4.643528644425526375e-01 3.980000000000000000e+02
-7.637201121903006040e+00 1.591967648246700451e-01 3.980000000000000000e+02
-9.018099291525226491e+00 -1.459593347932129914e-01 3.980000000000000000e+02
2.029086065452541110e+00 2.295289462149848969e+00 3.990000000000000000e+02
6.481878958303206595e-01 1.990133362531966821e+00 3.990000000000000000e+02
-7.327102737918997910e-01 1.684977262914083784e+00 3.990000000000000000e+02
-2.113608443414121130e+00 1.379821163296200970e+00 3.990000000000000000e+02
-3.494506613036342468e+00 1.074665063678318377e+00 3.990000000000000000e+02
-4.875404782658563363e+00 7.695089640604355630e-01 3.990000000000000000e+02
-6.256302952280783813e+00 4.643528644425526375e-01 3.990000000000000000e+02
-7.637201121903006040e+00 1.591967648246700451e-01 3.990000000000000000e+02
-9.018099291525226491e+00 -1.459593347932129914e-01 3.990000000000000000e+02
2.029086065452541110e+00 2.295289462149848969e+00 4.000000000000000000e+02
6.481878958303206595e-01 1.990133362531966821e+00 4.000000000000000000e+02
-7.327102737918997910e-01 1.684977262914083784e+00 4.000000000000000000e+02
-2.113608443414121130e+00 1.379821163296200970e+00 4.000000000000000000e+02
-3.494506613036342468e+00 1.074665063678318377e+00 4.000000000000000000e+02
-4.875404782658563363e+00 7.695089640604355630e-01 4.000000000000000000e+02
-6.256302952280783813e+00 4.643528644425526375e-01 4.000000000000000000e+02
-7.637201121903006040e+00 1.591967648246700451e-01 4.000000000000000000e+02
-9.018099291525226491e+00 -1.459593347932129914e-01 4.000000000000000000e+02
2.029086065452541110e+00 2.295289462149848969e+00 4.010000000000000000e+02
6.481878958303206595e-01 1.990133362531966821e+00 4.010000000000000000e+02
-7.327102737918997910e-01 1.684977262914083784e+00 4.010000000000000000e+02
-2.113608443414121130e+00 1.379821163296200970e+00 4.010000000000000000e+02
-3.494506613036342468e+00 1.074665063678318377e+00 4.010000000000000000e+02
-4.875404782658563363e+00 7.695089640604355630e-01 4.010000000000000000e+02
-6.256302952280783813e+00 4.643528644425526375e-01 4.010000000000000000e+02
-7.637201121903006040e+00 1.591967648246700451e-01 4.010000000000000000e+02
-9.018099291525226491e+00 -1.459593347932129914e-01 4.010000000000000000e+02
2.029086065452541110e+00 2.295289462149848969e+00 4.020000000000000000e+02
6.481878958303206595e-01 1.990133362531966821e+00 4.020000000000000000e+02
-7.327102737918997910e-01 1.684977262914083784e+00 4.020000000000000000e+02
-2.113608443414121130e+00 1.379821163296200970e+00 4.020000000000000000e+02
-3.494506613036342468e+00 1.074665063678318377e+00 4.020000000000000000e+02
-4.875404782658563363e+00 7.695089640604355630e-01 4.020000000000000000e+02
-6.256302952280783813e+00 4.643528644425526375e-01 4.020000000000000000e+02
-7.637201121903006040e+00 1.591967648246700451e-01 4.020000000000000000e+02
-9.018099291525226491e+00 -1.459593347932129914e-01 4.020000000000000000e+02
2.029086065452541110e+00 2.295289462149848969e+00 4.030000000000000000e+02
6.481878958303206595e-01 1.990133362531966821e+00 4.030000000000000000e+02
-7.327102737918997910e-01 1.684977262914083784e+00 4.030000000000000000e+02
-2.113608443414121130e+00 1.379821163296200970e+00 4.030000000000000000e+02
-3.494506613036342468e+00 1.074665063678318377e+00 4.030000000000000000e+02
-4.875404782658563363e+00 7.695089640604355630e-01 4.030000000000000000e+02
-6.256302952280783813e+00 4.643528644425526375e-01 4.030000000000000000e+02
-7.637201121903006040e+00 1.591967648246700451e-01 4.030000000000000000e+02
-9.018099291525226491e+00 -1.459593347932129914e-01 4.030000000000000000e+02
2.029086065452541110e+00 2.295289462149848969e+00 4.040000000000000000e+02
6.481878958303206595e-01 1.990133362531966821e+00 4.040000000000000000e+02
-7.327102737918997910e-01 1.684977262914083784e+00 4.040000000000000000e+02
-2.113608443414121130e+00 1.379821163296200970e+00 4.040000000000000000e+02
-3.494506613036342468e+00 1.074665063678318377e+00 4.040000000000000000e+02
-4.875404782658563363e+00 7.695089640604355630e-01 4.040000000000000000e+02
-6.256302952280783813e+00 4.643528644425526375e-01 4.040000000000000000e+02
-7.637201121903006040e+00 1.591967648246700451e-01 4.040000000000000000e+02
-9.018099291525226491e+00 -1.459593347932129914e-01 4.040000000000000000e+02
2.029086065452541110e+00 2.295289462149848969e+00 4.050000000000000000e+02
6.481878958303206595e-01 1.990133362531966821e+00 4.050000000000000000e+02
-7.327102737918997910e-01 1.684977262914083784e+00 4.050000000000000000e+02
-2.113608443414121130e+00 1.379821163296200970e+00 4.050000000000000000e+02
-3.494506613036342468e+00 1.074665063678318377e+00 4.050000000000000000e+02
-4.875404782658563363e+00 7.695089640604355630e-01 4.050000000000000000e+02
-6.256302952280783813e+00 4.643528644425526375e-01 4.050000000000000000e+02
-7.637201121903006040e+00 1.591967648246700451e-01 4.050000000000000000e+02
-9.018099291525226491e+00 -1.459593347932129914e-01 4.050000000000000000e+02
2.029086065452541110e+00 2.295289462149848969e+00 4.060000000000000000e+02
6.481878958303206595e-01 1.990133362531966821e+00 4.060000000000000000e+02
-7.327102737918997910e-01 1.684977262914083784e+00 4.060000000000000000e+02
-2.113608443414121130e+00 1.379821163296200970e+00 4.060000000000000000e+02
-3.494506613036342468e+00 1.074665063678318377e+00 4.060000000000000000e+02
-4.875404782658563363e+00 7.695089640604355630e-01 4.060000000000000000e+02
-6.256302952280783813e+00 4.643528644425526375e-01 4.060000000000000000e+02
-7.637201121903006040e+00 1.591967648246700451e-01 4.060000000000000000e+02
2.029086065452541110e+00 2.295289462149848969e+00 4.070000000000000000e+02
6.481878958303206595e-01 1.990133362531966821e+00 4.070000000000000000e+02
-7.327102737918997910e-01 1.684977262914083784e+00 4.070000000000000000e+02
-2.113608443414121130e+00 1.379821163296200970e+00 4.070000000000000000e+02
-3.494506613036342468e+00 1.074665063678318377e+00 4.070000000000000000e+02
-4.875404782658563363e+00 7.695089640604355630e-01 4.070000000000000000e+02
-6.256302952280783813e+00 4.643528644425526375e-01 4.070000000000000000e+02
-7.637201121903006040e+00 1.591967648246700451e-01 4.070000000000000000e+02
-9.018099291525226491e+00 -1.459593347932129914e-01 4.070000000000000000e+02
2.872113200072593298e+00 1.757418427147679818e+00 4.080000000000000000e+02
1.491215030450372847e+00 1.452262327529797670e+00 4.080000000000000000e+02
1.103168608281515084e-01 1.147106227911914633e+00 4.080000000000000000e+02
-1.270581308794068942e+00 8.419501282940319298e-01 4.080000000000000000e+02
-2.651479478416290725e+00 5.367940286761491153e-01 4.080000000000000000e+02
-4.032377648038512064e+00 2.316379290582664119e-01 4.080000000000000000e+02
-5.413275817660732514e+00 -7.351817055961651359e-02 4.080000000000000000e+02
-6.794173987282952965e+00 -3.786742701774991060e-01 4.080000000000000000e+02
-8.175072156905175191e+00 -6.838303697953821425e-01 4.080000000000000000e+02
-9.555970326527395642e+00 -9.889864694132651790e-01 4.080000000000000000e+02
2.872113200072593298e+00 1.757418427147679818e+00 4.090000000000000000e+02
1.491215030450372847e+00 1.452262327529797670e+00 4.090000000000000000e+02
1.103168608281515084e-01 1.147106227911914633e+00 4.090000000000000000e+02
-1.270581308794068942e+00 8.419501282940319298e-01 4.090000000000000000e+02
-2.651479478416290725e+00 5.367940286761491153e-01 4.090000000000000000e+02
-4.032377648038512064e+00 2.316379290582664119e-01 4.090000000000000000e+02
-5.413275817660732514e+00 -7.351817055961651359e-02 4.090000000000000000e+02
-6.794173987282952965e+00 -3.786742701774991060e-01 4.090000000000000000e+02
-8.175072156905175191e+00 -6.838303697953821425e-01 4.090000000000000000e+02
-9.555970326527395642e+00 -9.889864694132651790e-01 4.090000000000000000e+02
2.872113200072593298e+00 1.757418427147679818e+00 4.100000000000000000e+02
1.491215030450372847e+00 1.452262327529797670e+00 4.100000000000000000e+02
1.103168608281515084e-01 1.147106227911914633e+00 4.100000000000000000e+02
-1.270581308794068942e+00 8.419501282940319298e-01 4.100000000000000000e+02
-2.651479478416290725e+00 5.367940286761491153e-01 4.100000000000000000e+02
-4.032377648038512064e+00 2.316379290582664119e-01 4.100000000000000000e+02
-5.413275817660732514e+00 -7.351817055961651359e-02 4.100000000000000000e+02
-6.794173987282952965e+00 -3.786742701774991060e-01 4.100000000000000000e+02
-8.175072156905175191e+00 -6.838303697953821425e-01 4.100000000000000000e+02
2.872113200072593298e+00 1.757418427147679818e+00 4.110000000000000000e+02
1.491215030450372847e+00 1.452262327529797670e+00 4.110000000000000000e+02
1.103168608281515084e-01 1.147106227911914633e+00 4.110000000000000000e+02
-1.270581308794068942e+00 8.419501282940319298e-01 4.110000000000000000e+02
-2.651479478416290725e+00 5.367940286761491153e-01 4.110000000000000000e+02
-4.032377648038512064e+00 2.316379290582664119e-01 4.110000000000000000e+02
-5.413275817660732514e+00 -7.351817055961651359e-02 4.110000000000000000e+02
-6.794173987282952965e+00 -3.786742701774991060e-01 4.110000000000000000e+02
-8.175072156905175191e+00 -6.838303697953821425e-01 4.110000000000000000e+02
2.872113200072593298e+00 1.757418427147679818e+00 4.120000000000000000e+02
1.491215030450372847e+00 1.452262327529797670e+00 4.120000000000000000e+02
1.103168608281515084e-01 1.147106227911914633e+00 4.120000000000000000e+02
-1.270581308794068942e+00 8.419501282940319298e-01 4.120000000000000000e+02
-2.651479478416290725e+00 5.367940286761491153e-01 4.120000000000000000e+02
-4.032377648038512064e+00 2.316379290582664119e-01 4.120000000000000000e+02
-5.413275817660732514e+00 -7.351817055961651359e-02 4.120000000000000000e+02
-6.794173987282952965e+00 -3.786742701774991060e-01 4.120000000000000000e+02
-8.175072156905175191e+00 -6.838303697953821425e-01 4.120000000000000000e+02
-9.555970326527395642e+00 -9.889864694132651790e-01 4.120000000000000000e+02
2.872113200072593298e+00 1.757418427147679818e+00 4.130000000000000000e+02
1.491215030450372847e+00 1.452262327529797670e+00 4.130000000000000000e+02
1.103168608281515084e-01 1.147106227911914633e+00 4.130000000000000000e+02
-1.270581308794068942e+00 8.419501282940319298e-01 4.130000000000000000e+02
-2.651479478416290725e+00 5.367940286761491153e-01 4.130000000000000000e+02
-4.032377648038512064e+00 2.316379290582664119e-01 4.130000000000000000e+02
-5.413275817660732514e+00 -7.351817055961651359e-02 4.130000000000000000e+02
-6.794173987282952965e+00 -3.786742701774991060e-01 4.130000000000000000e+02
-8.175072156905175191e+00 -6.838303697953821425e-01 4.130000000000000000e+02
2.872113200072593298e+00 1.757418427147679818e+00 4.140000000000000000e+02
1.491215030450372847e+00 1.452262327529797670e+00 4.140000000000000000e+02
1.103168608281515084e-01 1.147106227911914633e+00 4.140000000000000000e+02
-1.270581308794068942e+00 8.419501282940319298e-01 4.140000000000000000e+02
-2.651479478416290725e+00 5.367940286761491153e-01 4.140000000000000000e+02
-4.032377648038512064e+00 2.316379290582664119e-01 4.140000000000000000e+02
-5.413275817660732514e+00 -7.351817055961651359e-02 4.140000000000000000e+02
-6.794173987282952965e+00 -3.786742701774991060e-01 4.140000000000000000e+02
-8.175072156905175191e+00 -6.838303697953821425e-01 4.140000000000000000e+02
2.872113200072593298e+00 1.757418427147679818e+00 4.150000000000000000e+02
1.491215030450372847e+00 1.452262327529797670e+00 4.150000000000000000e+02
1.103168608281515084e-01 1.147106227911914633e+00 4.150000000000000000e+02
-1.270581308794068942e+00 8.419501282940319298e-01 4.150000000000000000e+02
-2.651479478416290725e+00 5.367940286761491153e-01 4.150000000000000000e+02
-4.032377648038512064e+00 2.316379290582664119e-01 4.150000000000000000e+02
-5.413275817660732514e+00 -7.351817055961651359e-02 4.150000000000000000e+02
-6.794173987282952965e+00 -3.786742701774991060e-01 4.150000000000000000e+02
-8.175072156905175191e+00 -6.838303697953821425e-01 4.150000000000000000e+02
3.715140334692645485e+00 1.219547392145510667e+00 4.160000000000000000e+02
2.334242165070424146e+00 9.143912925276286296e-01 4.160000000000000000e+02
9.533439954482036960e-01 6.092351929097455931e-01 4.160000000000000000e+02
-4.275541741740176427e-01 3.040790932918627787e-01 4.160000000000000000e+02
-1.808452343796238315e+00 -1.077006326019924742e-03 4.160000000000000000e+02
-3.189350513418459876e+00 -3.062331059439028502e-01 4.160000000000000000e+02
-4.570248683040681215e+00 -6.113892055617856647e-01 4.160000000000000000e+02
-5.951146852662901665e+00 -9.165453051796682571e-01 4.160000000000000000e+02
-7.332045022285123004e+00 -1.221701404797551405e+00 4.160000000000000000e+02
-8.712943191907344342e+00 -1.526857504415434441e+00 4.160000000000000000e+02
3.715140334692645485e+00 1.219547392145510667e+00 4.170000000000000000e+02
2.334242165070424146e+00 9.143912925276286296e-01 4.170000000000000000e+02
9.533439954482036960e-01 6.092351929097455931e-01 4.170000000000000000e+02
-4.275541741740176427e-01 3.040790932918627787e-01 4.170000000000000000e+02
-1.808452343796238315e+00 -1.077006326019924742e-03 4.170000000000000000e+02
-3.189350513418459876e+00 -3.062331059439028502e-01 4.170000000000000000e+02
-4.570248683040681215e+00 -6.113892055617856647e-01 4.170000000000000000e+02
-5.951146852662901665e+00 -9.165453051796682571e-01 4.170000000000000000e+02
-7.332045022285123004e+00 -1.221701404797551405e+00 4.170000000000000000e+02
-8.712943191907344342e+00 -1.526857504415434441e+00 4.170000000000000000e+02
3.715140334692645485e+00 1.219547392145510667e+00 4.180000000000000000e+02
2.334242165070424146e+00 9.143912925276286296e-01 4.180000000000000000e+02
9.533439954482036960e-01 6.092351929097455931e-01 4.180000000000000000e+02
-4.275541741740176427e-01 3.040790932918627787e-01 4.180000000000000000e+02
-1.808452343796238315e+00 -1.077006326019924742e-03 4.180000000000000000e+02
-3.189350513418459876e+00 -3.062331059439028502e-01 4.180000000000000000e+02
-4.570248683040681215e+00 -6.113892055617856647e-01 4.180000000000000000e+02
-5.951146852662901665e+00 -9.165453051796682571e-01 4.180000000000000000e+02
-7.332045022285123004e+00 -1.221701404797551405e+00 4.180000000000000000e+02
-8.712943191907344342e+00 -1.526857504415434441e+00 4.180000000000000000e+02
3.715140334692645485e+00 1.219547392145510667e+00 4.190000000000000000e+02
2.334242165070424146e+00 9.143912925276286296e-01 4.190000000000000000e+02
9.533439954482036960e-01 6.092351929097455931e-01 4.190000000000000000e+02
-4.275541741740176427e-01 3.040790932918627787e-01 4.190000000000000000e+02
-1.808452343796238315e+00 -1.077006326019924742e-03 4.190000000000000000e+02
-3.189350513418459876e+00 -3.062331059439028502e-01 4.190000000000000000e+02
-4.570248683040681215e+00 -6.113892055617856647e-01 4.190000000000000000e+02
-5.951146852662901665e+00 -9.165453051796682571e-01 4.190000000000000000e+02
-7.332045022285123004e+00 -1.221701404797551405e+00 4.190000000000000000e+02
3.715140334692645485e+00 1.219547392145510667e+00 4.200000000000000000e+02
2.334242165070424146e+00 9.143912925276286296e-01 4.200000000000000000e+02
9.533439954482036960e-01 6.092351929097455931e-01 4.200000000000000000e+02
-4.275541741740176427e-01 3.040790932918627787e-01 4.200000000000000000e+02
-1.808452343796238315e+00 -1.077006326019924742e-03 4.200000000000000000e+02
-3.189350513418459876e+00 -3.062331059439028502e-01 4.200000000000000000e+02
-4.570248683040681215e+00 -6.113892055617856647e-01 4.200000000000000000e+02
-5.951146852662901665e+00 -9.165453051796682571e-01 4.200000000000000000e+02
-7.332045022285123004e+00 -1.221701404797551405e+00 4.200000000000000000e+02
3.715140334692645485e+00 1.219547392145510667e+00 4.210000000000000000e+02
2.334242165070424146e+00 9.143912925276286296e-01 4.210000000000000000e+02
9.533439954482036960e-01 6.092351929097455931e-01 4.210000000000000000e+02
-4.275541741740176427e-01 3.040790932918627787e-01 4.210000000000000000e+02
-1.808452343796238315e+00 -1.077006326019924742e-03 4.210000000000000000e+02
-3.189350513418459876e+00 -3.062331059439028502e-01 4.210000000000000000e+02
-4.570248683040681215e+00 -6.113892055617856647e-01 4.210000000000000000e+02
-5.951146852662901665e+00 -9.165453051796682571e-01 4.210000000000000000e+02
-7.332045022285123004e+00 -1.221701404797551405e+00 4.210000000000000000e+02
-8.712943191907344342e+00 -1.526857504415434441e+00 4.210000000000000000e+02
3.715140334692645485e+00 1.219547392145510667e+00 4.220000000000000000e+02
2.334242165070424146e+00 9.143912925276286296e-01 4.220000000000000000e+02
9.533439954482036960e-01 6.092351929097455931e-01 4.220000000000000000e+02
-4.275541741740176427e-01 3.040790932918627787e-01 4.220000000000000000e+02
-1.808452343796238315e+00 -1.077006326019924742e-03 4.220000000000000000e+02
-3.189350513418459876e+00 -3.062331059439028502e-01 4.220000000000000000e+02
-4.570248683040681215e+00 -6.113892055617856647e-01 4.220000000000000000e+02
-5.951146852662901665e+00 -9.165453051796682571e-01 4.220000000000000000e+02
-7.332045022285123004e+00 -1.221701404797551405e+00 4.220000000000000000e+02
-8.712943191907344342e+00 -1.526857504415434441e+00 4.220000000000000000e+02
3.715140334692645485e+00 1.219547392145510667e+00 4.230000000000000000e+02
2.334242165070424146e+00 9.143912925276286296e-01 4.230000000000000000e+02
9.533439954482036960e-01 6.092351929097455931e-01 4.230000000000000000e+02
-4.275541741740176427e-01 3.040790932918627787e-01 4.230000000000000000e+02
-1.808452343796238315e+00 -1.077006326019924742e-03 4.230000000000000000e+02
-3.189350513418459876e+00 -3.062331059439028502e-01 4.230000000000000000e+02
-4.570248683040681215e+00 -6.113892055617856647e-01 4.230000000000000000e+02
-5.951146852662901665e+00 -9.165453051796682571e-01 4.230000000000000000e+02
-7.332045022285123004e+00 -1.221701404797551405e+00 4.230000000000000000e+02
-8.712943191907344342e+00 -1.526857504415434441e+00 4.230000000000000000e+02
3.715140334692645485e+00 1.219547392145510667e+00 4.240000000000000000e+02
2.334242165070424146e+00 9.143912925276286296e-01 4.240000000000000000e+02
9.533439954482036960e-01 6.092351929097455931e-01 4.240000000000000000e+02
-4.275541741740176427e-01 3.040790932918627787e-01 4.240000000000000000e+02
-1.808452343796238315e+00 -1.077006326019924742e-03 4.240000000000000000e+02
-3.189350513418459876e+00 -3.062331059439028502e-01 4.240000000000000000e+02
-4.570248683040681215e+00 -6.113892055617856647e-01 4.240000000000000000e+02
-5.951146852662901665e+00 -9.165453051796682571e-01 4.240000000000000000e+02
-7.332045022285123004e+00 -1.221701404797551405e+00 4.240000000000000000e+02
-8.712943191907344342e+00 -1.526857504415434441e+00 4.240000000000000000e+02
3.715140334692645485e+00 1.219547392145510667e+00 4.250000000000000000e+02
2.334242165070424146e+00 9.143912925276286296e-01 4.250000000000000000e+02
9.533439954482036960e-01 6.092351929097455931e-01 4.250000000000000000e+02
-4.275541741740176427e-01 3.040790932918627787e-01 4.250000000000000000e+02
-1.808452343796238315e+00 -1.077006326019924742e-03 4.250000000000000000e+02
-3.189350513418459876e+00 -3.062331059439028502e-01 4.250000000000000000e+02
-4.570248683040681215e+00 -6.113892055617856647e-01 4.250000000000000000e+02
-5.951146852662901665e+00 -9.165453051796682571e-01 4.250000000000000000e+02
-7.332045022285123004e+00 -1.221701404797551405e+00 4.250000000000000000e+02
-8.712943191907344342e+00 -1.526857504415434441e+00 4.250000000000000000e+02
3.715140334692645485e+00 1.219547392145510667e+00 4.260000000000000000e+02
2.334242165070424146e+00 9.143912925276286296e-01 4.260000000000000000e+02
9.533439954482036960e-01 6.092351929097455931e-01 4.260000000000000000e+02
-4.275541741740176427e-01 3.040790932918627787e-01 4.260000000000000000e+02
-1.808452343796238315e+00 -1.077006326019924742e-03 4.260000000000000000e+02
-3.189350513418459876e+00 -3.062331059439028502e-01 4.260000000000000000e+02
-4.570248683040681215e+00 -6.113892055617856647e-01 4.260000000000000000e+02
-5.951146852662901665e+00 -9.165453051796682571e-01 4.260000000000000000e+02
-7.332045022285123004e+00 -1.221701404797551405e+00 4.260000000000000000e+02
3.715140334692645485e+00 1.219547392145510667e+00 4.270000000000000000e+02
2.334242165070424146e+00 9.143912925276286296e-01 4.270000000000000000e+02
9.533439954482036960e-01 6.092351929097455931e-01 4.270000000000000000e+02
-4.275541741740176427e-01 3.040790932918627787e-01 4.270000000000000000e+02
-1.808452343796238315e+00 -1.077006326019924742e-03 4.270000000000000000e+02
-3.189350513418459876e+00 -3.062331059439028502e-01 4.270000000000000000e+02
-4.570248683040681215e+00 -6.113892055617856647e-01 4.270000000000000000e+02
-5.951146852662901665e+00 -9.165453051796682571e-01 4.270000000000000000e+02
-7.332045022285123004e+00 -1.221701404797551405e+00 4.270000000000000000e+02
3.715140334692645485e+00 1.219547392145510667e+00 4.280000000000000000e+02
2.334242165070424146e+00 9.143912925276286296e-01 4.280000000000000000e+02
9.533439954482036960e-01 6.092351929097455931e-01 4.280000000000000000e+02
-4.275541741740176427e-01 3.040790932918627787e-01 4.280000000000000000e+02
-1.808452343796238315e+00 -1.077006326019924742e-03 4.280000000000000000e+02
-3.189350513418459876e+00 -3.062331059439028502e-01 4.280000000000000000e+02
-4.570248683040681215e+00 -6.113892055617856647e-01 4.280000000000000000e+02
-5.951146852662901665e+00 -9.165453051796682571e-01 4.280000000000000000e+02
-7.332045022285123004e+00 -1.221701404797551405e+00 4.280000000000000000e+02
-8.712943191907344342e+00 -1.526857504415434441e+00 4.280000000000000000e+02
4.558167469312696340e+00 6.816763571433416269e-01 4.290000000000000000e+02
3.177269299690476334e+00 3.765202575254594786e-01 4.290000000000000000e+02
1.796371130068254995e+00 7.136415790757644206e-02 4.290000000000000000e+02
4.154729604460345449e-01 -2.337919417103063724e-01 4.290000000000000000e+02
-9.654252091761867938e-01 -5.389480413281891868e-01 4.290000000000000000e+02
-2.346323378798407688e+00 -8.441041409460717793e-01 4.290000000000000000e+02
-3.727221548420628583e+00 -1.149260240563954927e+00 4.290000000000000000e+02
-5.108119718042850366e+00 -1.454416340181837519e+00 4.290000000000000000e+02
-6.489017887665070816e+00 -1.759572439799720556e+00 4.290000000000000000e+02
-7.869916057287293043e+00 -2.064728539417603592e+00 4.290000000000000000e+02
-9.250814226909513494e+00 -2.369884639035486185e+00 4.290000000000000000e+02
4.558167469312696340e+00 6.816763571433416269e-01 4.300000000000000000e+02
3.177269299690476334e+00 3.765202575254594786e-01 4.300000000000000000e+02
1.796371130068254995e+00 7.136415790757644206e-02 4.300000000000000000e+02
4.154729604460345449e-01 -2.337919417103063724e-01 4.300000000000000000e+02
-9.654252091761867938e-01 -5.389480413281891868e-01 4.300000000000000000e+02
-2.346323378798407688e+00 -8.441041409460717793e-01 4.300000000000000000e+02
-3.727221548420628583e+00 -1.149260240563954927e+00 4.300000000000000000e+02
-5.108119718042850366e+00 -1.454416340181837519e+00 4.300000000000000000e+02
-6.489017887665070816e+00 -1.759572439799720556e+00 4.300000000000000000e+02
-7.869916057287293043e+00 -2.064728539417603592e+00 4.300000000000000000e+02
-9.250814226909513494e+00 -2.369884639035486185e+00 4.300000000000000000e+02
4.558167469312696340e+00 6.816763571433416269e-01 4.310000000000000000e+02
3.177269299690476334e+00 3.765202575254594786e-01 4.310000000000000000e+02
1.796371130068254995e+00 7.136415790757644206e-02 4.310000000000000000e+02
4.154729604460345449e-01 -2.337919417103063724e-01 4.310000000000000000e+02
-9.654252091761867938e-01 -5.389480413281891868e-01 4.310000000000000000e+02
-2.346323378798407688e+00 -8.441041409460717793e-01 4.310000000000000000e+02
-3.727221548420628583e+00 -1.149260240563954927e+00 4.310000000000000000e+02
-5.108119718042850366e+00 -1.454416340181837519e+00 4.310000000000000000e+02
-6.489017887665070816e+00 -1.759572439799720556e+00 4.310000000000000000e+02
-7.869916057287293043e+00 -2.064728539417603592e+00 4.310000000000000000e+02
4.558167469312696340e+00 6.816763571433416269e-01 4.320000000000000000e+02
3.177269299690476334e+00 3.765202575254594786e-01 4.320000000000000000e+02
1.796371130068254995e+00 7.136415790757644206e-02 4.320000000000000000e+02
4.154729604460345449e-01 -2.337919417103063724e-01 4.320000000000000000e+02
-9.654252091761867938e-01 -5.389480413281891868e-01 4.320000000000000000e+02
-2.346323378798407688e+00 -8.441041409460717793e-01 4.320000000000000000e+02
-3.727221548420628583e+00 -1.149260240563954927e+00 4.320000000000000000e+02
-5.108119718042850366e+00 -1.454416340181837519e+00 4.320000000000000000e+02
-6.489017887665070816e+00 -1.759572439799720556e+00 4.320000000000000000e+02
-7.869916057287293043e+00 -2.064728539417603592e+00 4.320000000000000000e+02
4.558167469312696340e+00 6.816763571433416269e-01 4.330000000000000000e+02
3.177269299690476334e+00 3.765202575254594786e-01 4.330000000000000000e+02
1.796371130068254995e+00 7.136415790757644206e-02 4.330000000000000000e+02
4.154729604460345449e-01 -2.337919417103063724e-01 4.330000000000000000e+02
-9.654252091761867938e-01 -5.389480413281891868e-01 4.330000000000000000e+02
-2.346323378798407688e+00 -8.441041409460717793e-01 4.330000000000000000e+02
-3.727221548420628583e+00 -1.149260240563954927e+00 4.330000000000000000e+02
-5.108119718042850366e+00 -1.454416340181837519e+00 4.330000000000000000e+02
-6.489017887665070816e+00 -1.759572439799720556e+00 4.330000000000000000e+02
-7.869916057287293043e+00 -2.064728539417603592e+00 4.330000000000000000e+02
4.558167469312696340e+00 6.816763571433416269e-01 4.340000000000000000e+02
3.177269299690476334e+00 3.765202575254594786e-01 4.340000000000000000e+02
1.796371130068254995e+00 7.136415790757644206e-02 4.340000000000000000e+02
4.154729604460345449e-01 -2.337919417103063724e-01 4.340000000000000000e+02
-9.654252091761867938e-01 -5.389480413281891868e-01 4.340000000000000000e+02
-2.346323378798407688e+00 -8.441041409460717793e-01 4.340000000000000000e+02
-3.727221548420628583e+00 -1.149260240563954927e+00 4.340000000000000000e+02
-5.108119718042850366e+00 -1.454416340181837519e+00 4.340000000000000000e+02
-6.489017887665070816e+00 -1.759572439799720556e+00 4.340000000000000000e+02
4.558167469312696340e+00 6.816763571433416269e-01 4.350000000000000000e+02
3.177269299690476334e+00 3.765202575254594786e-01 4.350000000000000000e+02
1.796371130068254995e+00 7.136415790757644206e-02 4.350000000000000000e+02
4.154729604460345449e-01 -2.337919417103063724e-01 4.350000000000000000e+02
-9.654252091761867938e-01 -5.389480413281891868e-01 4.350000000000000000e+02
-2.346323378798407688e+00 -8.441041409460717793e-01 4.350000000000000000e+02
-3.727221548420628583e+00 -1.149260240563954927e+00 4.350000000000000000e+02
-5.108119718042850366e+00 -1.454416340181837519e+00 4.350000000000000000e+02
-6.489017887665070816e+00 -1.759572439799720556e+00 4.350000000000000000e+02
5.401194603932747640e+00 1.438053221411724758e-01 4.360000000000000000e+02
4.020296434310528966e+00 -1.613507774767096725e-01 4.360000000000000000e+02
2.639398264688307183e+00 -4.665068770945927090e-01 4.360000000000000000e+02
1.258500095066085844e+00 -7.716629767124755235e-01 4.360000000000000000e+02
-1.223980745561350503e-01 -1.076819076330358449e+00 4.360000000000000000e+02
-1.503296244178355945e+00 -1.381975175948241041e+00 4.360000000000000000e+02
-2.884194413800576839e+00 -1.687131275566124078e+00 4.360000000000000000e+02
-4.265092583422798178e+00 -1.992287375184006670e+00 4.360000000000000000e+02
-5.645990753045019517e+00 -2.297443474801889707e+00 4.360000000000000000e+02
-7.026888922667239967e+00 -2.602599574419772743e+00 4.360000000000000000e+02
5.401194603932747640e+00 1.438053221411724758e-01 4.370000000000000000e+02
4.020296434310528966e+00 -1.613507774767096725e-01 4.370000000000000000e+02
2.639398264688307183e+00 -4.665068770945927090e-01 4.370000000000000000e+02
