5.034967507500383022e+00 -4.486093905689843453e+00 3.360000000000000000e+02
5.585558605426692580e+00 -3.183462168442397378e+00 3.360000000000000000e+02
6.136149703353002138e+00 -1.880830431194950414e+00 3.360000000000000000e+02
6.686740801279312585e+00 -5.781986939475043386e-01 3.360000000000000000e+02
2.832603115795143456e+00 -9.696620854679629531e+00 3.370000000000000000e+02
3.383194213721453458e+00 -8.393989117432184344e+00 3.370000000000000000e+02
3.933785311647763017e+00 -7.091357380184737380e+00 3.370000000000000000e+02
4.484376409574073463e+00 -5.788725642937290417e+00 3.370000000000000000e+02
5.034967507500383022e+00 -4.486093905689843453e+00 3.370000000000000000e+02
5.585558605426692580e+00 -3.183462168442397378e+00 3.370000000000000000e+02
6.136149703353002138e+00 -1.880830431194950414e+00 3.370000000000000000e+02
6.686740801279312585e+00 -5.781986939475043386e-01 3.370000000000000000e+02
2.832603115795143456e+00 -9.696620854679629531e+00 3.380000000000000000e+02
3.383194213721453458e+00 -8.393989117432184344e+00 3.380000000000000000e+02
3.933785311647763017e+00 -7.091357380184737380e+00 3.380000000000000000e+02
4.484376409574073463e+00 -5.788725642937290417e+00 3.380000000000000000e+02
5.034967507500383022e+00 -4.486093905689843453e+00 3.380000000000000000e+02
5.585558605426692580e+00 -3.183462168442397378e+00 3.380000000000000000e+02
6.136149703353002138e+00 -1.880830431194950414e+00 3.380000000000000000e+02
6.686740801279312585e+00 -5.781986939475043386e-01 3.380000000000000000e+02
2.832603115795143456e+00 -9.696620854679629531e+00 3.390000000000000000e+02
3.383194213721453458e+00 -8.393989117432184344e+00 3.390000000000000000e+02
3.933785311647763017e+00 -7.091357380184737380e+00 3.390000000000000000e+02
4.484376409574073463e+00 -5.788725642937290417e+00 3.390000000000000000e+02
5.034967507500383022e+00 -4.486093905689843453e+00 3.390000000000000000e+02
5.585558605426692580e+00 -3.183462168442397378e+00 3.390000000000000000e+02
6.136149703353002138e+00 -1.880830431194950414e+00 3.390000000000000000e+02
6.686740801279312585e+00 -5.781986939475043386e-01 3.390000000000000000e+02
2.832603115795143456e+00 -9.696620854679629531e+00 3.400000000000000000e+02
3.383194213721453458e+00 -8.393989117432184344e+00 3.400000000000000000e+02
3.933785311647763017e+00 -7.091357380184737380e+00 3.400000000000000000e+02
4.484376409574073463e+00 -5.788725642937290417e+00 3.400000000000000000e+02
5.034967507500383022e+00 -4.486093905689843453e+00 3.400000000000000000e+02
5.585558605426692580e+00 -3.183462168442397378e+00 3.400000000000000000e+02
6.136149703353002138e+00 -1.880830431194950414e+00 3.400000000000000000e+02
6.686740801279312585e+00 -5.781986939475043386e-01 3.400000000000000000e+02
2.832603115795143456e+00 -9.696620854679629531e+00 3.410000000000000000e+02
3.383194213721453458e+00 -8.393989117432184344e+00 3.410000000000000000e+02
3.933785311647763017e+00 -7.091357380184737380e+00 3.410000000000000000e+02
4.484376409574073463e+00 -5.788725642937290417e+00 3.410000000000000000e+02
5.034967507500383022e+00 -4.486093905689843453e+00 3.410000000000000000e+02
5.585558605426692580e+00 -3.183462168442397378e+00 3.410000000000000000e+02
6.136149703353002138e+00 -1.880830431194950414e+00 3.410000000000000000e+02
6.686740801279312585e+00 -5.781986939475043386e-01 3.410000000000000000e+02
2.832603115795143456e+00 -9.696620854679629531e+00 3.420000000000000000e+02
3.383194213721453458e+00 -8.393989117432184344e+00 3.420000000000000000e+02
3.933785311647763017e+00 -7.091357380184737380e+00 3.420000000000000000e+02
4.484376409574073463e+00 -5.788725642937290417e+00 3.420000000000000000e+02
5.034967507500383022e+00 -4.486093905689843453e+00 3.420000000000000000e+02
5.585558605426692580e+00 -3.183462168442397378e+00 3.420000000000000000e+02
6.136149703353002138e+00 -1.880830431194950414e+00 3.420000000000000000e+02
6.686740801279312585e+00 -5.781986939475043386e-01 3.420000000000000000e+02
2.832603115795143456e+00 -9.696620854679629531e+00 3.430000000000000000e+02
3.383194213721453458e+00 -8.393989117432184344e+00 3.430000000000000000e+02
3.933785311647763017e+00 -7.091357380184737380e+00 3.430000000000000000e+02
4.484376409574073463e+00 -5.788725642937290417e+00 3.430000000000000000e+02
5.034967507500383022e+00 -4.486093905689843453e+00 3.430000000000000000e+02
5.585558605426692580e+00 -3.183462168442397378e+00 3.430000000000000000e+02
6.136149703353002138e+00 -1.880830431194950414e+00 3.430000000000000000e+02
6.686740801279312585e+00 -5.781986939475043386e-01 3.430000000000000000e+02
2.832603115795143456e+00 -9.696620854679629531e+00 3.440000000000000000e+02
3.383194213721453458e+00 -8.393989117432184344e+00 3.440000000000000000e+02
3.933785311647763017e+00 -7.091357380184737380e+00 3.440000000000000000e+02
4.484376409574073463e+00 -5.788725642937290417e+00 3.440000000000000000e+02
5.034967507500383022e+00 -4.486093905689843453e+00 3.440000000000000000e+02
5.585558605426692580e+00 -3.183462168442397378e+00 3.440000000000000000e+02
6.136149703353002138e+00 -1.880830431194950414e+00 3.440000000000000000e+02
6.686740801279312585e+00 -5.781986939475043386e-01 3.440000000000000000e+02
2.832603115795143456e+00 -9.696620854679629531e+00 3.450000000000000000e+02
3.383194213721453458e+00 -8.393989117432184344e+00 3.450000000000000000e+02
3.933785311647763017e+00 -7.091357380184737380e+00 3.450000000000000000e+02
4.484376409574073463e+00 -5.788725642937290417e+00 3.450000000000000000e+02
5.034967507500383022e+00 -4.486093905689843453e+00 3.450000000000000000e+02
5.585558605426692580e+00 -3.183462168442397378e+00 3.450000000000000000e+02
6.136149703353002138e+00 -1.880830431194950414e+00 3.450000000000000000e+02
6.686740801279312585e+00 -5.781986939475043386e-01 3.450000000000000000e+02
2.832603115795143456e+00 -9.696620854679629531e+00 3.460000000000000000e+02
3.383194213721453458e+00 -8.393989117432184344e+00 3.460000000000000000e+02
3.933785311647763017e+00 -7.091357380184737380e+00 3.460000000000000000e+02
4.484376409574073463e+00 -5.788725642937290417e+00 3.460000000000000000e+02
5.034967507500383022e+00 -4.486093905689843453e+00 3.460000000000000000e+02
5.585558605426692580e+00 -3.183462168442397378e+00 3.460000000000000000e+02
6.136149703353002138e+00 -1.880830431194950414e+00 3.460000000000000000e+02
6.686740801279312585e+00 -5.781986939475043386e-01 3.460000000000000000e+02
3.759214533382021717e+00 -9.320600535019060828e+00 3.470000000000000000e+02
4.309805631308331719e+00 -8.017968797771615641e+00 3.470000000000000000e+02
4.860396729234641278e+00 -6.715337060524168677e+00 3.470000000000000000e+02
5.410987827160951724e+00 -5.412705323276721714e+00 3.470000000000000000e+02
5.961578925087261283e+00 -4.110073586029275639e+00 3.470000000000000000e+02
6.512170023013570841e+00 -2.807441848781828675e+00 3.470000000000000000e+02
7.062761120939880399e+00 -1.504810111534382600e+00 3.470000000000000000e+02
3.759214533382021717e+00 -9.320600535019060828e+00 3.480000000000000000e+02
4.309805631308331719e+00 -8.017968797771615641e+00 3.480000000000000000e+02
4.860396729234641278e+00 -6.715337060524168677e+00 3.480000000000000000e+02
5.410987827160951724e+00 -5.412705323276721714e+00 3.480000000000000000e+02
5.961578925087261283e+00 -4.110073586029275639e+00 3.480000000000000000e+02
6.512170023013570841e+00 -2.807441848781828675e+00 3.480000000000000000e+02
7.062761120939880399e+00 -1.504810111534382600e+00 3.480000000000000000e+02
2.832603115795143456e+00 -9.696620854679629531e+00 3.490000000000000000e+02
3.383194213721453458e+00 -8.393989117432184344e+00 3.490000000000000000e+02
3.933785311647763017e+00 -7.091357380184737380e+00 3.490000000000000000e+02
4.484376409574073463e+00 -5.788725642937290417e+00 3.490000000000000000e+02
5.034967507500383022e+00 -4.486093905689843453e+00 3.490000000000000000e+02
5.585558605426692580e+00 -3.183462168442397378e+00 3.490000000000000000e+02
6.136149703353002138e+00 -1.880830431194950414e+00 3.490000000000000000e+02
6.686740801279312585e+00 -5.781986939475043386e-01 3.490000000000000000e+02
2.832603115795143456e+00 -9.696620854679629531e+00 3.500000000000000000e+02
3.383194213721453458e+00 -8.393989117432184344e+00 3.500000000000000000e+02
3.933785311647763017e+00 -7.091357380184737380e+00 3.500000000000000000e+02
4.484376409574073463e+00 -5.788725642937290417e+00 3.500000000000000000e+02
5.034967507500383022e+00 -4.486093905689843453e+00 3.500000000000000000e+02
5.585558605426692580e+00 -3.183462168442397378e+00 3.500000000000000000e+02
6.136149703353002138e+00 -1.880830431194950414e+00 3.500000000000000000e+02
6.686740801279312585e+00 -5.781986939475043386e-01 3.500000000000000000e+02
2.832603115795143456e+00 -9.696620854679629531e+00 3.510000000000000000e+02
3.383194213721453458e+00 -8.393989117432184344e+00 3.510000000000000000e+02
3.933785311647763017e+00 -7.091357380184737380e+00 3.510000000000000000e+02
4.484376409574073463e+00 -5.788725642937290417e+00 3.510000000000000000e+02
5.034967507500383022e+00 -4.486093905689843453e+00 3.510000000000000000e+02
5.585558605426692580e+00 -3.183462168442397378e+00 3.510000000000000000e+02
6.136149703353002138e+00 -1.880830431194950414e+00 3.510000000000000000e+02
6.686740801279312585e+00 -5.781986939475043386e-01 3.510000000000000000e+02
2.832603115795143456e+00 -9.696620854679629531e+00 3.520000000000000000e+02
3.383194213721453458e+00 -8.393989117432184344e+00 3.520000000000000000e+02
3.933785311647763017e+00 -7.091357380184737380e+00 3.520000000000000000e+02
4.484376409574073463e+00 -5.788725642937290417e+00 3.520000000000000000e+02
5.034967507500383022e+00 -4.486093905689843453e+00 3.520000000000000000e+02
5.585558605426692580e+00 -3.183462168442397378e+00 3.520000000000000000e+02
6.136149703353002138e+00 -1.880830431194950414e+00 3.520000000000000000e+02
6.686740801279312585e+00 -5.781986939475043386e-01 3.520000000000000000e+02
2.832603115795143456e+00 -9.696620854679629531e+00 3.530000000000000000e+02
3.383194213721453458e+00 -8.393989117432184344e+00 3.530000000000000000e+02
3.933785311647763017e+00 -7.091357380184737380e+00 3.530000000000000000e+02
4.484376409574073463e+00 -5.788725642937290417e+00 3.530000000000000000e+02
5.034967507500383022e+00 -4.486093905689843453e+00 3.530000000000000000e+02
5.585558605426692580e+00 -3.183462168442397378e+00 3.530000000000000000e+02
6.136149703353002138e+00 -1.880830431194950414e+00 3.530000000000000000e+02
6.686740801279312585e+00 -5.781986939475043386e-01 3.530000000000000000e+02
2.832603115795143456e+00 -9.696620854679629531e+00 3.540000000000000000e+02
3.383194213721453458e+00 -8.393989117432184344e+00 3.540000000000000000e+02
3.933785311647763017e+00 -7.091357380184737380e+00 3.540000000000000000e+02
4.484376409574073463e+00 -5.788725642937290417e+00 3.540000000000000000e+02
5.034967507500383022e+00 -4.486093905689843453e+00 3.540000000000000000e+02
5.585558605426692580e+00 -3.183462168442397378e+00 3.540000000000000000e+02
6.136149703353002138e+00 -1.880830431194950414e+00 3.540000000000000000e+02
6.686740801279312585e+00 -5.781986939475043386e-01 3.540000000000000000e+02
2.832603115795143456e+00 -9.696620854679629531e+00 3.550000000000000000e+02
3.383194213721453458e+00 -8.393989117432184344e+00 3.550000000000000000e+02
3.933785311647763017e+00 -7.091357380184737380e+00 3.550000000000000000e+02
4.484376409574073463e+00 -5.788725642937290417e+00 3.550000000000000000e+02
5.034967507500383022e+00 -4.486093905689843453e+00 3.550000000000000000e+02
5.585558605426692580e+00 -3.183462168442397378e+00 3.550000000000000000e+02
6.136149703353002138e+00 -1.880830431194950414e+00 3.550000000000000000e+02
6.686740801279312585e+00 -5.781986939475043386e-01 3.550000000000000000e+02
2.832603115795143456e+00 -9.696620854679629531e+00 3.560000000000000000e+02
3.383194213721453458e+00 -8.393989117432184344e+00 3.560000000000000000e+02
3.933785311647763017e+00 -7.091357380184737380e+00 3.560000000000000000e+02
4.484376409574073463e+00 -5.788725642937290417e+00 3.560000000000000000e+02
5.034967507500383022e+00 -4.486093905689843453e+00 3.560000000000000000e+02
5.585558605426692580e+00 -3.183462168442397378e+00 3.560000000000000000e+02
6.136149703353002138e+00 -1.880830431194950414e+00 3.560000000000000000e+02
6.686740801279312585e+00 -5.781986939475043386e-01 3.560000000000000000e+02
2.832603115795143456e+00 -9.696620854679629531e+00 3.570000000000000000e+02
3.383194213721453458e+00 -8.393989117432184344e+00 3.570000000000000000e+02
3.933785311647763017e+00 -7.091357380184737380e+00 3.570000000000000000e+02
4.484376409574073463e+00 -5.788725642937290417e+00 3.570000000000000000e+02
5.034967507500383022e+00 -4.486093905689843453e+00 3.570000000000000000e+02
5.585558605426692580e+00 -3.183462168442397378e+00 3.570000000000000000e+02
6.136149703353002138e+00 -1.880830431194950414e+00 3.570000000000000000e+02
6.686740801279312585e+00 -5.781986939475043386e-01 3.570000000000000000e+02
2.832603115795143456e+00 -9.696620854679629531e+00 3.580000000000000000e+02
3.383194213721453458e+00 -8.393989117432184344e+00 3.580000000000000000e+02
3.933785311647763017e+00 -7.091357380184737380e+00 3.580000000000000000e+02
4.484376409574073463e+00 -5.788725642937290417e+00 3.580000000000000000e+02
5.034967507500383022e+00 -4.486093905689843453e+00 3.580000000000000000e+02
5.585558605426692580e+00 -3.183462168442397378e+00 3.580000000000000000e+02
6.136149703353002138e+00 -1.880830431194950414e+00 3.580000000000000000e+02
6.686740801279312585e+00 -5.781986939475043386e-01 3.580000000000000000e+02
2.832603115795143456e+00 -9.696620854679629531e+00 3.590000000000000000e+02
3.383194213721453458e+00 -8.393989117432184344e+00 3.590000000000000000e+02
3.933785311647763017e+00 -7.091357380184737380e+00 3.590000000000000000e+02
4.484376409574073463e+00 -5.788725642937290417e+00 3.590000000000000000e+02
5.034967507500383022e+00 -4.486093905689843453e+00 3.590000000000000000e+02
5.585558605426692580e+00 -3.183462168442397378e+00 3.590000000000000000e+02
6.136149703353002138e+00 -1.880830431194950414e+00 3.590000000000000000e+02
6.686740801279312585e+00 -5.781986939475043386e-01 3.590000000000000000e+02
1.905991698208265195e+00 -1.007264117434019823e+01 3.600000000000000000e+02
2.456582796134575197e+00 -8.770009437092753046e+00 3.600000000000000000e+02
3.007173894060884756e+00 -7.467377699845306083e+00 3.600000000000000000e+02
3.557764991987194758e+00 -6.164745962597859119e+00 3.600000000000000000e+02
4.108356089913504761e+00 -4.862114225350412156e+00 3.600000000000000000e+02
4.658947187839814319e+00 -3.559482488102965636e+00 3.600000000000000000e+02
5.209538285766123877e+00 -2.256850750855519117e+00 3.600000000000000000e+02
5.760129383692434324e+00 -9.542190136080721530e-01 3.600000000000000000e+02
6.310720481618744770e+00 3.484127236393739224e-01 3.600000000000000000e+02
1.905991698208265195e+00 -1.007264117434019823e+01 3.610000000000000000e+02
2.456582796134575197e+00 -8.770009437092753046e+00 3.610000000000000000e+02
3.007173894060884756e+00 -7.467377699845306083e+00 3.610000000000000000e+02
3.557764991987194758e+00 -6.164745962597859119e+00 3.610000000000000000e+02
4.108356089913504761e+00 -4.862114225350412156e+00 3.610000000000000000e+02
4.658947187839814319e+00 -3.559482488102965636e+00 3.610000000000000000e+02
5.209538285766123877e+00 -2.256850750855519117e+00 3.610000000000000000e+02
5.760129383692434324e+00 -9.542190136080721530e-01 3.610000000000000000e+02
6.310720481618744770e+00 3.484127236393739224e-01 3.610000000000000000e+02
2.832603115795143456e+00 -9.696620854679629531e+00 3.620000000000000000e+02
3.383194213721453458e+00 -8.393989117432184344e+00 3.620000000000000000e+02
3.933785311647763017e+00 -7.091357380184737380e+00 3.620000000000000000e+02
4.484376409574073463e+00 -5.788725642937290417e+00 3.620000000000000000e+02
5.034967507500383022e+00 -4.486093905689843453e+00 3.620000000000000000e+02
5.585558605426692580e+00 -3.183462168442397378e+00 3.620000000000000000e+02
6.136149703353002138e+00 -1.880830431194950414e+00 3.620000000000000000e+02
6.686740801279312585e+00 -5.781986939475043386e-01 3.620000000000000000e+02
2.832603115795143456e+00 -9.696620854679629531e+00 3.630000000000000000e+02
3.383194213721453458e+00 -8.393989117432184344e+00 3.630000000000000000e+02
3.933785311647763017e+00 -7.091357380184737380e+00 3.630000000000000000e+02
4.484376409574073463e+00 -5.788725642937290417e+00 3.630000000000000000e+02
5.034967507500383022e+00 -4.486093905689843453e+00 3.630000000000000000e+02
5.585558605426692580e+00 -3.183462168442397378e+00 3.630000000000000000e+02
6.136149703353002138e+00 -1.880830431194950414e+00 3.630000000000000000e+02
6.686740801279312585e+00 -5.781986939475043386e-01 3.630000000000000000e+02
2.832603115795143456e+00 -9.696620854679629531e+00 3.640000000000000000e+02
3.383194213721453458e+00 -8.393989117432184344e+00 3.640000000000000000e+02
3.933785311647763017e+00 -7.091357380184737380e+00 3.640000000000000000e+02
4.484376409574073463e+00 -5.788725642937290417e+00 3.640000000000000000e+02
5.034967507500383022e+00 -4.486093905689843453e+00 3.640000000000000000e+02
5.585558605426692580e+00 -3.183462168442397378e+00 3.640000000000000000e+02
6.136149703353002138e+00 -1.880830431194950414e+00 3.640000000000000000e+02
6.686740801279312585e+00 -5.781986939475043386e-01 3.640000000000000000e+02
2.832603115795143456e+00 -9.696620854679629531e+00 3.650000000000000000e+02
3.383194213721453458e+00 -8.393989117432184344e+00 3.650000000000000000e+02
3.933785311647763017e+00 -7.091357380184737380e+00 3.650000000000000000e+02
4.484376409574073463e+00 -5.788725642937290417e+00 3.650000000000000000e+02
5.034967507500383022e+00 -4.486093905689843453e+00 3.650000000000000000e+02
5.585558605426692580e+00 -3.183462168442397378e+00 3.650000000000000000e+02
6.136149703353002138e+00 -1.880830431194950414e+00 3.650000000000000000e+02
6.686740801279312585e+00 -5.781986939475043386e-01 3.650000000000000000e+02
2.832603115795143456e+00 -9.696620854679629531e+00 3.660000000000000000e+02
3.383194213721453458e+00 -8.393989117432184344e+00 3.660000000000000000e+02
3.933785311647763017e+00 -7.091357380184737380e+00 3.660000000000000000e+02
4.484376409574073463e+00 -5.788725642937290417e+00 3.660000000000000000e+02
5.034967507500383022e+00 -4.486093905689843453e+00 3.660000000000000000e+02
5.585558605426692580e+00 -3.183462168442397378e+00 3.660000000000000000e+02
6.136149703353002138e+00 -1.880830431194950414e+00 3.660000000000000000e+02
6.686740801279312585e+00 -5.781986939475043386e-01 3.660000000000000000e+02
1.905991698208265195e+00 -1.007264117434019823e+01 3.670000000000000000e+02
2.456582796134575197e+00 -8.770009437092753046e+00 3.670000000000000000e+02
3.007173894060884756e+00 -7.467377699845306083e+00 3.670000000000000000e+02
3.557764991987194758e+00 -6.164745962597859119e+00 3.670000000000000000e+02
4.108356089913504761e+00 -4.862114225350412156e+00 3.670000000000000000e+02
4.658947187839814319e+00 -3.559482488102965636e+00 3.670000000000000000e+02
5.209538285766123877e+00 -2.256850750855519117e+00 3.670000000000000000e+02
5.760129383692434324e+00 -9.542190136080721530e-01 3.670000000000000000e+02
6.310720481618744770e+00 3.484127236393739224e-01 3.670000000000000000e+02
1.905991698208265195e+00 -1.007264117434019823e+01 3.680000000000000000e+02
2.456582796134575197e+00 -8.770009437092753046e+00 3.680000000000000000e+02
3.007173894060884756e+00 -7.467377699845306083e+00 3.680000000000000000e+02
3.557764991987194758e+00 -6.164745962597859119e+00 3.680000000000000000e+02
4.108356089913504761e+00 -4.862114225350412156e+00 3.680000000000000000e+02
4.658947187839814319e+00 -3.559482488102965636e+00 3.680000000000000000e+02
5.209538285766123877e+00 -2.256850750855519117e+00 3.680000000000000000e+02
5.760129383692434324e+00 -9.542190136080721530e-01 3.680000000000000000e+02
6.310720481618744770e+00 3.484127236393739224e-01 3.680000000000000000e+02
1.905991698208265195e+00 -1.007264117434019823e+01 3.690000000000000000e+02
2.456582796134575197e+00 -8.770009437092753046e+00 3.690000000000000000e+02
3.007173894060884756e+00 -7.467377699845306083e+00 3.690000000000000000e+02
3.557764991987194758e+00 -6.164745962597859119e+00 3.690000000000000000e+02
4.108356089913504761e+00 -4.862114225350412156e+00 3.690000000000000000e+02
4.658947187839814319e+00 -3.559482488102965636e+00 3.690000000000000000e+02
5.209538285766123877e+00 -2.256850750855519117e+00 3.690000000000000000e+02
5.760129383692434324e+00 -9.542190136080721530e-01 3.690000000000000000e+02
6.310720481618744770e+00 3.484127236393739224e-01 3.690000000000000000e+02
1.905991698208265195e+00 -1.007264117434019823e+01 3.700000000000000000e+02
2.456582796134575197e+00 -8.770009437092753046e+00 3.700000000000000000e+02
3.007173894060884756e+00 -7.467377699845306083e+00 3.700000000000000000e+02
3.557764991987194758e+00 -6.164745962597859119e+00 3.700000000000000000e+02
4.108356089913504761e+00 -4.862114225350412156e+00 3.700000000000000000e+02
4.658947187839814319e+00 -3.559482488102965636e+00 3.700000000000000000e+02
5.209538285766123877e+00 -2.256850750855519117e+00 3.700000000000000000e+02
5.760129383692434324e+00 -9.542190136080721530e-01 3.700000000000000000e+02
6.310720481618744770e+00 3.484127236393739224e-01 3.700000000000000000e+02
1.905991698208265195e+00 -1.007264117434019823e+01 3.710000000000000000e+02
2.456582796134575197e+00 -8.770009437092753046e+00 3.710000000000000000e+02
3.007173894060884756e+00 -7.467377699845306083e+00 3.710000000000000000e+02
3.557764991987194758e+00 -6.164745962597859119e+00 3.710000000000000000e+02
4.108356089913504761e+00 -4.862114225350412156e+00 3.710000000000000000e+02
4.658947187839814319e+00 -3.559482488102965636e+00 3.710000000000000000e+02
5.209538285766123877e+00 -2.256850750855519117e+00 3.710000000000000000e+02
5.760129383692434324e+00 -9.542190136080721530e-01 3.710000000000000000e+02
6.310720481618744770e+00 3.484127236393739224e-01 3.710000000000000000e+02
1.905991698208265195e+00 -1.007264117434019823e+01 3.720000000000000000e+02
2.456582796134575197e+00 -8.770009437092753046e+00 3.720000000000000000e+02
3.007173894060884756e+00 -7.467377699845306083e+00 3.720000000000000000e+02
3.557764991987194758e+00 -6.164745962597859119e+00 3.720000000000000000e+02
4.108356089913504761e+00 -4.862114225350412156e+00 3.720000000000000000e+02
4.658947187839814319e+00 -3.559482488102965636e+00 3.720000000000000000e+02
5.209538285766123877e+00 -2.256850750855519117e+00 3.720000000000000000e+02
5.760129383692434324e+00 -9.542190136080721530e-01 3.720000000000000000e+02
6.310720481618744770e+00 3.484127236393739224e-01 3.720000000000000000e+02
1.905991698208265195e+00 -1.007264117434019823e+01 3.730000000000000000e+02
2.456582796134575197e+00 -8.770009437092753046e+00 3.730000000000000000e+02
3.007173894060884756e+00 -7.467377699845306083e+00 3.730000000000000000e+02
3.557764991987194758e+00 -6.164745962597859119e+00 3.730000000000000000e+02
4.108356089913504761e+00 -4.862114225350412156e+00 3.730000000000000000e+02
4.658947187839814319e+00 -3.559482488102965636e+00 3.730000000000000000e+02
5.209538285766123877e+00 -2.256850750855519117e+00 3.730000000000000000e+02
5.760129383692434324e+00 -9.542190136080721530e-01 3.730000000000000000e+02
6.310720481618744770e+00 3.484127236393739224e-01 3.730000000000000000e+02
1.905991698208265195e+00 -1.007264117434019823e+01 3.740000000000000000e+02
2.456582796134575197e+00 -8.770009437092753046e+00 3.740000000000000000e+02
3.007173894060884756e+00 -7.467377699845306083e+00 3.740000000000000000e+02
3.557764991987194758e+00 -6.164745962597859119e+00 3.740000000000000000e+02
4.108356089913504761e+00 -4.862114225350412156e+00 3.740000000000000000e+02
4.658947187839814319e+00 -3.559482488102965636e+00 3.740000000000000000e+02
5.209538285766123877e+00 -2.256850750855519117e+00 3.740000000000000000e+02
5.760129383692434324e+00 -9.542190136080721530e-01 3.740000000000000000e+02
6.310720481618744770e+00 3.484127236393739224e-01 3.740000000000000000e+02
1.905991698208265195e+00 -1.007264117434019823e+01 3.750000000000000000e+02
2.456582796134575197e+00 -8.770009437092753046e+00 3.750000000000000000e+02
3.007173894060884756e+00 -7.467377699845306083e+00 3.750000000000000000e+02
3.557764991987194758e+00 -6.164745962597859119e+00 3.750000000000000000e+02
4.108356089913504761e+00 -4.862114225350412156e+00 3.750000000000000000e+02
4.658947187839814319e+00 -3.559482488102965636e+00 3.750000000000000000e+02
5.209538285766123877e+00 -2.256850750855519117e+00 3.750000000000000000e+02
5.760129383692434324e+00 -9.542190136080721530e-01 3.750000000000000000e+02
6.310720481618744770e+00 3.484127236393739224e-01 3.750000000000000000e+02
1.905991698208265195e+00 -1.007264117434019823e+01 3.760000000000000000e+02
2.456582796134575197e+00 -8.770009437092753046e+00 3.760000000000000000e+02
3.007173894060884756e+00 -7.467377699845306083e+00 3.760000000000000000e+02
3.557764991987194758e+00 -6.164745962597859119e+00 3.760000000000000000e+02
4.108356089913504761e+00 -4.862114225350412156e+00 3.760000000000000000e+02
4.658947187839814319e+00 -3.559482488102965636e+00 3.760000000000000000e+02
5.209538285766123877e+00 -2.256850750855519117e+00 3.760000000000000000e+02
5.760129383692434324e+00 -9.542190136080721530e-01 3.760000000000000000e+02
6.310720481618744770e+00 3.484127236393739224e-01 3.760000000000000000e+02
1.905991698208265195e+00 -1.007264117434019823e+01 3.770000000000000000e+02
2.456582796134575197e+00 -8.770009437092753046e+00 3.770000000000000000e+02
3.007173894060884756e+00 -7.467377699845306083e+00 3.770000000000000000e+02
3.557764991987194758e+00 -6.164745962597859119e+00 3.770000000000000000e+02
4.108356089913504761e+00 -4.862114225350412156e+00 3.770000000000000000e+02
4.658947187839814319e+00 -3.559482488102965636e+00 3.770000000000000000e+02
5.209538285766123877e+00 -2.256850750855519117e+00 3.770000000000000000e+02
5.760129383692434324e+00 -9.542190136080721530e-01 3.770000000000000000e+02
6.310720481618744770e+00 3.484127236393739224e-01 3.770000000000000000e+02
1.905991698208265195e+00 -1.007264117434019823e+01 3.780000000000000000e+02
2.456582796134575197e+00 -8.770009437092753046e+00 3.780000000000000000e+02
3.007173894060884756e+00 -7.467377699845306083e+00 3.780000000000000000e+02
3.557764991987194758e+00 -6.164745962597859119e+00 3.780000000000000000e+02
4.108356089913504761e+00 -4.862114225350412156e+00 3.780000000000000000e+02
4.658947187839814319e+00 -3.559482488102965636e+00 3.780000000000000000e+02
5.209538285766123877e+00 -2.256850750855519117e+00 3.780000000000000000e+02
5.760129383692434324e+00 -9.542190136080721530e-01 3.780000000000000000e+02
6.310720481618744770e+00 3.484127236393739224e-01 3.780000000000000000e+02
1.905991698208265195e+00 -1.007264117434019823e+01 3.790000000000000000e+02
2.456582796134575197e+00 -8.770009437092753046e+00 3.790000000000000000e+02
3.007173894060884756e+00 -7.467377699845306083e+00 3.790000000000000000e+02
3.557764991987194758e+00 -6.164745962597859119e+00 3.790000000000000000e+02
4.108356089913504761e+00 -4.862114225350412156e+00 3.790000000000000000e+02
4.658947187839814319e+00 -3.559482488102965636e+00 3.790000000000000000e+02
5.209538285766123877e+00 -2.256850750855519117e+00 3.790000000000000000e+02
5.760129383692434324e+00 -9.542190136080721530e-01 3.790000000000000000e+02
6.310720481618744770e+00 3.484127236393739224e-01 3.790000000000000000e+02
1.905991698208265195e+00 -1.007264117434019823e+01 3.800000000000000000e+02
2.456582796134575197e+00 -8.770009437092753046e+00 3.800000000000000000e+02
3.007173894060884756e+00 -7.467377699845306083e+00 3.800000000000000000e+02
3.557764991987194758e+00 -6.164745962597859119e+00 3.800000000000000000e+02
4.108356089913504761e+00 -4.862114225350412156e+00 3.800000000000000000e+02
4.658947187839814319e+00 -3.559482488102965636e+00 3.800000000000000000e+02
5.209538285766123877e+00 -2.256850750855519117e+00 3.800000000000000000e+02
5.760129383692434324e+00 -9.542190136080721530e-01 3.800000000000000000e+02
6.310720481618744770e+00 3.484127236393739224e-01 3.800000000000000000e+02
1.905991698208265195e+00 -1.007264117434019823e+01 3.810000000000000000e+02
2.456582796134575197e+00 -8.770009437092753046e+00 3.810000000000000000e+02
3.007173894060884756e+00 -7.467377699845306083e+00 3.810000000000000000e+02
3.557764991987194758e+00 -6.164745962597859119e+00 3.810000000000000000e+02
4.108356089913504761e+00 -4.862114225350412156e+00 3.810000000000000000e+02
4.658947187839814319e+00 -3.559482488102965636e+00 3.810000000000000000e+02
5.209538285766123877e+00 -2.256850750855519117e+00 3.810000000000000000e+02
5.760129383692434324e+00 -9.542190136080721530e-01 3.810000000000000000e+02
6.310720481618744770e+00 3.484127236393739224e-01 3.810000000000000000e+02
1.905991698208265195e+00 -1.007264117434019823e+01 3.820000000000000000e+02
2.456582796134575197e+00 -8.770009437092753046e+00 3.820000000000000000e+02
3.007173894060884756e+00 -7.467377699845306083e+00 3.820000000000000000e+02
3.557764991987194758e+00 -6.164745962597859119e+00 3.820000000000000000e+02
4.108356089913504761e+00 -4.862114225350412156e+00 3.820000000000000000e+02
4.658947187839814319e+00 -3.559482488102965636e+00 3.820000000000000000e+02
5.209538285766123877e+00 -2.256850750855519117e+00 3.820000000000000000e+02
5.760129383692434324e+00 -9.542190136080721530e-01 3.820000000000000000e+02
6.310720481618744770e+00 3.484127236393739224e-01 3.820000000000000000e+02
1.905991698208265195e+00 -1.007264117434019823e+01 3.830000000000000000e+02
2.456582796134575197e+00 -8.770009437092753046e+00 3.830000000000000000e+02
3.007173894060884756e+00 -7.467377699845306083e+00 3.830000000000000000e+02
3.557764991987194758e+00 -6.164745962597859119e+00 3.830000000000000000e+02
4.108356089913504761e+00 -4.862114225350412156e+00 3.830000000000000000e+02
4.658947187839814319e+00 -3.559482488102965636e+00 3.830000000000000000e+02
5.209538285766123877e+00 -2.256850750855519117e+00 3.830000000000000000e+02
5.760129383692434324e+00 -9.542190136080721530e-01 3.830000000000000000e+02
6.310720481618744770e+00 3.484127236393739224e-01 3.830000000000000000e+02
9.793802806213869339e-01 -1.044866149400076694e+01 3.840000000000000000e+02
1.529971378547696936e+00 -9.146029756753319973e+00 3.840000000000000000e+02
2.080562476474006495e+00 -7.843398019505873897e+00 3.840000000000000000e+02
2.631153574400316497e+00 -6.540766282258427822e+00 3.840000000000000000e+02
3.181744672326626500e+00 -5.238134545010980858e+00 3.840000000000000000e+02
3.732335770252936058e+00 -3.935502807763533895e+00 3.840000000000000000e+02
4.282926868179246505e+00 -2.632871070516087375e+00 3.840000000000000000e+02
4.833517966105556063e+00 -1.330239333268640411e+00 3.840000000000000000e+02
5.384109064031866509e+00 -2.760759602119389200e-02 3.840000000000000000e+02
9.793802806213869339e-01 -1.044866149400076694e+01 3.850000000000000000e+02
1.529971378547696936e+00 -9.146029756753319973e+00 3.850000000000000000e+02
2.080562476474006495e+00 -7.843398019505873897e+00 3.850000000000000000e+02
2.631153574400316497e+00 -6.540766282258427822e+00 3.850000000000000000e+02
3.181744672326626500e+00 -5.238134545010980858e+00 3.850000000000000000e+02
3.732335770252936058e+00 -3.935502807763533895e+00 3.850000000000000000e+02
4.282926868179246505e+00 -2.632871070516087375e+00 3.850000000000000000e+02
4.833517966105556063e+00 -1.330239333268640411e+00 3.850000000000000000e+02
5.384109064031866509e+00 -2.760759602119389200e-02 3.850000000000000000e+02
9.793802806213869339e-01 -1.044866149400076694e+01 3.860000000000000000e+02
1.529971378547696936e+00 -9.146029756753319973e+00 3.860000000000000000e+02
2.080562476474006495e+00 -7.843398019505873897e+00 3.860000000000000000e+02
2.631153574400316497e+00 -6.540766282258427822e+00 3.860000000000000000e+02
3.181744672326626500e+00 -5.238134545010980858e+00 3.860000000000000000e+02
3.732335770252936058e+00 -3.935502807763533895e+00 3.860000000000000000e+02
4.282926868179246505e+00 -2.632871070516087375e+00 3.860000000000000000e+02
4.833517966105556063e+00 -1.330239333268640411e+00 3.860000000000000000e+02
5.384109064031866509e+00 -2.760759602119389200e-02 3.860000000000000000e+02
5.934700161958176068e+00 1.275024141226252183e+00 3.860000000000000000e+02
9.793802806213869339e-01 -1.044866149400076694e+01 3.870000000000000000e+02
1.529971378547696936e+00 -9.146029756753319973e+00 3.870000000000000000e+02
2.080562476474006495e+00 -7.843398019505873897e+00 3.870000000000000000e+02
2.631153574400316497e+00 -6.540766282258427822e+00 3.870000000000000000e+02
3.181744672326626500e+00 -5.238134545010980858e+00 3.870000000000000000e+02
3.732335770252936058e+00 -3.935502807763533895e+00 3.870000000000000000e+02
4.282926868179246505e+00 -2.632871070516087375e+00 3.870000000000000000e+02
4.833517966105556063e+00 -1.330239333268640411e+00 3.870000000000000000e+02
5.384109064031866509e+00 -2.760759602119389200e-02 3.870000000000000000e+02
5.934700161958176068e+00 1.275024141226252183e+00 3.870000000000000000e+02
9.793802806213869339e-01 -1.044866149400076694e+01 3.880000000000000000e+02
1.529971378547696936e+00 -9.146029756753319973e+00 3.880000000000000000e+02
2.080562476474006495e+00 -7.843398019505873897e+00 3.880000000000000000e+02
2.631153574400316497e+00 -6.540766282258427822e+00 3.880000000000000000e+02
3.181744672326626500e+00 -5.238134545010980858e+00 3.880000000000000000e+02
3.732335770252936058e+00 -3.935502807763533895e+00 3.880000000000000000e+02
4.282926868179246505e+00 -2.632871070516087375e+00 3.880000000000000000e+02
4.833517966105556063e+00 -1.330239333268640411e+00 3.880000000000000000e+02
5.384109064031866509e+00 -2.760759602119389200e-02 3.880000000000000000e+02
5.934700161958176068e+00 1.275024141226252183e+00 3.880000000000000000e+02
9.793802806213869339e-01 -1.044866149400076694e+01 3.890000000000000000e+02
1.529971378547696936e+00 -9.146029756753319973e+00 3.890000000000000000e+02
2.080562476474006495e+00 -7.843398019505873897e+00 3.890000000000000000e+02
2.631153574400316497e+00 -6.540766282258427822e+00 3.890000000000000000e+02
3.181744672326626500e+00 -5.238134545010980858e+00 3.890000000000000000e+02
3.732335770252936058e+00 -3.935502807763533895e+00 3.890000000000000000e+02
4.282926868179246505e+00 -2.632871070516087375e+00 3.890000000000000000e+02
4.833517966105556063e+00 -1.330239333268640411e+00 3.890000000000000000e+02
5.384109064031866509e+00 -2.760759602119389200e-02 3.890000000000000000e+02
5.934700161958176068e+00 1.275024141226252183e+00 3.890000000000000000e+02
9.793802806213869339e-01 -1.044866149400076694e+01 3.900000000000000000e+02
1.529971378547696936e+00 -9.146029756753319973e+00 3.900000000000000000e+02
2.080562476474006495e+00 -7.843398019505873897e+00 3.900000000000000000e+02
2.631153574400316497e+00 -6.540766282258427822e+00 3.900000000000000000e+02
3.181744672326626500e+00 -5.238134545010980858e+00 3.900000000000000000e+02
3.732335770252936058e+00 -3.935502807763533895e+00 3.900000000000000000e+02
4.282926868179246505e+00 -2.632871070516087375e+00 3.900000000000000000e+02
4.833517966105556063e+00 -1.330239333268640411e+00 3.900000000000000000e+02
5.384109064031866509e+00 -2.760759602119389200e-02 3.900000000000000000e+02
5.934700161958176068e+00 1.275024141226252183e+00 3.900000000000000000e+02
9.793802806213869339e-01 -1.044866149400076694e+01 3.910000000000000000e+02
1.529971378547696936e+00 -9.146029756753319973e+00 3.910000000000000000e+02
2.080562476474006495e+00 -7.843398019505873897e+00 3.910000000000000000e+02
2.631153574400316497e+00 -6.540766282258427822e+00 3.910000000000000000e+02
3.181744672326626500e+00 -5.238134545010980858e+00 3.910000000000000000e+02
3.732335770252936058e+00 -3.935502807763533895e+00 3.910000000000000000e+02
4.282926868179246505e+00 -2.632871070516087375e+00 3.910000000000000000e+02
4.833517966105556063e+00 -1.330239333268640411e+00 3.910000000000000000e+02
5.384109064031866509e+00 -2.760759602119389200e-02 3.910000000000000000e+02
5.934700161958176068e+00 1.275024141226252183e+00 3.910000000000000000e+02
9.793802806213869339e-01 -1.044866149400076694e+01 3.920000000000000000e+02
1.529971378547696936e+00 -9.146029756753319973e+00 3.920000000000000000e+02
2.080562476474006495e+00 -7.843398019505873897e+00 3.920000000000000000e+02
2.631153574400316497e+00 -6.540766282258427822e+00 3.920000000000000000e+02
3.181744672326626500e+00 -5.238134545010980858e+00 3.920000000000000000e+02
3.732335770252936058e+00 -3.935502807763533895e+00 3.920000000000000000e+02
4.282926868179246505e+00 -2.632871070516087375e+00 3.920000000000000000e+02
4.833517966105556063e+00 -1.330239333268640411e+00 3.920000000000000000e+02
5.384109064031866509e+00 -2.760759602119389200e-02 3.920000000000000000e+02
5.934700161958176068e+00 1.275024141226252183e+00 3.920000000000000000e+02
9.793802806213869339e-01 -1.044866149400076694e+01 3.930000000000000000e+02
1.529971378547696936e+00 -9.146029756753319973e+00 3.930000000000000000e+02
2.080562476474006495e+00 -7.843398019505873897e+00 3.930000000000000000e+02
2.631153574400316497e+00 -6.540766282258427822e+00 3.930000000000000000e+02
3.181744672326626500e+00 -5.238134545010980858e+00 3.930000000000000000e+02
3.732335770252936058e+00 -3.935502807763533895e+00 3.930000000000000000e+02
4.282926868179246505e+00 -2.632871070516087375e+00 3.930000000000000000e+02
4.833517966105556063e+00 -1.330239333268640411e+00 3.930000000000000000e+02
5.384109064031866509e+00 -2.760759602119389200e-02 3.930000000000000000e+02
5.934700161958176068e+00 1.275024141226252183e+00 3.930000000000000000e+02
9.793802806213869339e-01 -1.044866149400076694e+01 3.940000000000000000e+02
1.529971378547696936e+00 -9.146029756753319973e+00 3.940000000000000000e+02
2.080562476474006495e+00 -7.843398019505873897e+00 3.940000000000000000e+02
2.631153574400316497e+00 -6.540766282258427822e+00 3.940000000000000000e+02
3.181744672326626500e+00 -5.238134545010980858e+00 3.940000000000000000e+02
3.732335770252936058e+00 -3.935502807763533895e+00 3.940000000000000000e+02
4.282926868179246505e+00 -2.632871070516087375e+00 3.940000000000000000e+02
4.833517966105556063e+00 -1.330239333268640411e+00 3.940000000000000000e+02
5.384109064031866509e+00 -2.760759602119389200e-02 3.940000000000000000e+02
9.793802806213869339e-01 -1.044866149400076694e+01 3.950000000000000000e+02
1.529971378547696936e+00 -9.146029756753319973e+00 3.950000000000000000e+02
2.080562476474006495e+00 -7.843398019505873897e+00 3.950000000000000000e+02
2.631153574400316497e+00 -6.540766282258427822e+00 3.950000000000000000e+02
3.181744672326626500e+00 -5.238134545010980858e+00 3.950000000000000000e+02
3.732335770252936058e+00 -3.935502807763533895e+00 3.950000000000000000e+02
4.282926868179246505e+00 -2.632871070516087375e+00 3.950000000000000000e+02
4.833517966105556063e+00 -1.330239333268640411e+00 3.950000000000000000e+02
5.384109064031866509e+00 -2.760759602119389200e-02 3.950000000000000000e+02
9.793802806213869339e-01 -1.044866149400076694e+01 3.960000000000000000e+02
1.529971378547696936e+00 -9.146029756753319973e+00 3.960000000000000000e+02
2.080562476474006495e+00 -7.843398019505873897e+00 3.960000000000000000e+02
2.631153574400316497e+00 -6.540766282258427822e+00 3.960000000000000000e+02
3.181744672326626500e+00 -5.238134545010980858e+00 3.960000000000000000e+02
3.732335770252936058e+00 -3.935502807763533895e+00 3.960000000000000000e+02
4.282926868179246505e+00 -2.632871070516087375e+00 3.960000000000000000e+02
4.833517966105556063e+00 -1.330239333268640411e+00 3.960000000000000000e+02
5.384109064031866509e+00 -2.760759602119389200e-02 3.960000000000000000e+02
9.793802806213869339e-01 -1.044866149400076694e+01 3.970000000000000000e+02
1.529971378547696936e+00 -9.146029756753319973e+00 3.970000000000000000e+02
2.080562476474006495e+00 -7.843398019505873897e+00 3.970000000000000000e+02
2.631153574400316497e+00 -6.540766282258427822e+00 3.970000000000000000e+02
3.181744672326626500e+00 -5.238134545010980858e+00 3.970000000000000000e+02
3.732335770252936058e+00 -3.935502807763533895e+00 3.970000000000000000e+02
4.282926868179246505e+00 -2.632871070516087375e+00 3.970000000000000000e+02
4.833517966105556063e+00 -1.330239333268640411e+00 3.970000000000000000e+02
5.384109064031866509e+00 -2.760759602119389200e-02 3.970000000000000000e+02
9.793802806213869339e-01 -1.044866149400076694e+01 3.980000000000000000e+02
1.529971378547696936e+00 -9.146029756753319973e+00 3.980000000000000000e+02
2.080562476474006495e+00 -7.843398019505873897e+00 3.980000000000000000e+02
2.631153574400316497e+00 -6.540766282258427822e+00 3.980000000000000000e+02
3.181744672326626500e+00 -5.238134545010980858e+00 3.980000000000000000e+02
3.732335770252936058e+00 -3.935502807763533895e+00 3.980000000000000000e+02
4.282926868179246505e+00 -2.632871070516087375e+00 3.980000000000000000e+02
4.833517966105556063e+00 -1.330239333268640411e+00 3.980000000000000000e+02
5.384109064031866509e+00 -2.760759602119389200e-02 3.980000000000000000e+02
9.793802806213869339e-01 -1.044866149400076694e+01 3.990000000000000000e+02
1.529971378547696936e+00 -9.146029756753319973e+00 3.990000000000000000e+02
2.080562476474006495e+00 -7.843398019505873897e+00 3.990000000000000000e+02
2.631153574400316497e+00 -6.540766282258427822e+00 3.990000000000000000e+02
3.181744672326626500e+00 -5.238134545010980858e+00 3.990000000000000000e+02
3.732335770252936058e+00 -3.935502807763533895e+00 3.990000000000000000e+02
4.282926868179246505e+00 -2.632871070516087375e+00 3.990000000000000000e+02
4.833517966105556063e+00 -1.330239333268640411e+00 3.990000000000000000e+02
5.384109064031866509e+00 -2.760759602119389200e-02 3.990000000000000000e+02
9.793802806213869339e-01 -1.044866149400076694e+01 4.000000000000000000e+02
1.529971378547696936e+00 -9.146029756753319973e+00 4.000000000000000000e+02
2.080562476474006495e+00 -7.843398019505873897e+00 4.000000000000000000e+02
2.631153574400316497e+00 -6.540766282258427822e+00 4.000000000000000000e+02
3.181744672326626500e+00 -5.238134545010980858e+00 4.000000000000000000e+02
3.732335770252936058e+00 -3.935502807763533895e+00 4.000000000000000000e+02
4.282926868179246505e+00 -2.632871070516087375e+00 4.000000000000000000e+02
4.833517966105556063e+00 -1.330239333268640411e+00 4.000000000000000000e+02
5.384109064031866509e+00 -2.760759602119389200e-02 4.000000000000000000e+02
9.793802806213869339e-01 -1.044866149400076694e+01 4.010000000000000000e+02
1.529971378547696936e+00 -9.146029756753319973e+00 4.010000000000000000e+02
2.080562476474006495e+00 -7.843398019505873897e+00 4.010000000000000000e+02
2.631153574400316497e+00 -6.540766282258427822e+00 4.010000000000000000e+02
3.181744672326626500e+00 -5.238134545010980858e+00 4.010000000000000000e+02
3.732335770252936058e+00 -3.935502807763533895e+00 4.010000000000000000e+02
4.282926868179246505e+00 -2.632871070516087375e+00 4.010000000000000000e+02
4.833517966105556063e+00 -1.330239333268640411e+00 4.010000000000000000e+02
5.384109064031866509e+00 -2.760759602119389200e-02 4.010000000000000000e+02
9.793802806213869339e-01 -1.044866149400076694e+01 4.020000000000000000e+02
1.529971378547696936e+00 -9.146029756753319973e+00 4.020000000000000000e+02
2.080562476474006495e+00 -7.843398019505873897e+00 4.020000000000000000e+02
2.631153574400316497e+00 -6.540766282258427822e+00 4.020000000000000000e+02
3.181744672326626500e+00 -5.238134545010980858e+00 4.020000000000000000e+02
3.732335770252936058e+00 -3.935502807763533895e+00 4.020000000000000000e+02
4.282926868179246505e+00 -2.632871070516087375e+00 4.020000000000000000e+02
4.833517966105556063e+00 -1.330239333268640411e+00 4.020000000000000000e+02
5.384109064031866509e+00 -2.760759602119389200e-02 4.020000000000000000e+02
9.793802806213869339e-01 -1.044866149400076694e+01 4.030000000000000000e+02
1.529971378547696936e+00 -9.146029756753319973e+00 4.030000000000000000e+02
2.080562476474006495e+00 -7.843398019505873897e+00 4.030000000000000000e+02
2.631153574400316497e+00 -6.540766282258427822e+00 4.030000000000000000e+02
3.181744672326626500e+00 -5.238134545010980858e+00 4.030000000000000000e+02
3.732335770252936058e+00 -3.935502807763533895e+00 4.030000000000000000e+02
4.282926868179246505e+00 -2.632871070516087375e+00 4.030000000000000000e+02
4.833517966105556063e+00 -1.330239333268640411e+00 4.030000000000000000e+02
5.384109064031866509e+00 -2.760759602119389200e-02 4.030000000000000000e+02
9.793802806213869339e-01 -1.044866149400076694e+01 4.040000000000000000e+02
1.529971378547696936e+00 -9.146029756753319973e+00 4.040000000000000000e+02
2.080562476474006495e+00 -7.843398019505873897e+00 4.040000000000000000e+02
2.631153574400316497e+00 -6.540766282258427822e+00 4.040000000000000000e+02
3.181744672326626500e+00 -5.238134545010980858e+00 4.040000000000000000e+02
3.732335770252936058e+00 -3.935502807763533895e+00 4.040000000000000000e+02
4.282926868179246505e+00 -2.632871070516087375e+00 4.040000000000000000e+02
4.833517966105556063e+00 -1.330239333268640411e+00 4.040000000000000000e+02
5.384109064031866509e+00 -2.760759602119389200e-02 4.040000000000000000e+02
5.934700161958176068e+00 1.275024141226252183e+00 4.040000000000000000e+02
9.793802806213869339e-01 -1.044866149400076694e+01 4.050000000000000000e+02
1.529971378547696936e+00 -9.146029756753319973e+00 4.050000000000000000e+02
2.080562476474006495e+00 -7.843398019505873897e+00 4.050000000000000000e+02
2.631153574400316497e+00 -6.540766282258427822e+00 4.050000000000000000e+02
3.181744672326626500e+00 -5.238134545010980858e+00 4.050000000000000000e+02
3.732335770252936058e+00 -3.935502807763533895e+00 4.050000000000000000e+02
4.282926868179246505e+00 -2.632871070516087375e+00 4.050000000000000000e+02
4.833517966105556063e+00 -1.330239333268640411e+00 4.050000000000000000e+02
5.384109064031866509e+00 -2.760759602119389200e-02 4.050000000000000000e+02
5.934700161958176068e+00 1.275024141226252183e+00 4.050000000000000000e+02
9.793802806213869339e-01 -1.044866149400076694e+01 4.060000000000000000e+02
1.529971378547696936e+00 -9.146029756753319973e+00 4.060000000000000000e+02
2.080562476474006495e+00 -7.843398019505873897e+00 4.060000000000000000e+02
2.631153574400316497e+00 -6.540766282258427822e+00 4.060000000000000000e+02
3.181744672326626500e+00 -5.238134545010980858e+00 4.060000000000000000e+02
3.732335770252936058e+00 -3.935502807763533895e+00 4.060000000000000000e+02
4.282926868179246505e+00 -2.632871070516087375e+00 4.060000000000000000e+02
4.833517966105556063e+00 -1.330239333268640411e+00 4.060000000000000000e+02
5.384109064031866509e+00 -2.760759602119389200e-02 4.060000000000000000e+02
5.934700161958176068e+00 1.275024141226252183e+00 4.060000000000000000e+02
9.793802806213869339e-01 -1.044866149400076694e+01 4.070000000000000000e+02
1.529971378547696936e+00 -9.146029756753319973e+00 4.070000000000000000e+02
2.080562476474006495e+00 -7.843398019505873897e+00 4.070000000000000000e+02
2.631153574400316497e+00 -6.540766282258427822e+00 4.070000000000000000e+02
3.181744672326626500e+00 -5.238134545010980858e+00 4.070000000000000000e+02
3.732335770252936058e+00 -3.935502807763533895e+00 4.070000000000000000e+02
4.282926868179246505e+00 -2.632871070516087375e+00 4.070000000000000000e+02
4.833517966105556063e+00 -1.330239333268640411e+00 4.070000000000000000e+02
5.384109064031866509e+00 -2.760759602119389200e-02 4.070000000000000000e+02
9.793802806213869339e-01 -1.044866149400076694e+01 4.080000000000000000e+02
1.529971378547696936e+00 -9.146029756753319973e+00 4.080000000000000000e+02
2.080562476474006495e+00 -7.843398019505873897e+00 4.080000000000000000e+02
2.631153574400316497e+00 -6.540766282258427822e+00 4.080000000000000000e+02
3.181744672326626500e+00 -5.238134545010980858e+00 4.080000000000000000e+02
3.732335770252936058e+00 -3.935502807763533895e+00 4.080000000000000000e+02
4.282926868179246505e+00 -2.632871070516087375e+00 4.080000000000000000e+02
