6.901550646709482706e+00 7.084911877868810848e+01 2.070000000000000000e+02
6.488068009664978320e+00 6.949670164301481634e+01 2.070000000000000000e+02
6.074585372620473933e+00 6.814428450734153841e+01 2.070000000000000000e+02
5.661102735575968659e+00 6.679186737166826049e+01 2.070000000000000000e+02
5.247620098531463384e+00 6.543945023599498256e+01 2.070000000000000000e+02
4.834137461486958998e+00 6.408703310032169043e+01 2.070000000000000000e+02
7.672531308528609095e+00 7.578932007206684318e+01 2.080000000000000000e+02
7.259048671484104709e+00 7.443690293639356526e+01 2.080000000000000000e+02
6.845566034439599434e+00 7.308448580072027312e+01 2.080000000000000000e+02
6.432083397395095048e+00 7.173206866504699519e+01 2.080000000000000000e+02
6.018600760350590662e+00 7.037965152937371727e+01 2.080000000000000000e+02
5.605118123306085387e+00 6.902723439370043934e+01 2.080000000000000000e+02
5.191635486261580112e+00 6.767481725802714720e+01 2.080000000000000000e+02
4.778152849217075726e+00 6.632240012235386928e+01 2.080000000000000000e+02
4.364670212172570452e+00 6.496998298668059135e+01 2.080000000000000000e+02
7.672531308528609095e+00 7.578932007206684318e+01 2.090000000000000000e+02
7.259048671484104709e+00 7.443690293639356526e+01 2.090000000000000000e+02
6.845566034439599434e+00 7.308448580072027312e+01 2.090000000000000000e+02
6.432083397395095048e+00 7.173206866504699519e+01 2.090000000000000000e+02
6.018600760350590662e+00 7.037965152937371727e+01 2.090000000000000000e+02
5.605118123306085387e+00 6.902723439370043934e+01 2.090000000000000000e+02
5.191635486261580112e+00 6.767481725802714720e+01 2.090000000000000000e+02
4.778152849217075726e+00 6.632240012235386928e+01 2.090000000000000000e+02
4.364670212172570452e+00 6.496998298668059135e+01 2.090000000000000000e+02
7.672531308528609095e+00 7.578932007206684318e+01 2.100000000000000000e+02
7.259048671484104709e+00 7.443690293639356526e+01 2.100000000000000000e+02
6.845566034439599434e+00 7.308448580072027312e+01 2.100000000000000000e+02
6.432083397395095048e+00 7.173206866504699519e+01 2.100000000000000000e+02
6.018600760350590662e+00 7.037965152937371727e+01 2.100000000000000000e+02
5.605118123306085387e+00 6.902723439370043934e+01 2.100000000000000000e+02
5.191635486261580112e+00 6.767481725802714720e+01 2.100000000000000000e+02
4.778152849217075726e+00 6.632240012235386928e+01 2.100000000000000000e+02
4.364670212172570452e+00 6.496998298668059135e+01 2.100000000000000000e+02
7.672531308528609095e+00 7.578932007206684318e+01 2.110000000000000000e+02
7.259048671484104709e+00 7.443690293639356526e+01 2.110000000000000000e+02
6.845566034439599434e+00 7.308448580072027312e+01 2.110000000000000000e+02
6.432083397395095048e+00 7.173206866504699519e+01 2.110000000000000000e+02
6.018600760350590662e+00 7.037965152937371727e+01 2.110000000000000000e+02
5.605118123306085387e+00 6.902723439370043934e+01 2.110000000000000000e+02
5.191635486261580112e+00 6.767481725802714720e+01 2.110000000000000000e+02
4.778152849217075726e+00 6.632240012235386928e+01 2.110000000000000000e+02
4.364670212172570452e+00 6.496998298668059135e+01 2.110000000000000000e+02
7.672531308528609095e+00 7.578932007206684318e+01 2.120000000000000000e+02
7.259048671484104709e+00 7.443690293639356526e+01 2.120000000000000000e+02
6.845566034439599434e+00 7.308448580072027312e+01 2.120000000000000000e+02
6.432083397395095048e+00 7.173206866504699519e+01 2.120000000000000000e+02
6.018600760350590662e+00 7.037965152937371727e+01 2.120000000000000000e+02
5.605118123306085387e+00 6.902723439370043934e+01 2.120000000000000000e+02
5.191635486261580112e+00 6.767481725802714720e+01 2.120000000000000000e+02
4.778152849217075726e+00 6.632240012235386928e+01 2.120000000000000000e+02
4.364670212172570452e+00 6.496998298668059135e+01 2.120000000000000000e+02
7.672531308528609095e+00 7.578932007206684318e+01 2.130000000000000000e+02
7.259048671484104709e+00 7.443690293639356526e+01 2.130000000000000000e+02
6.845566034439599434e+00 7.308448580072027312e+01 2.130000000000000000e+02
6.432083397395095048e+00 7.173206866504699519e+01 2.130000000000000000e+02
6.018600760350590662e+00 7.037965152937371727e+01 2.130000000000000000e+02
5.605118123306085387e+00 6.902723439370043934e+01 2.130000000000000000e+02
5.191635486261580112e+00 6.767481725802714720e+01 2.130000000000000000e+02
4.778152849217075726e+00 6.632240012235386928e+01 2.130000000000000000e+02
4.364670212172570452e+00 6.496998298668059135e+01 2.130000000000000000e+02
3.951187575128066065e+00 6.361756585100731343e+01 2.130000000000000000e+02
7.672531308528609095e+00 7.578932007206684318e+01 2.140000000000000000e+02
7.259048671484104709e+00 7.443690293639356526e+01 2.140000000000000000e+02
6.845566034439599434e+00 7.308448580072027312e+01 2.140000000000000000e+02
6.432083397395095048e+00 7.173206866504699519e+01 2.140000000000000000e+02
6.018600760350590662e+00 7.037965152937371727e+01 2.140000000000000000e+02
5.605118123306085387e+00 6.902723439370043934e+01 2.140000000000000000e+02
5.191635486261580112e+00 6.767481725802714720e+01 2.140000000000000000e+02
4.778152849217075726e+00 6.632240012235386928e+01 2.140000000000000000e+02
4.364670212172570452e+00 6.496998298668059135e+01 2.140000000000000000e+02
3.951187575128066065e+00 6.361756585100731343e+01 2.140000000000000000e+02
6.789581422169716163e+00 7.531985282275245197e+01 2.150000000000000000e+02
6.376098785125211776e+00 7.396743568707917404e+01 2.150000000000000000e+02
5.962616148080706502e+00 7.261501855140589612e+01 2.150000000000000000e+02
5.549133511036202115e+00 7.126260141573260398e+01 2.150000000000000000e+02
5.135650873991696841e+00 6.991018428005932606e+01 2.150000000000000000e+02
4.722168236947192455e+00 6.855776714438604813e+01 2.150000000000000000e+02
4.308685599902687180e+00 6.720535000871277020e+01 2.150000000000000000e+02
3.895202962858182794e+00 6.585293287303947807e+01 2.150000000000000000e+02
3.481720325813677519e+00 6.450051573736620014e+01 2.150000000000000000e+02
7.672531308528609095e+00 7.578932007206684318e+01 2.160000000000000000e+02
7.259048671484104709e+00 7.443690293639356526e+01 2.160000000000000000e+02
6.845566034439599434e+00 7.308448580072027312e+01 2.160000000000000000e+02
6.432083397395095048e+00 7.173206866504699519e+01 2.160000000000000000e+02
6.018600760350590662e+00 7.037965152937371727e+01 2.160000000000000000e+02
5.605118123306085387e+00 6.902723439370043934e+01 2.160000000000000000e+02
5.191635486261580112e+00 6.767481725802714720e+01 2.160000000000000000e+02
4.778152849217075726e+00 6.632240012235386928e+01 2.160000000000000000e+02
4.364670212172570452e+00 6.496998298668059135e+01 2.160000000000000000e+02
3.951187575128066065e+00 6.361756585100731343e+01 2.160000000000000000e+02
6.789581422169716163e+00 7.531985282275245197e+01 2.170000000000000000e+02
6.376098785125211776e+00 7.396743568707917404e+01 2.170000000000000000e+02
5.962616148080706502e+00 7.261501855140589612e+01 2.170000000000000000e+02
5.549133511036202115e+00 7.126260141573260398e+01 2.170000000000000000e+02
5.135650873991696841e+00 6.991018428005932606e+01 2.170000000000000000e+02
4.722168236947192455e+00 6.855776714438604813e+01 2.170000000000000000e+02
4.308685599902687180e+00 6.720535000871277020e+01 2.170000000000000000e+02
3.895202962858182794e+00 6.585293287303947807e+01 2.170000000000000000e+02
6.789581422169716163e+00 7.531985282275245197e+01 2.180000000000000000e+02
6.376098785125211776e+00 7.396743568707917404e+01 2.180000000000000000e+02
5.962616148080706502e+00 7.261501855140589612e+01 2.180000000000000000e+02
5.549133511036202115e+00 7.126260141573260398e+01 2.180000000000000000e+02
5.135650873991696841e+00 6.991018428005932606e+01 2.180000000000000000e+02
4.722168236947192455e+00 6.855776714438604813e+01 2.180000000000000000e+02
4.308685599902687180e+00 6.720535000871277020e+01 2.180000000000000000e+02
3.895202962858182794e+00 6.585293287303947807e+01 2.180000000000000000e+02
6.789581422169716163e+00 7.531985282275245197e+01 2.190000000000000000e+02
6.376098785125211776e+00 7.396743568707917404e+01 2.190000000000000000e+02
5.962616148080706502e+00 7.261501855140589612e+01 2.190000000000000000e+02
5.549133511036202115e+00 7.126260141573260398e+01 2.190000000000000000e+02
5.135650873991696841e+00 6.991018428005932606e+01 2.190000000000000000e+02
4.722168236947192455e+00 6.855776714438604813e+01 2.190000000000000000e+02
4.308685599902687180e+00 6.720535000871277020e+01 2.190000000000000000e+02
3.895202962858182794e+00 6.585293287303947807e+01 2.190000000000000000e+02
7.672531308528609095e+00 7.578932007206684318e+01 2.200000000000000000e+02
7.259048671484104709e+00 7.443690293639356526e+01 2.200000000000000000e+02
6.845566034439599434e+00 7.308448580072027312e+01 2.200000000000000000e+02
6.432083397395095048e+00 7.173206866504699519e+01 2.200000000000000000e+02
6.018600760350590662e+00 7.037965152937371727e+01 2.200000000000000000e+02
5.605118123306085387e+00 6.902723439370043934e+01 2.200000000000000000e+02
5.191635486261580112e+00 6.767481725802714720e+01 2.200000000000000000e+02
4.778152849217075726e+00 6.632240012235386928e+01 2.200000000000000000e+02
4.364670212172570452e+00 6.496998298668059135e+01 2.200000000000000000e+02
7.672531308528609095e+00 7.578932007206684318e+01 2.210000000000000000e+02
7.259048671484104709e+00 7.443690293639356526e+01 2.210000000000000000e+02
6.845566034439599434e+00 7.308448580072027312e+01 2.210000000000000000e+02
6.432083397395095048e+00 7.173206866504699519e+01 2.210000000000000000e+02
6.018600760350590662e+00 7.037965152937371727e+01 2.210000000000000000e+02
5.605118123306085387e+00 6.902723439370043934e+01 2.210000000000000000e+02
5.191635486261580112e+00 6.767481725802714720e+01 2.210000000000000000e+02
4.778152849217075726e+00 6.632240012235386928e+01 2.210000000000000000e+02
4.364670212172570452e+00 6.496998298668059135e+01 2.210000000000000000e+02
7.672531308528609095e+00 7.578932007206684318e+01 2.220000000000000000e+02
7.259048671484104709e+00 7.443690293639356526e+01 2.220000000000000000e+02
6.845566034439599434e+00 7.308448580072027312e+01 2.220000000000000000e+02
6.432083397395095048e+00 7.173206866504699519e+01 2.220000000000000000e+02
6.018600760350590662e+00 7.037965152937371727e+01 2.220000000000000000e+02
5.605118123306085387e+00 6.902723439370043934e+01 2.220000000000000000e+02
5.191635486261580112e+00 6.767481725802714720e+01 2.220000000000000000e+02
4.778152849217075726e+00 6.632240012235386928e+01 2.220000000000000000e+02
4.364670212172570452e+00 6.496998298668059135e+01 2.220000000000000000e+02
1.473613039939975344e+01 7.954505806658194444e+01 2.230000000000000000e+02
1.432264776235525083e+01 7.819264093090866652e+01 2.230000000000000000e+02
1.390916512531074467e+01 7.684022379523538859e+01 2.230000000000000000e+02
1.101478666599921041e+01 6.737330384552241469e+01 2.230000000000000000e+02
1.060130402895470603e+01 6.602088670984913676e+01 2.230000000000000000e+02
1.018782139191020164e+01 6.466846957417585884e+01 2.230000000000000000e+02
9.774338754865695478e+00 6.331605243850257381e+01 2.230000000000000000e+02
9.360856117821191091e+00 6.196363530282928878e+01 2.230000000000000000e+02
8.947373480776686705e+00 6.061121816715601085e+01 2.230000000000000000e+02
8.533890843732180542e+00 5.925880103148272582e+01 2.230000000000000000e+02
8.120408206687676156e+00 5.790638389580944789e+01 2.230000000000000000e+02
1.561908028575864726e+01 8.001452531589633566e+01 2.240000000000000000e+02
1.520559764871414110e+01 7.866210818022305773e+01 2.240000000000000000e+02
1.479211501166963849e+01 7.730969104454976559e+01 2.240000000000000000e+02
1.437863237462513233e+01 7.595727390887648767e+01 2.240000000000000000e+02
1.396514973758062617e+01 7.460485677320320974e+01 2.240000000000000000e+02
1.355166710053612356e+01 7.325243963752993182e+01 2.240000000000000000e+02
1.148425391531359807e+01 6.649035395916352797e+01 2.240000000000000000e+02
1.107077127826909368e+01 6.513793682349023584e+01 2.240000000000000000e+02
1.065728864122458930e+01 6.378551968781695791e+01 2.240000000000000000e+02
1.024380600418008314e+01 6.243310255214367999e+01 2.240000000000000000e+02
9.830323367135580526e+00 6.108068541647040206e+01 2.240000000000000000e+02
9.416840730091074363e+00 5.972826828079711703e+01 2.240000000000000000e+02
9.003358093046568200e+00 5.837585114512383200e+01 2.240000000000000000e+02
8.589875456002065590e+00 5.702343400945055407e+01 2.240000000000000000e+02
1.650203017211753931e+01 8.048399256521072687e+01 2.250000000000000000e+02
1.608854753507303315e+01 7.913157542953743473e+01 2.250000000000000000e+02
1.567506489802853054e+01 7.777915829386415680e+01 2.250000000000000000e+02
1.526158226098402615e+01 7.642674115819087888e+01 2.250000000000000000e+02
1.484809962393951999e+01 7.507432402251760095e+01 2.250000000000000000e+02
1.443461698689501560e+01 7.372190688684432303e+01 2.250000000000000000e+02
1.402113434985051121e+01 7.236948975117103089e+01 2.250000000000000000e+02
1.195372116462798573e+01 6.560740407280462705e+01 2.250000000000000000e+02
1.154023852758348312e+01 6.425498693713134912e+01 2.250000000000000000e+02
1.112675589053897696e+01 6.290256980145807120e+01 2.250000000000000000e+02
1.071327325349447257e+01 6.155015266578478617e+01 2.250000000000000000e+02
1.029979061644996818e+01 6.019773553011150113e+01 2.250000000000000000e+02
9.886307979405462021e+00 5.884531839443822321e+01 2.250000000000000000e+02
9.472825342360957634e+00 5.749290125876494528e+01 2.250000000000000000e+02
9.059342705316453248e+00 5.614048412309166025e+01 2.250000000000000000e+02
1.738498005847643313e+01 8.095345981452510387e+01 2.260000000000000000e+02
1.697149742143192697e+01 7.960104267885182594e+01 2.260000000000000000e+02
1.655801478438742436e+01 7.824862554317854801e+01 2.260000000000000000e+02
1.614453214734291819e+01 7.689620840750527009e+01 2.260000000000000000e+02
1.573104951029841381e+01 7.554379127183199216e+01 2.260000000000000000e+02
1.531756687325390942e+01 7.419137413615870003e+01 2.260000000000000000e+02
1.490408423620940326e+01 7.283895700048542210e+01 2.260000000000000000e+02
1.449060159916489887e+01 7.148653986481214417e+01 2.260000000000000000e+02
1.407711896212039449e+01 7.013412272913886625e+01 2.260000000000000000e+02
1.200970577689787078e+01 6.337203705077245530e+01 2.260000000000000000e+02
1.159622313985336461e+01 6.201961991509917027e+01 2.260000000000000000e+02
1.118274050280886200e+01 6.066720277942589234e+01 2.260000000000000000e+02
1.076925786576435584e+01 5.931478564375261442e+01 2.260000000000000000e+02
1.035577522871985146e+01 5.796236850807932939e+01 2.260000000000000000e+02
9.942292591675347069e+00 5.660995137240605146e+01 2.260000000000000000e+02
9.528809954630840906e+00 5.525753423673276643e+01 2.260000000000000000e+02
1.826792994483532340e+01 8.142292706383949508e+01 2.270000000000000000e+02
1.785444730779082079e+01 8.007050992816621715e+01 2.270000000000000000e+02
1.744096467074631818e+01 7.871809279249293922e+01 2.270000000000000000e+02
1.702748203370181201e+01 7.736567565681966130e+01 2.270000000000000000e+02
1.661399939665730585e+01 7.601325852114636916e+01 2.270000000000000000e+02
1.620051675961280324e+01 7.466084138547309124e+01 2.270000000000000000e+02
1.578703412256829708e+01 7.330842424979981331e+01 2.270000000000000000e+02
1.537355148552379092e+01 7.195600711412653538e+01 2.270000000000000000e+02
1.496006884847928831e+01 7.060358997845324325e+01 2.270000000000000000e+02
1.454658621143478392e+01 6.925117284277996532e+01 2.270000000000000000e+02
1.206569038916775405e+01 6.113667002874028356e+01 2.270000000000000000e+02
1.165220775212324966e+01 5.978425289306699852e+01 2.270000000000000000e+02
1.123872511507874350e+01 5.843183575739372060e+01 2.270000000000000000e+02
1.082524247803423911e+01 5.707941862172043557e+01 2.270000000000000000e+02
1.041175984098973473e+01 5.572700148604715764e+01 2.270000000000000000e+02
1.826792994483532340e+01 8.142292706383949508e+01 2.280000000000000000e+02
1.785444730779082079e+01 8.007050992816621715e+01 2.280000000000000000e+02
1.744096467074631818e+01 7.871809279249293922e+01 2.280000000000000000e+02
1.702748203370181201e+01 7.736567565681966130e+01 2.280000000000000000e+02
1.661399939665730585e+01 7.601325852114636916e+01 2.280000000000000000e+02
1.620051675961280324e+01 7.466084138547309124e+01 2.280000000000000000e+02
1.578703412256829708e+01 7.330842424979981331e+01 2.280000000000000000e+02
1.537355148552379092e+01 7.195600711412653538e+01 2.280000000000000000e+02
1.496006884847928831e+01 7.060358997845324325e+01 2.280000000000000000e+02
1.454658621143478392e+01 6.925117284277996532e+01 2.280000000000000000e+02
1.123872511507874350e+01 5.843183575739372060e+01 2.280000000000000000e+02
1.082524247803423911e+01 5.707941862172043557e+01 2.280000000000000000e+02
1.826792994483532340e+01 8.142292706383949508e+01 2.290000000000000000e+02
1.785444730779082079e+01 8.007050992816621715e+01 2.290000000000000000e+02
1.744096467074631818e+01 7.871809279249293922e+01 2.290000000000000000e+02
1.702748203370181201e+01 7.736567565681966130e+01 2.290000000000000000e+02
1.661399939665730585e+01 7.601325852114636916e+01 2.290000000000000000e+02
1.620051675961280324e+01 7.466084138547309124e+01 2.290000000000000000e+02
1.578703412256829708e+01 7.330842424979981331e+01 2.290000000000000000e+02
1.537355148552379092e+01 7.195600711412653538e+01 2.290000000000000000e+02
1.496006884847928831e+01 7.060358997845324325e+01 2.290000000000000000e+02
1.454658621143478392e+01 6.925117284277996532e+01 2.290000000000000000e+02
1.826792994483532340e+01 8.142292706383949508e+01 2.300000000000000000e+02
1.785444730779082079e+01 8.007050992816621715e+01 2.300000000000000000e+02
1.744096467074631818e+01 7.871809279249293922e+01 2.300000000000000000e+02
1.702748203370181201e+01 7.736567565681966130e+01 2.300000000000000000e+02
1.661399939665730585e+01 7.601325852114636916e+01 2.300000000000000000e+02
1.620051675961280324e+01 7.466084138547309124e+01 2.300000000000000000e+02
1.578703412256829708e+01 7.330842424979981331e+01 2.300000000000000000e+02
1.537355148552379092e+01 7.195600711412653538e+01 2.300000000000000000e+02
1.496006884847928831e+01 7.060358997845324325e+01 2.300000000000000000e+02
1.454658621143478392e+01 6.925117284277996532e+01 2.300000000000000000e+02
1.738498005847643313e+01 8.095345981452510387e+01 2.310000000000000000e+02
1.697149742143192697e+01 7.960104267885182594e+01 2.310000000000000000e+02
1.655801478438742436e+01 7.824862554317854801e+01 2.310000000000000000e+02
1.614453214734291819e+01 7.689620840750527009e+01 2.310000000000000000e+02
1.573104951029841381e+01 7.554379127183199216e+01 2.310000000000000000e+02
1.531756687325390942e+01 7.419137413615870003e+01 2.310000000000000000e+02
1.490408423620940326e+01 7.283895700048542210e+01 2.310000000000000000e+02
1.449060159916489887e+01 7.148653986481214417e+01 2.310000000000000000e+02
1.407711896212039449e+01 7.013412272913886625e+01 2.310000000000000000e+02
1.738498005847643313e+01 8.095345981452510387e+01 2.320000000000000000e+02
1.697149742143192697e+01 7.960104267885182594e+01 2.320000000000000000e+02
1.655801478438742436e+01 7.824862554317854801e+01 2.320000000000000000e+02
1.614453214734291819e+01 7.689620840750527009e+01 2.320000000000000000e+02
1.573104951029841381e+01 7.554379127183199216e+01 2.320000000000000000e+02
1.531756687325390942e+01 7.419137413615870003e+01 2.320000000000000000e+02
1.490408423620940326e+01 7.283895700048542210e+01 2.320000000000000000e+02
1.449060159916489887e+01 7.148653986481214417e+01 2.320000000000000000e+02
1.738498005847643313e+01 8.095345981452510387e+01 2.330000000000000000e+02
1.697149742143192697e+01 7.960104267885182594e+01 2.330000000000000000e+02
1.655801478438742436e+01 7.824862554317854801e+01 2.330000000000000000e+02
1.614453214734291819e+01 7.689620840750527009e+01 2.330000000000000000e+02
1.573104951029841381e+01 7.554379127183199216e+01 2.330000000000000000e+02
1.531756687325390942e+01 7.419137413615870003e+01 2.330000000000000000e+02
1.490408423620940326e+01 7.283895700048542210e+01 2.330000000000000000e+02
1.449060159916489887e+01 7.148653986481214417e+01 2.330000000000000000e+02
1.738498005847643313e+01 8.095345981452510387e+01 2.340000000000000000e+02
1.697149742143192697e+01 7.960104267885182594e+01 2.340000000000000000e+02
1.655801478438742436e+01 7.824862554317854801e+01 2.340000000000000000e+02
1.614453214734291819e+01 7.689620840750527009e+01 2.340000000000000000e+02
1.573104951029841381e+01 7.554379127183199216e+01 2.340000000000000000e+02
1.531756687325390942e+01 7.419137413615870003e+01 2.340000000000000000e+02
1.490408423620940326e+01 7.283895700048542210e+01 2.340000000000000000e+02
1.159622313985336461e+01 6.201961991509917027e+01 2.340000000000000000e+02
1.118274050280886200e+01 6.066720277942589234e+01 2.340000000000000000e+02
1.076925786576435584e+01 5.931478564375261442e+01 2.340000000000000000e+02
1.035577522871985146e+01 5.796236850807932939e+01 2.340000000000000000e+02
1.561908028575864726e+01 8.001452531589633566e+01 2.350000000000000000e+02
1.520559764871414110e+01 7.866210818022305773e+01 2.350000000000000000e+02
1.479211501166963849e+01 7.730969104454976559e+01 2.350000000000000000e+02
1.437863237462513233e+01 7.595727390887648767e+01 2.350000000000000000e+02
1.148425391531359807e+01 6.649035395916352797e+01 2.350000000000000000e+02
1.107077127826909368e+01 6.513793682349023584e+01 2.350000000000000000e+02
1.065728864122458930e+01 6.378551968781695791e+01 2.350000000000000000e+02
1.024380600418008314e+01 6.243310255214367999e+01 2.350000000000000000e+02
9.830323367135580526e+00 6.108068541647040206e+01 2.350000000000000000e+02
9.416840730091074363e+00 5.972826828079711703e+01 2.350000000000000000e+02
9.003358093046568200e+00 5.837585114512383200e+01 2.350000000000000000e+02
8.589875456002065590e+00 5.702343400945055407e+01 2.350000000000000000e+02
5.906631535810823230e+00 7.485038557343806076e+01 2.360000000000000000e+02
5.493148898766318844e+00 7.349796843776478283e+01 2.360000000000000000e+02
5.079666261721813569e+00 7.214555130209150491e+01 2.360000000000000000e+02
4.666183624677309183e+00 7.079313416641822698e+01 2.360000000000000000e+02
4.252700987632803908e+00 6.944071703074493485e+01 2.360000000000000000e+02
3.839218350588299078e+00 6.808829989507165692e+01 2.360000000000000000e+02
3.425735713543794247e+00 6.673588275939837899e+01 2.360000000000000000e+02
5.906631535810823230e+00 7.485038557343806076e+01 2.370000000000000000e+02
5.493148898766318844e+00 7.349796843776478283e+01 2.370000000000000000e+02
5.079666261721813569e+00 7.214555130209150491e+01 2.370000000000000000e+02
4.666183624677309183e+00 7.079313416641822698e+01 2.370000000000000000e+02
4.252700987632803908e+00 6.944071703074493485e+01 2.370000000000000000e+02
3.839218350588299078e+00 6.808829989507165692e+01 2.370000000000000000e+02
3.425735713543794247e+00 6.673588275939837899e+01 2.370000000000000000e+02
5.906631535810823230e+00 7.485038557343806076e+01 2.380000000000000000e+02
5.493148898766318844e+00 7.349796843776478283e+01 2.380000000000000000e+02
5.079666261721813569e+00 7.214555130209150491e+01 2.380000000000000000e+02
4.666183624677309183e+00 7.079313416641822698e+01 2.380000000000000000e+02
4.252700987632803908e+00 6.944071703074493485e+01 2.380000000000000000e+02
3.839218350588299078e+00 6.808829989507165692e+01 2.380000000000000000e+02
3.425735713543794247e+00 6.673588275939837899e+01 2.380000000000000000e+02
3.012253076499289861e+00 6.538346562372510107e+01 2.380000000000000000e+02
6.789581422169716163e+00 7.531985282275245197e+01 2.390000000000000000e+02
6.376098785125211776e+00 7.396743568707917404e+01 2.390000000000000000e+02
5.962616148080706502e+00 7.261501855140589612e+01 2.390000000000000000e+02
5.549133511036202115e+00 7.126260141573260398e+01 2.390000000000000000e+02
5.135650873991696841e+00 6.991018428005932606e+01 2.390000000000000000e+02
4.722168236947192455e+00 6.855776714438604813e+01 2.390000000000000000e+02
4.308685599902687180e+00 6.720535000871277020e+01 2.390000000000000000e+02
3.895202962858182794e+00 6.585293287303947807e+01 2.390000000000000000e+02
3.481720325813677519e+00 6.450051573736620014e+01 2.390000000000000000e+02
5.906631535810823230e+00 7.485038557343806076e+01 2.400000000000000000e+02
5.493148898766318844e+00 7.349796843776478283e+01 2.400000000000000000e+02
5.079666261721813569e+00 7.214555130209150491e+01 2.400000000000000000e+02
4.666183624677309183e+00 7.079313416641822698e+01 2.400000000000000000e+02
4.252700987632803908e+00 6.944071703074493485e+01 2.400000000000000000e+02
3.839218350588299078e+00 6.808829989507165692e+01 2.400000000000000000e+02
3.425735713543794247e+00 6.673588275939837899e+01 2.400000000000000000e+02
3.012253076499289861e+00 6.538346562372510107e+01 2.400000000000000000e+02
2.598770439454784587e+00 6.403104848805180893e+01 2.400000000000000000e+02
5.906631535810823230e+00 7.485038557343806076e+01 2.410000000000000000e+02
5.493148898766318844e+00 7.349796843776478283e+01 2.410000000000000000e+02
5.079666261721813569e+00 7.214555130209150491e+01 2.410000000000000000e+02
4.666183624677309183e+00 7.079313416641822698e+01 2.410000000000000000e+02
4.252700987632803908e+00 6.944071703074493485e+01 2.410000000000000000e+02
3.839218350588299078e+00 6.808829989507165692e+01 2.410000000000000000e+02
3.425735713543794247e+00 6.673588275939837899e+01 2.410000000000000000e+02
3.012253076499289861e+00 6.538346562372510107e+01 2.410000000000000000e+02
2.598770439454784587e+00 6.403104848805180893e+01 2.410000000000000000e+02
5.906631535810823230e+00 7.485038557343806076e+01 2.420000000000000000e+02
5.493148898766318844e+00 7.349796843776478283e+01 2.420000000000000000e+02
5.079666261721813569e+00 7.214555130209150491e+01 2.420000000000000000e+02
4.666183624677309183e+00 7.079313416641822698e+01 2.420000000000000000e+02
4.252700987632803908e+00 6.944071703074493485e+01 2.420000000000000000e+02
3.839218350588299078e+00 6.808829989507165692e+01 2.420000000000000000e+02
3.425735713543794247e+00 6.673588275939837899e+01 2.420000000000000000e+02
3.012253076499289861e+00 6.538346562372510107e+01 2.420000000000000000e+02
2.598770439454784587e+00 6.403104848805180893e+01 2.420000000000000000e+02
5.906631535810823230e+00 7.485038557343806076e+01 2.430000000000000000e+02
5.493148898766318844e+00 7.349796843776478283e+01 2.430000000000000000e+02
5.079666261721813569e+00 7.214555130209150491e+01 2.430000000000000000e+02
4.666183624677309183e+00 7.079313416641822698e+01 2.430000000000000000e+02
4.252700987632803908e+00 6.944071703074493485e+01 2.430000000000000000e+02
3.839218350588299078e+00 6.808829989507165692e+01 2.430000000000000000e+02
3.425735713543794247e+00 6.673588275939837899e+01 2.430000000000000000e+02
3.012253076499289861e+00 6.538346562372510107e+01 2.430000000000000000e+02
2.598770439454784587e+00 6.403104848805180893e+01 2.430000000000000000e+02
5.906631535810823230e+00 7.485038557343806076e+01 2.440000000000000000e+02
5.493148898766318844e+00 7.349796843776478283e+01 2.440000000000000000e+02
5.079666261721813569e+00 7.214555130209150491e+01 2.440000000000000000e+02
4.666183624677309183e+00 7.079313416641822698e+01 2.440000000000000000e+02
4.252700987632803908e+00 6.944071703074493485e+01 2.440000000000000000e+02
3.839218350588299078e+00 6.808829989507165692e+01 2.440000000000000000e+02
3.425735713543794247e+00 6.673588275939837899e+01 2.440000000000000000e+02
3.012253076499289861e+00 6.538346562372510107e+01 2.440000000000000000e+02
2.598770439454784587e+00 6.403104848805180893e+01 2.440000000000000000e+02
5.906631535810823230e+00 7.485038557343806076e+01 2.450000000000000000e+02
5.493148898766318844e+00 7.349796843776478283e+01 2.450000000000000000e+02
5.079666261721813569e+00 7.214555130209150491e+01 2.450000000000000000e+02
4.666183624677309183e+00 7.079313416641822698e+01 2.450000000000000000e+02
4.252700987632803908e+00 6.944071703074493485e+01 2.450000000000000000e+02
3.839218350588299078e+00 6.808829989507165692e+01 2.450000000000000000e+02
3.425735713543794247e+00 6.673588275939837899e+01 2.450000000000000000e+02
3.012253076499289861e+00 6.538346562372510107e+01 2.450000000000000000e+02
2.598770439454784587e+00 6.403104848805180893e+01 2.450000000000000000e+02
5.023681649451930298e+00 7.438091832412368376e+01 2.460000000000000000e+02
4.610199012407425911e+00 7.302850118845039162e+01 2.460000000000000000e+02
4.196716375362920637e+00 7.167608405277711370e+01 2.460000000000000000e+02
3.783233738318415806e+00 7.032366691710383577e+01 2.460000000000000000e+02
3.369751101273910976e+00 6.897124978143055785e+01 2.460000000000000000e+02
2.956268464229406145e+00 6.761883264575726571e+01 2.460000000000000000e+02
2.542785827184901315e+00 6.626641551008398778e+01 2.460000000000000000e+02
2.129303190140396929e+00 6.491399837441070986e+01 2.460000000000000000e+02
5.023681649451930298e+00 7.438091832412368376e+01 2.470000000000000000e+02
4.610199012407425911e+00 7.302850118845039162e+01 2.470000000000000000e+02
4.196716375362920637e+00 7.167608405277711370e+01 2.470000000000000000e+02
3.783233738318415806e+00 7.032366691710383577e+01 2.470000000000000000e+02
3.369751101273910976e+00 6.897124978143055785e+01 2.470000000000000000e+02
2.956268464229406145e+00 6.761883264575726571e+01 2.470000000000000000e+02
2.542785827184901315e+00 6.626641551008398778e+01 2.470000000000000000e+02
2.129303190140396929e+00 6.491399837441070986e+01 2.470000000000000000e+02
5.023681649451930298e+00 7.438091832412368376e+01 2.480000000000000000e+02
4.610199012407425911e+00 7.302850118845039162e+01 2.480000000000000000e+02
4.196716375362920637e+00 7.167608405277711370e+01 2.480000000000000000e+02
3.783233738318415806e+00 7.032366691710383577e+01 2.480000000000000000e+02
3.369751101273910976e+00 6.897124978143055785e+01 2.480000000000000000e+02
2.956268464229406145e+00 6.761883264575726571e+01 2.480000000000000000e+02
2.542785827184901315e+00 6.626641551008398778e+01 2.480000000000000000e+02
2.129303190140396929e+00 6.491399837441070986e+01 2.480000000000000000e+02
5.023681649451930298e+00 7.438091832412368376e+01 2.490000000000000000e+02
4.610199012407425911e+00 7.302850118845039162e+01 2.490000000000000000e+02
4.196716375362920637e+00 7.167608405277711370e+01 2.490000000000000000e+02
3.783233738318415806e+00 7.032366691710383577e+01 2.490000000000000000e+02
3.369751101273910976e+00 6.897124978143055785e+01 2.490000000000000000e+02
2.956268464229406145e+00 6.761883264575726571e+01 2.490000000000000000e+02
2.542785827184901315e+00 6.626641551008398778e+01 2.490000000000000000e+02
2.129303190140396929e+00 6.491399837441070986e+01 2.490000000000000000e+02
5.023681649451930298e+00 7.438091832412368376e+01 2.500000000000000000e+02
4.610199012407425911e+00 7.302850118845039162e+01 2.500000000000000000e+02
4.196716375362920637e+00 7.167608405277711370e+01 2.500000000000000000e+02
3.783233738318415806e+00 7.032366691710383577e+01 2.500000000000000000e+02
3.369751101273910976e+00 6.897124978143055785e+01 2.500000000000000000e+02
2.956268464229406145e+00 6.761883264575726571e+01 2.500000000000000000e+02
2.542785827184901315e+00 6.626641551008398778e+01 2.500000000000000000e+02
2.129303190140396929e+00 6.491399837441070986e+01 2.500000000000000000e+02
5.023681649451930298e+00 7.438091832412368376e+01 2.510000000000000000e+02
4.610199012407425911e+00 7.302850118845039162e+01 2.510000000000000000e+02
4.196716375362920637e+00 7.167608405277711370e+01 2.510000000000000000e+02
3.783233738318415806e+00 7.032366691710383577e+01 2.510000000000000000e+02
3.369751101273910976e+00 6.897124978143055785e+01 2.510000000000000000e+02
2.956268464229406145e+00 6.761883264575726571e+01 2.510000000000000000e+02
2.542785827184901315e+00 6.626641551008398778e+01 2.510000000000000000e+02
2.129303190140396929e+00 6.491399837441070986e+01 2.510000000000000000e+02
5.023681649451930298e+00 7.438091832412368376e+01 2.520000000000000000e+02
4.610199012407425911e+00 7.302850118845039162e+01 2.520000000000000000e+02
4.196716375362920637e+00 7.167608405277711370e+01 2.520000000000000000e+02
3.783233738318415806e+00 7.032366691710383577e+01 2.520000000000000000e+02
3.369751101273910976e+00 6.897124978143055785e+01 2.520000000000000000e+02
2.956268464229406145e+00 6.761883264575726571e+01 2.520000000000000000e+02
2.542785827184901315e+00 6.626641551008398778e+01 2.520000000000000000e+02
2.129303190140396929e+00 6.491399837441070986e+01 2.520000000000000000e+02
5.023681649451930298e+00 7.438091832412368376e+01 2.530000000000000000e+02
4.610199012407425911e+00 7.302850118845039162e+01 2.530000000000000000e+02
4.196716375362920637e+00 7.167608405277711370e+01 2.530000000000000000e+02
3.783233738318415806e+00 7.032366691710383577e+01 2.530000000000000000e+02
3.369751101273910976e+00 6.897124978143055785e+01 2.530000000000000000e+02
2.956268464229406145e+00 6.761883264575726571e+01 2.530000000000000000e+02
2.542785827184901315e+00 6.626641551008398778e+01 2.530000000000000000e+02
2.129303190140396929e+00 6.491399837441070986e+01 2.530000000000000000e+02
5.023681649451930298e+00 7.438091832412368376e+01 2.540000000000000000e+02
4.610199012407425911e+00 7.302850118845039162e+01 2.540000000000000000e+02
4.196716375362920637e+00 7.167608405277711370e+01 2.540000000000000000e+02
3.783233738318415806e+00 7.032366691710383577e+01 2.540000000000000000e+02
3.369751101273910976e+00 6.897124978143055785e+01 2.540000000000000000e+02
2.956268464229406145e+00 6.761883264575726571e+01 2.540000000000000000e+02
2.542785827184901315e+00 6.626641551008398778e+01 2.540000000000000000e+02
2.129303190140396929e+00 6.491399837441070986e+01 2.540000000000000000e+02
5.906631535810823230e+00 7.485038557343806076e+01 2.550000000000000000e+02
5.493148898766318844e+00 7.349796843776478283e+01 2.550000000000000000e+02
5.079666261721813569e+00 7.214555130209150491e+01 2.550000000000000000e+02
4.666183624677309183e+00 7.079313416641822698e+01 2.550000000000000000e+02
4.252700987632803908e+00 6.944071703074493485e+01 2.550000000000000000e+02
3.839218350588299078e+00 6.808829989507165692e+01 2.550000000000000000e+02
3.425735713543794247e+00 6.673588275939837899e+01 2.550000000000000000e+02
3.012253076499289861e+00 6.538346562372510107e+01 2.550000000000000000e+02
2.598770439454784587e+00 6.403104848805180893e+01 2.550000000000000000e+02
5.023681649451930298e+00 7.438091832412368376e+01 2.560000000000000000e+02
4.610199012407425911e+00 7.302850118845039162e+01 2.560000000000000000e+02
4.196716375362920637e+00 7.167608405277711370e+01 2.560000000000000000e+02
3.783233738318415806e+00 7.032366691710383577e+01 2.560000000000000000e+02
3.369751101273910976e+00 6.897124978143055785e+01 2.560000000000000000e+02
2.956268464229406145e+00 6.761883264575726571e+01 2.560000000000000000e+02
2.542785827184901315e+00 6.626641551008398778e+01 2.560000000000000000e+02
2.129303190140396929e+00 6.491399837441070986e+01 2.560000000000000000e+02
5.023681649451930298e+00 7.438091832412368376e+01 2.570000000000000000e+02
4.610199012407425911e+00 7.302850118845039162e+01 2.570000000000000000e+02
4.196716375362920637e+00 7.167608405277711370e+01 2.570000000000000000e+02
3.783233738318415806e+00 7.032366691710383577e+01 2.570000000000000000e+02
3.369751101273910976e+00 6.897124978143055785e+01 2.570000000000000000e+02
2.956268464229406145e+00 6.761883264575726571e+01 2.570000000000000000e+02
2.542785827184901315e+00 6.626641551008398778e+01 2.570000000000000000e+02
2.129303190140396929e+00 6.491399837441070986e+01 2.570000000000000000e+02
5.023681649451930298e+00 7.438091832412368376e+01 2.580000000000000000e+02
4.610199012407425911e+00 7.302850118845039162e+01 2.580000000000000000e+02
4.196716375362920637e+00 7.167608405277711370e+01 2.580000000000000000e+02
3.783233738318415806e+00 7.032366691710383577e+01 2.580000000000000000e+02
3.369751101273910976e+00 6.897124978143055785e+01 2.580000000000000000e+02
2.956268464229406145e+00 6.761883264575726571e+01 2.580000000000000000e+02
2.542785827184901315e+00 6.626641551008398778e+01 2.580000000000000000e+02
2.129303190140396929e+00 6.491399837441070986e+01 2.580000000000000000e+02
5.023681649451930298e+00 7.438091832412368376e+01 2.590000000000000000e+02
4.610199012407425911e+00 7.302850118845039162e+01 2.590000000000000000e+02
4.196716375362920637e+00 7.167608405277711370e+01 2.590000000000000000e+02
3.783233738318415806e+00 7.032366691710383577e+01 2.590000000000000000e+02
3.369751101273910976e+00 6.897124978143055785e+01 2.590000000000000000e+02
2.956268464229406145e+00 6.761883264575726571e+01 2.590000000000000000e+02
2.542785827184901315e+00 6.626641551008398778e+01 2.590000000000000000e+02
2.129303190140396929e+00 6.491399837441070986e+01 2.590000000000000000e+02
5.023681649451930298e+00 7.438091832412368376e+01 2.600000000000000000e+02
4.610199012407425911e+00 7.302850118845039162e+01 2.600000000000000000e+02
4.196716375362920637e+00 7.167608405277711370e+01 2.600000000000000000e+02
3.783233738318415806e+00 7.032366691710383577e+01 2.600000000000000000e+02
3.369751101273910976e+00 6.897124978143055785e+01 2.600000000000000000e+02
2.956268464229406145e+00 6.761883264575726571e+01 2.600000000000000000e+02
2.542785827184901315e+00 6.626641551008398778e+01 2.600000000000000000e+02
2.129303190140396929e+00 6.491399837441070986e+01 2.600000000000000000e+02
5.023681649451930298e+00 7.438091832412368376e+01 2.610000000000000000e+02
4.610199012407425911e+00 7.302850118845039162e+01 2.610000000000000000e+02
4.196716375362920637e+00 7.167608405277711370e+01 2.610000000000000000e+02
3.783233738318415806e+00 7.032366691710383577e+01 2.610000000000000000e+02
3.369751101273910976e+00 6.897124978143055785e+01 2.610000000000000000e+02
2.956268464229406145e+00 6.761883264575726571e+01 2.610000000000000000e+02
2.542785827184901315e+00 6.626641551008398778e+01 2.610000000000000000e+02
2.129303190140396929e+00 6.491399837441070986e+01 2.610000000000000000e+02
5.023681649451930298e+00 7.438091832412368376e+01 2.620000000000000000e+02
4.610199012407425911e+00 7.302850118845039162e+01 2.620000000000000000e+02
4.196716375362920637e+00 7.167608405277711370e+01 2.620000000000000000e+02
3.783233738318415806e+00 7.032366691710383577e+01 2.620000000000000000e+02
3.369751101273910976e+00 6.897124978143055785e+01 2.620000000000000000e+02
2.956268464229406145e+00 6.761883264575726571e+01 2.620000000000000000e+02
2.542785827184901315e+00 6.626641551008398778e+01 2.620000000000000000e+02
2.129303190140396929e+00 6.491399837441070986e+01 2.620000000000000000e+02
5.023681649451930298e+00 7.438091832412368376e+01 2.630000000000000000e+02
4.610199012407425911e+00 7.302850118845039162e+01 2.630000000000000000e+02
4.196716375362920637e+00 7.167608405277711370e+01 2.630000000000000000e+02
3.783233738318415806e+00 7.032366691710383577e+01 2.630000000000000000e+02
3.369751101273910976e+00 6.897124978143055785e+01 2.630000000000000000e+02
2.956268464229406145e+00 6.761883264575726571e+01 2.630000000000000000e+02
2.542785827184901315e+00 6.626641551008398778e+01 2.630000000000000000e+02
2.129303190140396929e+00 6.491399837441070986e+01 2.630000000000000000e+02
5.023681649451930298e+00 7.438091832412368376e+01 2.640000000000000000e+02
4.610199012407425911e+00 7.302850118845039162e+01 2.640000000000000000e+02
4.196716375362920637e+00 7.167608405277711370e+01 2.640000000000000000e+02
3.783233738318415806e+00 7.032366691710383577e+01 2.640000000000000000e+02
3.369751101273910976e+00 6.897124978143055785e+01 2.640000000000000000e+02
2.956268464229406145e+00 6.761883264575726571e+01 2.640000000000000000e+02
2.542785827184901315e+00 6.626641551008398778e+01 2.640000000000000000e+02
2.129303190140396929e+00 6.491399837441070986e+01 2.640000000000000000e+02
5.023681649451930298e+00 7.438091832412368376e+01 2.650000000000000000e+02
4.610199012407425911e+00 7.302850118845039162e+01 2.650000000000000000e+02
4.196716375362920637e+00 7.167608405277711370e+01 2.650000000000000000e+02
3.783233738318415806e+00 7.032366691710383577e+01 2.650000000000000000e+02
3.369751101273910976e+00 6.897124978143055785e+01 2.650000000000000000e+02
2.956268464229406145e+00 6.761883264575726571e+01 2.650000000000000000e+02
2.542785827184901315e+00 6.626641551008398778e+01 2.650000000000000000e+02
2.129303190140396929e+00 6.491399837441070986e+01 2.650000000000000000e+02
5.023681649451930298e+00 7.438091832412368376e+01 2.660000000000000000e+02
4.610199012407425911e+00 7.302850118845039162e+01 2.660000000000000000e+02
4.196716375362920637e+00 7.167608405277711370e+01 2.660000000000000000e+02
3.783233738318415806e+00 7.032366691710383577e+01 2.660000000000000000e+02
3.369751101273910976e+00 6.897124978143055785e+01 2.660000000000000000e+02
2.956268464229406145e+00 6.761883264575726571e+01 2.660000000000000000e+02
2.542785827184901315e+00 6.626641551008398778e+01 2.660000000000000000e+02
2.129303190140396929e+00 6.491399837441070986e+01 2.660000000000000000e+02
5.023681649451930298e+00 7.438091832412368376e+01 2.670000000000000000e+02
4.610199012407425911e+00 7.302850118845039162e+01 2.670000000000000000e+02
4.196716375362920637e+00 7.167608405277711370e+01 2.670000000000000000e+02
3.783233738318415806e+00 7.032366691710383577e+01 2.670000000000000000e+02
3.369751101273910976e+00 6.897124978143055785e+01 2.670000000000000000e+02
2.956268464229406145e+00 6.761883264575726571e+01 2.670000000000000000e+02
2.542785827184901315e+00 6.626641551008398778e+01 2.670000000000000000e+02
2.129303190140396929e+00 6.491399837441070986e+01 2.670000000000000000e+02
5.023681649451930298e+00 7.438091832412368376e+01 2.680000000000000000e+02
4.610199012407425911e+00 7.302850118845039162e+01 2.680000000000000000e+02
4.196716375362920637e+00 7.167608405277711370e+01 2.680000000000000000e+02
3.783233738318415806e+00 7.032366691710383577e+01 2.680000000000000000e+02
3.369751101273910976e+00 6.897124978143055785e+01 2.680000000000000000e+02
2.956268464229406145e+00 6.761883264575726571e+01 2.680000000000000000e+02
2.542785827184901315e+00 6.626641551008398778e+01 2.680000000000000000e+02
2.129303190140396929e+00 6.491399837441070986e+01 2.680000000000000000e+02
5.023681649451930298e+00 7.438091832412368376e+01 2.690000000000000000e+02
4.610199012407425911e+00 7.302850118845039162e+01 2.690000000000000000e+02
4.196716375362920637e+00 7.167608405277711370e+01 2.690000000000000000e+02
3.783233738318415806e+00 7.032366691710383577e+01 2.690000000000000000e+02
3.369751101273910976e+00 6.897124978143055785e+01 2.690000000000000000e+02
2.956268464229406145e+00 6.761883264575726571e+01 2.690000000000000000e+02
2.542785827184901315e+00 6.626641551008398778e+01 2.690000000000000000e+02
2.129303190140396929e+00 6.491399837441070986e+01 2.690000000000000000e+02
5.023681649451930298e+00 7.438091832412368376e+01 2.700000000000000000e+02
4.610199012407425911e+00 7.302850118845039162e+01 2.700000000000000000e+02
4.196716375362920637e+00 7.167608405277711370e+01 2.700000000000000000e+02
3.783233738318415806e+00 7.032366691710383577e+01 2.700000000000000000e+02
3.369751101273910976e+00 6.897124978143055785e+01 2.700000000000000000e+02
2.956268464229406145e+00 6.761883264575726571e+01 2.700000000000000000e+02
2.542785827184901315e+00 6.626641551008398778e+01 2.700000000000000000e+02
2.129303190140396929e+00 6.491399837441070986e+01 2.700000000000000000e+02
5.023681649451930298e+00 7.438091832412368376e+01 2.710000000000000000e+02
4.610199012407425911e+00 7.302850118845039162e+01 2.710000000000000000e+02
4.196716375362920637e+00 7.167608405277711370e+01 2.710000000000000000e+02
3.783233738318415806e+00 7.032366691710383577e+01 2.710000000000000000e+02
3.369751101273910976e+00 6.897124978143055785e+01 2.710000000000000000e+02
2.956268464229406145e+00 6.761883264575726571e+01 2.710000000000000000e+02
2.542785827184901315e+00 6.626641551008398778e+01 2.710000000000000000e+02
2.129303190140396929e+00 6.491399837441070986e+01 2.710000000000000000e+02
5.023681649451930298e+00 7.438091832412368376e+01 2.720000000000000000e+02
4.610199012407425911e+00 7.302850118845039162e+01 2.720000000000000000e+02
4.196716375362920637e+00 7.167608405277711370e+01 2.720000000000000000e+02
3.783233738318415806e+00 7.032366691710383577e+01 2.720000000000000000e+02
3.369751101273910976e+00 6.897124978143055785e+01 2.720000000000000000e+02
2.956268464229406145e+00 6.761883264575726571e+01 2.720000000000000000e+02
2.542785827184901315e+00 6.626641551008398778e+01 2.720000000000000000e+02
2.129303190140396929e+00 6.491399837441070986e+01 2.720000000000000000e+02
5.023681649451930298e+00 7.438091832412368376e+01 2.730000000000000000e+02
4.610199012407425911e+00 7.302850118845039162e+01 2.730000000000000000e+02
4.196716375362920637e+00 7.167608405277711370e+01 2.730000000000000000e+02
3.783233738318415806e+00 7.032366691710383577e+01 2.730000000000000000e+02
3.369751101273910976e+00 6.897124978143055785e+01 2.730000000000000000e+02
2.956268464229406145e+00 6.761883264575726571e+01 2.730000000000000000e+02
2.542785827184901315e+00 6.626641551008398778e+01 2.730000000000000000e+02
2.129303190140396929e+00 6.491399837441070986e+01 2.730000000000000000e+02
5.023681649451930298e+00 7.438091832412368376e+01 2.740000000000000000e+02
4.610199012407425911e+00 7.302850118845039162e+01 2.740000000000000000e+02
4.196716375362920637e+00 7.167608405277711370e+01 2.740000000000000000e+02
3.783233738318415806e+00 7.032366691710383577e+01 2.740000000000000000e+02
3.369751101273910976e+00 6.897124978143055785e+01 2.740000000000000000e+02
2.956268464229406145e+00 6.761883264575726571e+01 2.740000000000000000e+02
2.542785827184901315e+00 6.626641551008398778e+01 2.740000000000000000e+02
2.129303190140396929e+00 6.491399837441070986e+01 2.740000000000000000e+02
1.715820553095891654e+00 6.356158123873742483e+01 2.740000000000000000e+02
5.023681649451930298e+00 7.438091832412368376e+01 2.750000000000000000e+02
4.610199012407425911e+00 7.302850118845039162e+01 2.750000000000000000e+02
4.196716375362920637e+00 7.167608405277711370e+01 2.750000000000000000e+02
3.783233738318415806e+00 7.032366691710383577e+01 2.750000000000000000e+02
3.369751101273910976e+00 6.897124978143055785e+01 2.750000000000000000e+02
2.956268464229406145e+00 6.761883264575726571e+01 2.750000000000000000e+02
2.542785827184901315e+00 6.626641551008398778e+01 2.750000000000000000e+02
2.129303190140396929e+00 6.491399837441070986e+01 2.750000000000000000e+02
1.715820553095891654e+00 6.356158123873742483e+01 2.750000000000000000e+02
5.023681649451930298e+00 7.438091832412368376e+01 2.760000000000000000e+02
4.610199012407425911e+00 7.302850118845039162e+01 2.760000000000000000e+02
4.196716375362920637e+00 7.167608405277711370e+01 2.760000000000000000e+02
3.783233738318415806e+00 7.032366691710383577e+01 2.760000000000000000e+02
3.369751101273910976e+00 6.897124978143055785e+01 2.760000000000000000e+02
2.956268464229406145e+00 6.761883264575726571e+01 2.760000000000000000e+02
2.542785827184901315e+00 6.626641551008398778e+01 2.760000000000000000e+02
2.129303190140396929e+00 6.491399837441070986e+01 2.760000000000000000e+02
5.023681649451930298e+00 7.438091832412368376e+01 2.770000000000000000e+02
4.610199012407425911e+00 7.302850118845039162e+01 2.770000000000000000e+02
4.196716375362920637e+00 7.167608405277711370e+01 2.770000000000000000e+02
3.783233738318415806e+00 7.032366691710383577e+01 2.770000000000000000e+02
3.369751101273910976e+00 6.897124978143055785e+01 2.770000000000000000e+02
2.956268464229406145e+00 6.761883264575726571e+01 2.770000000000000000e+02
2.542785827184901315e+00 6.626641551008398778e+01 2.770000000000000000e+02
2.129303190140396929e+00 6.491399837441070986e+01 2.770000000000000000e+02
5.023681649451930298e+00 7.438091832412368376e+01 2.780000000000000000e+02
4.610199012407425911e+00 7.302850118845039162e+01 2.780000000000000000e+02
4.196716375362920637e+00 7.167608405277711370e+01 2.780000000000000000e+02
3.783233738318415806e+00 7.032366691710383577e+01 2.780000000000000000e+02
