2.225315029307065373e+00 6.316112961437185902e+01 2.630000000000000000e+02
1.455077707240897578e+00 6.197507123988250299e+01 2.630000000000000000e+02
6.848403851747297821e-01 6.078901286539313986e+01 2.630000000000000000e+02
-8.539693689143934563e-02 5.960295449090378384e+01 2.630000000000000000e+02
-8.556342589576066970e-01 5.841689611641442781e+01 2.630000000000000000e+02
5.514174843783332669e+00 6.692721526405152588e+01 2.640000000000000000e+02
4.743937521717164429e+00 6.574115688956217696e+01 2.640000000000000000e+02
3.973700199650996190e+00 6.455509851507281383e+01 2.640000000000000000e+02
3.203462877584828394e+00 6.336904014058345069e+01 2.640000000000000000e+02
2.433225555518660599e+00 6.218298176609409467e+01 2.640000000000000000e+02
1.662988233452492359e+00 6.099692339160473864e+01 2.640000000000000000e+02
8.927509113863241197e-01 5.981086501711538261e+01 2.640000000000000000e+02
1.225135893201558801e-01 5.862480664262601948e+01 2.640000000000000000e+02
-6.477237327460114713e-01 5.743874826813666346e+01 2.640000000000000000e+02
5.514174843783332669e+00 6.692721526405152588e+01 2.650000000000000000e+02
4.743937521717164429e+00 6.574115688956217696e+01 2.650000000000000000e+02
3.973700199650996190e+00 6.455509851507281383e+01 2.650000000000000000e+02
3.203462877584828394e+00 6.336904014058345069e+01 2.650000000000000000e+02
2.433225555518660599e+00 6.218298176609409467e+01 2.650000000000000000e+02
1.662988233452492359e+00 6.099692339160473864e+01 2.650000000000000000e+02
8.927509113863241197e-01 5.981086501711538261e+01 2.650000000000000000e+02
1.225135893201558801e-01 5.862480664262601948e+01 2.650000000000000000e+02
-6.477237327460114713e-01 5.743874826813666346e+01 2.650000000000000000e+02
-1.417961054812179711e+00 5.625268989364730743e+01 2.650000000000000000e+02
4.536026995505569204e+00 6.671930473783993421e+01 2.660000000000000000e+02
3.765789673439401408e+00 6.553324636335057107e+01 2.660000000000000000e+02
2.995552351373233169e+00 6.434718798886122215e+01 2.660000000000000000e+02
2.225315029307065373e+00 6.316112961437185902e+01 2.660000000000000000e+02
1.455077707240897578e+00 6.197507123988250299e+01 2.660000000000000000e+02
6.848403851747297821e-01 6.078901286539313986e+01 2.660000000000000000e+02
-8.539693689143934563e-02 5.960295449090378384e+01 2.660000000000000000e+02
-8.556342589576066970e-01 5.841689611641442781e+01 2.660000000000000000e+02
-1.625871581023774937e+00 5.723083774192507178e+01 2.660000000000000000e+02
4.536026995505569204e+00 6.671930473783993421e+01 2.670000000000000000e+02
3.765789673439401408e+00 6.553324636335057107e+01 2.670000000000000000e+02
2.995552351373233169e+00 6.434718798886122215e+01 2.670000000000000000e+02
2.225315029307065373e+00 6.316112961437185902e+01 2.670000000000000000e+02
1.455077707240897578e+00 6.197507123988250299e+01 2.670000000000000000e+02
6.848403851747297821e-01 6.078901286539313986e+01 2.670000000000000000e+02
-8.539693689143934563e-02 5.960295449090378384e+01 2.670000000000000000e+02
-8.556342589576066970e-01 5.841689611641442781e+01 2.670000000000000000e+02
-1.625871581023774937e+00 5.723083774192507178e+01 2.670000000000000000e+02
5.514174843783332669e+00 6.692721526405152588e+01 2.680000000000000000e+02
4.743937521717164429e+00 6.574115688956217696e+01 2.680000000000000000e+02
3.973700199650996190e+00 6.455509851507281383e+01 2.680000000000000000e+02
3.203462877584828394e+00 6.336904014058345069e+01 2.680000000000000000e+02
2.433225555518660599e+00 6.218298176609409467e+01 2.680000000000000000e+02
1.662988233452492359e+00 6.099692339160473864e+01 2.680000000000000000e+02
8.927509113863241197e-01 5.981086501711538261e+01 2.680000000000000000e+02
1.225135893201558801e-01 5.862480664262601948e+01 2.680000000000000000e+02
-6.477237327460114713e-01 5.743874826813666346e+01 2.680000000000000000e+02
-1.417961054812179711e+00 5.625268989364730743e+01 2.680000000000000000e+02
5.514174843783332669e+00 6.692721526405152588e+01 2.690000000000000000e+02
4.743937521717164429e+00 6.574115688956217696e+01 2.690000000000000000e+02
3.973700199650996190e+00 6.455509851507281383e+01 2.690000000000000000e+02
3.203462877584828394e+00 6.336904014058345069e+01 2.690000000000000000e+02
2.433225555518660599e+00 6.218298176609409467e+01 2.690000000000000000e+02
1.662988233452492359e+00 6.099692339160473864e+01 2.690000000000000000e+02
8.927509113863241197e-01 5.981086501711538261e+01 2.690000000000000000e+02
1.225135893201558801e-01 5.862480664262601948e+01 2.690000000000000000e+02
-6.477237327460114713e-01 5.743874826813666346e+01 2.690000000000000000e+02
-1.417961054812179711e+00 5.625268989364730743e+01 2.690000000000000000e+02
5.514174843783332669e+00 6.692721526405152588e+01 2.700000000000000000e+02
4.743937521717164429e+00 6.574115688956217696e+01 2.700000000000000000e+02
3.973700199650996190e+00 6.455509851507281383e+01 2.700000000000000000e+02
3.203462877584828394e+00 6.336904014058345069e+01 2.700000000000000000e+02
2.433225555518660599e+00 6.218298176609409467e+01 2.700000000000000000e+02
1.662988233452492359e+00 6.099692339160473864e+01 2.700000000000000000e+02
8.927509113863241197e-01 5.981086501711538261e+01 2.700000000000000000e+02
1.225135893201558801e-01 5.862480664262601948e+01 2.700000000000000000e+02
-6.477237327460114713e-01 5.743874826813666346e+01 2.700000000000000000e+02
-1.417961054812179711e+00 5.625268989364730743e+01 2.700000000000000000e+02
5.514174843783332669e+00 6.692721526405152588e+01 2.710000000000000000e+02
4.743937521717164429e+00 6.574115688956217696e+01 2.710000000000000000e+02
3.973700199650996190e+00 6.455509851507281383e+01 2.710000000000000000e+02
3.203462877584828394e+00 6.336904014058345069e+01 2.710000000000000000e+02
2.433225555518660599e+00 6.218298176609409467e+01 2.710000000000000000e+02
1.662988233452492359e+00 6.099692339160473864e+01 2.710000000000000000e+02
8.927509113863241197e-01 5.981086501711538261e+01 2.710000000000000000e+02
1.225135893201558801e-01 5.862480664262601948e+01 2.710000000000000000e+02
-6.477237327460114713e-01 5.743874826813666346e+01 2.710000000000000000e+02
-1.417961054812179711e+00 5.625268989364730743e+01 2.710000000000000000e+02
5.514174843783332669e+00 6.692721526405152588e+01 2.720000000000000000e+02
4.743937521717164429e+00 6.574115688956217696e+01 2.720000000000000000e+02
3.973700199650996190e+00 6.455509851507281383e+01 2.720000000000000000e+02
3.203462877584828394e+00 6.336904014058345069e+01 2.720000000000000000e+02
2.433225555518660599e+00 6.218298176609409467e+01 2.720000000000000000e+02
1.662988233452492359e+00 6.099692339160473864e+01 2.720000000000000000e+02
8.927509113863241197e-01 5.981086501711538261e+01 2.720000000000000000e+02
1.225135893201558801e-01 5.862480664262601948e+01 2.720000000000000000e+02
-6.477237327460114713e-01 5.743874826813666346e+01 2.720000000000000000e+02
-1.417961054812179711e+00 5.625268989364730743e+01 2.720000000000000000e+02
4.536026995505569204e+00 6.671930473783993421e+01 2.730000000000000000e+02
3.765789673439401408e+00 6.553324636335057107e+01 2.730000000000000000e+02
2.995552351373233169e+00 6.434718798886122215e+01 2.730000000000000000e+02
2.225315029307065373e+00 6.316112961437185902e+01 2.730000000000000000e+02
1.455077707240897578e+00 6.197507123988250299e+01 2.730000000000000000e+02
6.848403851747297821e-01 6.078901286539313986e+01 2.730000000000000000e+02
-8.539693689143934563e-02 5.960295449090378384e+01 2.730000000000000000e+02
-8.556342589576066970e-01 5.841689611641442781e+01 2.730000000000000000e+02
4.536026995505569204e+00 6.671930473783993421e+01 2.740000000000000000e+02
3.765789673439401408e+00 6.553324636335057107e+01 2.740000000000000000e+02
2.995552351373233169e+00 6.434718798886122215e+01 2.740000000000000000e+02
2.225315029307065373e+00 6.316112961437185902e+01 2.740000000000000000e+02
1.455077707240897578e+00 6.197507123988250299e+01 2.740000000000000000e+02
6.848403851747297821e-01 6.078901286539313986e+01 2.740000000000000000e+02
-8.539693689143934563e-02 5.960295449090378384e+01 2.740000000000000000e+02
-8.556342589576066970e-01 5.841689611641442781e+01 2.740000000000000000e+02
5.514174843783332669e+00 6.692721526405152588e+01 2.750000000000000000e+02
4.743937521717164429e+00 6.574115688956217696e+01 2.750000000000000000e+02
3.973700199650996190e+00 6.455509851507281383e+01 2.750000000000000000e+02
3.203462877584828394e+00 6.336904014058345069e+01 2.750000000000000000e+02
2.433225555518660599e+00 6.218298176609409467e+01 2.750000000000000000e+02
1.662988233452492359e+00 6.099692339160473864e+01 2.750000000000000000e+02
8.927509113863241197e-01 5.981086501711538261e+01 2.750000000000000000e+02
1.225135893201558801e-01 5.862480664262601948e+01 2.750000000000000000e+02
-6.477237327460114713e-01 5.743874826813666346e+01 2.750000000000000000e+02
4.536026995505569204e+00 6.671930473783993421e+01 2.760000000000000000e+02
3.765789673439401408e+00 6.553324636335057107e+01 2.760000000000000000e+02
2.995552351373233169e+00 6.434718798886122215e+01 2.760000000000000000e+02
2.225315029307065373e+00 6.316112961437185902e+01 2.760000000000000000e+02
1.455077707240897578e+00 6.197507123988250299e+01 2.760000000000000000e+02
6.848403851747297821e-01 6.078901286539313986e+01 2.760000000000000000e+02
-8.539693689143934563e-02 5.960295449090378384e+01 2.760000000000000000e+02
-8.556342589576066970e-01 5.841689611641442781e+01 2.760000000000000000e+02
-1.625871581023774937e+00 5.723083774192507178e+01 2.760000000000000000e+02
4.536026995505569204e+00 6.671930473783993421e+01 2.770000000000000000e+02
3.765789673439401408e+00 6.553324636335057107e+01 2.770000000000000000e+02
2.995552351373233169e+00 6.434718798886122215e+01 2.770000000000000000e+02
2.225315029307065373e+00 6.316112961437185902e+01 2.770000000000000000e+02
1.455077707240897578e+00 6.197507123988250299e+01 2.770000000000000000e+02
6.848403851747297821e-01 6.078901286539313986e+01 2.770000000000000000e+02
-8.539693689143934563e-02 5.960295449090378384e+01 2.770000000000000000e+02
-8.556342589576066970e-01 5.841689611641442781e+01 2.770000000000000000e+02
-1.625871581023774937e+00 5.723083774192507178e+01 2.770000000000000000e+02
4.536026995505569204e+00 6.671930473783993421e+01 2.780000000000000000e+02
3.765789673439401408e+00 6.553324636335057107e+01 2.780000000000000000e+02
2.995552351373233169e+00 6.434718798886122215e+01 2.780000000000000000e+02
2.225315029307065373e+00 6.316112961437185902e+01 2.780000000000000000e+02
1.455077707240897578e+00 6.197507123988250299e+01 2.780000000000000000e+02
6.848403851747297821e-01 6.078901286539313986e+01 2.780000000000000000e+02
-8.539693689143934563e-02 5.960295449090378384e+01 2.780000000000000000e+02
-8.556342589576066970e-01 5.841689611641442781e+01 2.780000000000000000e+02
4.536026995505569204e+00 6.671930473783993421e+01 2.790000000000000000e+02
3.765789673439401408e+00 6.553324636335057107e+01 2.790000000000000000e+02
2.995552351373233169e+00 6.434718798886122215e+01 2.790000000000000000e+02
2.225315029307065373e+00 6.316112961437185902e+01 2.790000000000000000e+02
1.455077707240897578e+00 6.197507123988250299e+01 2.790000000000000000e+02
6.848403851747297821e-01 6.078901286539313986e+01 2.790000000000000000e+02
-8.539693689143934563e-02 5.960295449090378384e+01 2.790000000000000000e+02
-8.556342589576066970e-01 5.841689611641442781e+01 2.790000000000000000e+02
4.536026995505569204e+00 6.671930473783993421e+01 2.800000000000000000e+02
3.765789673439401408e+00 6.553324636335057107e+01 2.800000000000000000e+02
2.995552351373233169e+00 6.434718798886122215e+01 2.800000000000000000e+02
2.225315029307065373e+00 6.316112961437185902e+01 2.800000000000000000e+02
1.455077707240897578e+00 6.197507123988250299e+01 2.800000000000000000e+02
6.848403851747297821e-01 6.078901286539313986e+01 2.800000000000000000e+02
-8.539693689143934563e-02 5.960295449090378384e+01 2.800000000000000000e+02
-8.556342589576066970e-01 5.841689611641442781e+01 2.800000000000000000e+02
4.536026995505569204e+00 6.671930473783993421e+01 2.810000000000000000e+02
3.765789673439401408e+00 6.553324636335057107e+01 2.810000000000000000e+02
2.995552351373233169e+00 6.434718798886122215e+01 2.810000000000000000e+02
2.225315029307065373e+00 6.316112961437185902e+01 2.810000000000000000e+02
1.455077707240897578e+00 6.197507123988250299e+01 2.810000000000000000e+02
6.848403851747297821e-01 6.078901286539313986e+01 2.810000000000000000e+02
-8.539693689143934563e-02 5.960295449090378384e+01 2.810000000000000000e+02
-8.556342589576066970e-01 5.841689611641442781e+01 2.810000000000000000e+02
4.536026995505569204e+00 6.671930473783993421e+01 2.820000000000000000e+02
3.765789673439401408e+00 6.553324636335057107e+01 2.820000000000000000e+02
2.995552351373233169e+00 6.434718798886122215e+01 2.820000000000000000e+02
2.225315029307065373e+00 6.316112961437185902e+01 2.820000000000000000e+02
1.455077707240897578e+00 6.197507123988250299e+01 2.820000000000000000e+02
6.848403851747297821e-01 6.078901286539313986e+01 2.820000000000000000e+02
-8.539693689143934563e-02 5.960295449090378384e+01 2.820000000000000000e+02
-8.556342589576066970e-01 5.841689611641442781e+01 2.820000000000000000e+02
4.536026995505569204e+00 6.671930473783993421e+01 2.830000000000000000e+02
3.765789673439401408e+00 6.553324636335057107e+01 2.830000000000000000e+02
2.995552351373233169e+00 6.434718798886122215e+01 2.830000000000000000e+02
2.225315029307065373e+00 6.316112961437185902e+01 2.830000000000000000e+02
1.455077707240897578e+00 6.197507123988250299e+01 2.830000000000000000e+02
6.848403851747297821e-01 6.078901286539313986e+01 2.830000000000000000e+02
-8.539693689143934563e-02 5.960295449090378384e+01 2.830000000000000000e+02
-8.556342589576066970e-01 5.841689611641442781e+01 2.830000000000000000e+02
4.536026995505569204e+00 6.671930473783993421e+01 2.840000000000000000e+02
3.765789673439401408e+00 6.553324636335057107e+01 2.840000000000000000e+02
2.995552351373233169e+00 6.434718798886122215e+01 2.840000000000000000e+02
2.225315029307065373e+00 6.316112961437185902e+01 2.840000000000000000e+02
1.455077707240897578e+00 6.197507123988250299e+01 2.840000000000000000e+02
6.848403851747297821e-01 6.078901286539313986e+01 2.840000000000000000e+02
-8.539693689143934563e-02 5.960295449090378384e+01 2.840000000000000000e+02
-8.556342589576066970e-01 5.841689611641442781e+01 2.840000000000000000e+02
4.536026995505569204e+00 6.671930473783993421e+01 2.850000000000000000e+02
3.765789673439401408e+00 6.553324636335057107e+01 2.850000000000000000e+02
2.995552351373233169e+00 6.434718798886122215e+01 2.850000000000000000e+02
2.225315029307065373e+00 6.316112961437185902e+01 2.850000000000000000e+02
1.455077707240897578e+00 6.197507123988250299e+01 2.850000000000000000e+02
6.848403851747297821e-01 6.078901286539313986e+01 2.850000000000000000e+02
-8.539693689143934563e-02 5.960295449090378384e+01 2.850000000000000000e+02
-8.556342589576066970e-01 5.841689611641442781e+01 2.850000000000000000e+02
4.536026995505569204e+00 6.671930473783993421e+01 2.860000000000000000e+02
3.765789673439401408e+00 6.553324636335057107e+01 2.860000000000000000e+02
2.995552351373233169e+00 6.434718798886122215e+01 2.860000000000000000e+02
2.225315029307065373e+00 6.316112961437185902e+01 2.860000000000000000e+02
1.455077707240897578e+00 6.197507123988250299e+01 2.860000000000000000e+02
6.848403851747297821e-01 6.078901286539313986e+01 2.860000000000000000e+02
-8.539693689143934563e-02 5.960295449090378384e+01 2.860000000000000000e+02
-8.556342589576066970e-01 5.841689611641442781e+01 2.860000000000000000e+02
4.536026995505569204e+00 6.671930473783993421e+01 2.870000000000000000e+02
3.765789673439401408e+00 6.553324636335057107e+01 2.870000000000000000e+02
2.995552351373233169e+00 6.434718798886122215e+01 2.870000000000000000e+02
2.225315029307065373e+00 6.316112961437185902e+01 2.870000000000000000e+02
1.455077707240897578e+00 6.197507123988250299e+01 2.870000000000000000e+02
6.848403851747297821e-01 6.078901286539313986e+01 2.870000000000000000e+02
-8.539693689143934563e-02 5.960295449090378384e+01 2.870000000000000000e+02
-8.556342589576066970e-01 5.841689611641442781e+01 2.870000000000000000e+02
4.536026995505569204e+00 6.671930473783993421e+01 2.880000000000000000e+02
3.765789673439401408e+00 6.553324636335057107e+01 2.880000000000000000e+02
2.995552351373233169e+00 6.434718798886122215e+01 2.880000000000000000e+02
2.225315029307065373e+00 6.316112961437185902e+01 2.880000000000000000e+02
1.455077707240897578e+00 6.197507123988250299e+01 2.880000000000000000e+02
6.848403851747297821e-01 6.078901286539313986e+01 2.880000000000000000e+02
-8.539693689143934563e-02 5.960295449090378384e+01 2.880000000000000000e+02
-8.556342589576066970e-01 5.841689611641442781e+01 2.880000000000000000e+02
-1.625871581023774937e+00 5.723083774192507178e+01 2.880000000000000000e+02
4.536026995505569204e+00 6.671930473783993421e+01 2.890000000000000000e+02
3.765789673439401408e+00 6.553324636335057107e+01 2.890000000000000000e+02
2.995552351373233169e+00 6.434718798886122215e+01 2.890000000000000000e+02
2.225315029307065373e+00 6.316112961437185902e+01 2.890000000000000000e+02
1.455077707240897578e+00 6.197507123988250299e+01 2.890000000000000000e+02
6.848403851747297821e-01 6.078901286539313986e+01 2.890000000000000000e+02
-8.539693689143934563e-02 5.960295449090378384e+01 2.890000000000000000e+02
-8.556342589576066970e-01 5.841689611641442781e+01 2.890000000000000000e+02
4.536026995505569204e+00 6.671930473783993421e+01 2.900000000000000000e+02
3.765789673439401408e+00 6.553324636335057107e+01 2.900000000000000000e+02
2.995552351373233169e+00 6.434718798886122215e+01 2.900000000000000000e+02
2.225315029307065373e+00 6.316112961437185902e+01 2.900000000000000000e+02
1.455077707240897578e+00 6.197507123988250299e+01 2.900000000000000000e+02
6.848403851747297821e-01 6.078901286539313986e+01 2.900000000000000000e+02
-8.539693689143934563e-02 5.960295449090378384e+01 2.900000000000000000e+02
-8.556342589576066970e-01 5.841689611641442781e+01 2.900000000000000000e+02
4.536026995505569204e+00 6.671930473783993421e+01 2.910000000000000000e+02
3.765789673439401408e+00 6.553324636335057107e+01 2.910000000000000000e+02
2.995552351373233169e+00 6.434718798886122215e+01 2.910000000000000000e+02
2.225315029307065373e+00 6.316112961437185902e+01 2.910000000000000000e+02
1.455077707240897578e+00 6.197507123988250299e+01 2.910000000000000000e+02
6.848403851747297821e-01 6.078901286539313986e+01 2.910000000000000000e+02
-8.539693689143934563e-02 5.960295449090378384e+01 2.910000000000000000e+02
-8.556342589576066970e-01 5.841689611641442781e+01 2.910000000000000000e+02
4.536026995505569204e+00 6.671930473783993421e+01 2.920000000000000000e+02
3.765789673439401408e+00 6.553324636335057107e+01 2.920000000000000000e+02
2.995552351373233169e+00 6.434718798886122215e+01 2.920000000000000000e+02
2.225315029307065373e+00 6.316112961437185902e+01 2.920000000000000000e+02
1.455077707240897578e+00 6.197507123988250299e+01 2.920000000000000000e+02
6.848403851747297821e-01 6.078901286539313986e+01 2.920000000000000000e+02
-8.539693689143934563e-02 5.960295449090378384e+01 2.920000000000000000e+02
-8.556342589576066970e-01 5.841689611641442781e+01 2.920000000000000000e+02
4.536026995505569204e+00 6.671930473783993421e+01 2.930000000000000000e+02
3.765789673439401408e+00 6.553324636335057107e+01 2.930000000000000000e+02
2.995552351373233169e+00 6.434718798886122215e+01 2.930000000000000000e+02
2.225315029307065373e+00 6.316112961437185902e+01 2.930000000000000000e+02
1.455077707240897578e+00 6.197507123988250299e+01 2.930000000000000000e+02
6.848403851747297821e-01 6.078901286539313986e+01 2.930000000000000000e+02
-8.539693689143934563e-02 5.960295449090378384e+01 2.930000000000000000e+02
-8.556342589576066970e-01 5.841689611641442781e+01 2.930000000000000000e+02
4.536026995505569204e+00 6.671930473783993421e+01 2.940000000000000000e+02
3.765789673439401408e+00 6.553324636335057107e+01 2.940000000000000000e+02
2.995552351373233169e+00 6.434718798886122215e+01 2.940000000000000000e+02
2.225315029307065373e+00 6.316112961437185902e+01 2.940000000000000000e+02
1.455077707240897578e+00 6.197507123988250299e+01 2.940000000000000000e+02
6.848403851747297821e-01 6.078901286539313986e+01 2.940000000000000000e+02
-8.539693689143934563e-02 5.960295449090378384e+01 2.940000000000000000e+02
-8.556342589576066970e-01 5.841689611641442781e+01 2.940000000000000000e+02
4.536026995505569204e+00 6.671930473783993421e+01 2.950000000000000000e+02
3.765789673439401408e+00 6.553324636335057107e+01 2.950000000000000000e+02
2.995552351373233169e+00 6.434718798886122215e+01 2.950000000000000000e+02
2.225315029307065373e+00 6.316112961437185902e+01 2.950000000000000000e+02
1.455077707240897578e+00 6.197507123988250299e+01 2.950000000000000000e+02
6.848403851747297821e-01 6.078901286539313986e+01 2.950000000000000000e+02
-8.539693689143934563e-02 5.960295449090378384e+01 2.950000000000000000e+02
-8.556342589576066970e-01 5.841689611641442781e+01 2.950000000000000000e+02
4.536026995505569204e+00 6.671930473783993421e+01 2.960000000000000000e+02
3.765789673439401408e+00 6.553324636335057107e+01 2.960000000000000000e+02
2.995552351373233169e+00 6.434718798886122215e+01 2.960000000000000000e+02
2.225315029307065373e+00 6.316112961437185902e+01 2.960000000000000000e+02
1.455077707240897578e+00 6.197507123988250299e+01 2.960000000000000000e+02
6.848403851747297821e-01 6.078901286539313986e+01 2.960000000000000000e+02
-8.539693689143934563e-02 5.960295449090378384e+01 2.960000000000000000e+02
-8.556342589576066970e-01 5.841689611641442781e+01 2.960000000000000000e+02
4.536026995505569204e+00 6.671930473783993421e+01 2.970000000000000000e+02
3.765789673439401408e+00 6.553324636335057107e+01 2.970000000000000000e+02
2.995552351373233169e+00 6.434718798886122215e+01 2.970000000000000000e+02
2.225315029307065373e+00 6.316112961437185902e+01 2.970000000000000000e+02
1.455077707240897578e+00 6.197507123988250299e+01 2.970000000000000000e+02
6.848403851747297821e-01 6.078901286539313986e+01 2.970000000000000000e+02
-8.539693689143934563e-02 5.960295449090378384e+01 2.970000000000000000e+02
-8.556342589576066970e-01 5.841689611641442781e+01 2.970000000000000000e+02
4.536026995505569204e+00 6.671930473783993421e+01 2.980000000000000000e+02
3.765789673439401408e+00 6.553324636335057107e+01 2.980000000000000000e+02
2.995552351373233169e+00 6.434718798886122215e+01 2.980000000000000000e+02
2.225315029307065373e+00 6.316112961437185902e+01 2.980000000000000000e+02
1.455077707240897578e+00 6.197507123988250299e+01 2.980000000000000000e+02
6.848403851747297821e-01 6.078901286539313986e+01 2.980000000000000000e+02
-8.539693689143934563e-02 5.960295449090378384e+01 2.980000000000000000e+02
-8.556342589576066970e-01 5.841689611641442781e+01 2.980000000000000000e+02
4.536026995505569204e+00 6.671930473783993421e+01 2.990000000000000000e+02
3.765789673439401408e+00 6.553324636335057107e+01 2.990000000000000000e+02
2.995552351373233169e+00 6.434718798886122215e+01 2.990000000000000000e+02
2.225315029307065373e+00 6.316112961437185902e+01 2.990000000000000000e+02
1.455077707240897578e+00 6.197507123988250299e+01 2.990000000000000000e+02
6.848403851747297821e-01 6.078901286539313986e+01 2.990000000000000000e+02
-8.539693689143934563e-02 5.960295449090378384e+01 2.990000000000000000e+02
-8.556342589576066970e-01 5.841689611641442781e+01 2.990000000000000000e+02
4.536026995505569204e+00 6.671930473783993421e+01 3.000000000000000000e+02
3.765789673439401408e+00 6.553324636335057107e+01 3.000000000000000000e+02
2.995552351373233169e+00 6.434718798886122215e+01 3.000000000000000000e+02
2.225315029307065373e+00 6.316112961437185902e+01 3.000000000000000000e+02
1.455077707240897578e+00 6.197507123988250299e+01 3.000000000000000000e+02
6.848403851747297821e-01 6.078901286539313986e+01 3.000000000000000000e+02
-8.539693689143934563e-02 5.960295449090378384e+01 3.000000000000000000e+02
-8.556342589576066970e-01 5.841689611641442781e+01 3.000000000000000000e+02
4.536026995505569204e+00 6.671930473783993421e+01 3.010000000000000000e+02
3.765789673439401408e+00 6.553324636335057107e+01 3.010000000000000000e+02
2.995552351373233169e+00 6.434718798886122215e+01 3.010000000000000000e+02
2.225315029307065373e+00 6.316112961437185902e+01 3.010000000000000000e+02
1.455077707240897578e+00 6.197507123988250299e+01 3.010000000000000000e+02
6.848403851747297821e-01 6.078901286539313986e+01 3.010000000000000000e+02
-8.539693689143934563e-02 5.960295449090378384e+01 3.010000000000000000e+02
-8.556342589576066970e-01 5.841689611641442781e+01 3.010000000000000000e+02
4.536026995505569204e+00 6.671930473783993421e+01 3.020000000000000000e+02
3.765789673439401408e+00 6.553324636335057107e+01 3.020000000000000000e+02
2.995552351373233169e+00 6.434718798886122215e+01 3.020000000000000000e+02
2.225315029307065373e+00 6.316112961437185902e+01 3.020000000000000000e+02
1.455077707240897578e+00 6.197507123988250299e+01 3.020000000000000000e+02
6.848403851747297821e-01 6.078901286539313986e+01 3.020000000000000000e+02
-8.539693689143934563e-02 5.960295449090378384e+01 3.020000000000000000e+02
-8.556342589576066970e-01 5.841689611641442781e+01 3.020000000000000000e+02
4.536026995505569204e+00 6.671930473783993421e+01 3.030000000000000000e+02
3.765789673439401408e+00 6.553324636335057107e+01 3.030000000000000000e+02
2.995552351373233169e+00 6.434718798886122215e+01 3.030000000000000000e+02
2.225315029307065373e+00 6.316112961437185902e+01 3.030000000000000000e+02
1.455077707240897578e+00 6.197507123988250299e+01 3.030000000000000000e+02
6.848403851747297821e-01 6.078901286539313986e+01 3.030000000000000000e+02
-8.539693689143934563e-02 5.960295449090378384e+01 3.030000000000000000e+02
5.514174843783332669e+00 6.692721526405152588e+01 3.040000000000000000e+02
4.743937521717164429e+00 6.574115688956217696e+01 3.040000000000000000e+02
3.973700199650996190e+00 6.455509851507281383e+01 3.040000000000000000e+02
3.203462877584828394e+00 6.336904014058345069e+01 3.040000000000000000e+02
2.433225555518660599e+00 6.218298176609409467e+01 3.040000000000000000e+02
1.662988233452492359e+00 6.099692339160473864e+01 3.040000000000000000e+02
8.927509113863241197e-01 5.981086501711538261e+01 3.040000000000000000e+02
1.225135893201558801e-01 5.862480664262601948e+01 3.040000000000000000e+02
4.536026995505569204e+00 6.671930473783993421e+01 3.050000000000000000e+02
3.765789673439401408e+00 6.553324636335057107e+01 3.050000000000000000e+02
2.995552351373233169e+00 6.434718798886122215e+01 3.050000000000000000e+02
2.225315029307065373e+00 6.316112961437185902e+01 3.050000000000000000e+02
1.455077707240897578e+00 6.197507123988250299e+01 3.050000000000000000e+02
6.848403851747297821e-01 6.078901286539313986e+01 3.050000000000000000e+02
-8.539693689143934563e-02 5.960295449090378384e+01 3.050000000000000000e+02
-8.556342589576066970e-01 5.841689611641442781e+01 3.050000000000000000e+02
4.536026995505569204e+00 6.671930473783993421e+01 3.060000000000000000e+02
3.765789673439401408e+00 6.553324636335057107e+01 3.060000000000000000e+02
2.995552351373233169e+00 6.434718798886122215e+01 3.060000000000000000e+02
2.225315029307065373e+00 6.316112961437185902e+01 3.060000000000000000e+02
1.455077707240897578e+00 6.197507123988250299e+01 3.060000000000000000e+02
6.848403851747297821e-01 6.078901286539313986e+01 3.060000000000000000e+02
-8.539693689143934563e-02 5.960295449090378384e+01 3.060000000000000000e+02
-8.556342589576066970e-01 5.841689611641442781e+01 3.060000000000000000e+02
4.536026995505569204e+00 6.671930473783993421e+01 3.070000000000000000e+02
3.765789673439401408e+00 6.553324636335057107e+01 3.070000000000000000e+02
2.995552351373233169e+00 6.434718798886122215e+01 3.070000000000000000e+02
2.225315029307065373e+00 6.316112961437185902e+01 3.070000000000000000e+02
1.455077707240897578e+00 6.197507123988250299e+01 3.070000000000000000e+02
6.848403851747297821e-01 6.078901286539313986e+01 3.070000000000000000e+02
-8.539693689143934563e-02 5.960295449090378384e+01 3.070000000000000000e+02
4.536026995505569204e+00 6.671930473783993421e+01 3.080000000000000000e+02
3.765789673439401408e+00 6.553324636335057107e+01 3.080000000000000000e+02
2.995552351373233169e+00 6.434718798886122215e+01 3.080000000000000000e+02
2.225315029307065373e+00 6.316112961437185902e+01 3.080000000000000000e+02
1.455077707240897578e+00 6.197507123988250299e+01 3.080000000000000000e+02
6.848403851747297821e-01 6.078901286539313986e+01 3.080000000000000000e+02
-8.539693689143934563e-02 5.960295449090378384e+01 3.080000000000000000e+02
4.536026995505569204e+00 6.671930473783993421e+01 3.090000000000000000e+02
3.765789673439401408e+00 6.553324636335057107e+01 3.090000000000000000e+02
2.995552351373233169e+00 6.434718798886122215e+01 3.090000000000000000e+02
2.225315029307065373e+00 6.316112961437185902e+01 3.090000000000000000e+02
1.455077707240897578e+00 6.197507123988250299e+01 3.090000000000000000e+02
6.848403851747297821e-01 6.078901286539313986e+01 3.090000000000000000e+02
-8.539693689143934563e-02 5.960295449090378384e+01 3.090000000000000000e+02
4.536026995505569204e+00 6.671930473783993421e+01 3.100000000000000000e+02
3.765789673439401408e+00 6.553324636335057107e+01 3.100000000000000000e+02
2.995552351373233169e+00 6.434718798886122215e+01 3.100000000000000000e+02
2.225315029307065373e+00 6.316112961437185902e+01 3.100000000000000000e+02
1.455077707240897578e+00 6.197507123988250299e+01 3.100000000000000000e+02
6.848403851747297821e-01 6.078901286539313986e+01 3.100000000000000000e+02
-8.539693689143934563e-02 5.960295449090378384e+01 3.100000000000000000e+02
-8.556342589576066970e-01 5.841689611641442781e+01 3.100000000000000000e+02
4.536026995505569204e+00 6.671930473783993421e+01 3.110000000000000000e+02
3.765789673439401408e+00 6.553324636335057107e+01 3.110000000000000000e+02
2.995552351373233169e+00 6.434718798886122215e+01 3.110000000000000000e+02
2.225315029307065373e+00 6.316112961437185902e+01 3.110000000000000000e+02
1.455077707240897578e+00 6.197507123988250299e+01 3.110000000000000000e+02
6.848403851747297821e-01 6.078901286539313986e+01 3.110000000000000000e+02
-8.539693689143934563e-02 5.960295449090378384e+01 3.110000000000000000e+02
-8.556342589576066970e-01 5.841689611641442781e+01 3.110000000000000000e+02
4.536026995505569204e+00 6.671930473783993421e+01 3.120000000000000000e+02
3.765789673439401408e+00 6.553324636335057107e+01 3.120000000000000000e+02
2.995552351373233169e+00 6.434718798886122215e+01 3.120000000000000000e+02
2.225315029307065373e+00 6.316112961437185902e+01 3.120000000000000000e+02
1.455077707240897578e+00 6.197507123988250299e+01 3.120000000000000000e+02
6.848403851747297821e-01 6.078901286539313986e+01 3.120000000000000000e+02
-8.539693689143934563e-02 5.960295449090378384e+01 3.120000000000000000e+02
-8.556342589576066970e-01 5.841689611641442781e+01 3.120000000000000000e+02
4.536026995505569204e+00 6.671930473783993421e+01 3.130000000000000000e+02
3.765789673439401408e+00 6.553324636335057107e+01 3.130000000000000000e+02
2.995552351373233169e+00 6.434718798886122215e+01 3.130000000000000000e+02
2.225315029307065373e+00 6.316112961437185902e+01 3.130000000000000000e+02
1.455077707240897578e+00 6.197507123988250299e+01 3.130000000000000000e+02
6.848403851747297821e-01 6.078901286539313986e+01 3.130000000000000000e+02
-8.539693689143934563e-02 5.960295449090378384e+01 3.130000000000000000e+02
4.536026995505569204e+00 6.671930473783993421e+01 3.140000000000000000e+02
3.765789673439401408e+00 6.553324636335057107e+01 3.140000000000000000e+02
2.995552351373233169e+00 6.434718798886122215e+01 3.140000000000000000e+02
2.225315029307065373e+00 6.316112961437185902e+01 3.140000000000000000e+02
1.455077707240897578e+00 6.197507123988250299e+01 3.140000000000000000e+02
6.848403851747297821e-01 6.078901286539313986e+01 3.140000000000000000e+02
-8.539693689143934563e-02 5.960295449090378384e+01 3.140000000000000000e+02
-8.556342589576066970e-01 5.841689611641442781e+01 3.140000000000000000e+02
4.536026995505569204e+00 6.671930473783993421e+01 3.150000000000000000e+02
3.765789673439401408e+00 6.553324636335057107e+01 3.150000000000000000e+02
2.995552351373233169e+00 6.434718798886122215e+01 3.150000000000000000e+02
2.225315029307065373e+00 6.316112961437185902e+01 3.150000000000000000e+02
1.455077707240897578e+00 6.197507123988250299e+01 3.150000000000000000e+02
6.848403851747297821e-01 6.078901286539313986e+01 3.150000000000000000e+02
-8.539693689143934563e-02 5.960295449090378384e+01 3.150000000000000000e+02
-8.556342589576066970e-01 5.841689611641442781e+01 3.150000000000000000e+02
4.536026995505569204e+00 6.671930473783993421e+01 3.160000000000000000e+02
3.765789673439401408e+00 6.553324636335057107e+01 3.160000000000000000e+02
2.995552351373233169e+00 6.434718798886122215e+01 3.160000000000000000e+02
2.225315029307065373e+00 6.316112961437185902e+01 3.160000000000000000e+02
1.455077707240897578e+00 6.197507123988250299e+01 3.160000000000000000e+02
6.848403851747297821e-01 6.078901286539313986e+01 3.160000000000000000e+02
-8.539693689143934563e-02 5.960295449090378384e+01 3.160000000000000000e+02
4.536026995505569204e+00 6.671930473783993421e+01 3.170000000000000000e+02
3.765789673439401408e+00 6.553324636335057107e+01 3.170000000000000000e+02
2.995552351373233169e+00 6.434718798886122215e+01 3.170000000000000000e+02
2.225315029307065373e+00 6.316112961437185902e+01 3.170000000000000000e+02
1.455077707240897578e+00 6.197507123988250299e+01 3.170000000000000000e+02
6.848403851747297821e-01 6.078901286539313986e+01 3.170000000000000000e+02
-8.539693689143934563e-02 5.960295449090378384e+01 3.170000000000000000e+02
4.536026995505569204e+00 6.671930473783993421e+01 3.180000000000000000e+02
3.765789673439401408e+00 6.553324636335057107e+01 3.180000000000000000e+02
2.995552351373233169e+00 6.434718798886122215e+01 3.180000000000000000e+02
2.225315029307065373e+00 6.316112961437185902e+01 3.180000000000000000e+02
1.455077707240897578e+00 6.197507123988250299e+01 3.180000000000000000e+02
6.848403851747297821e-01 6.078901286539313986e+01 3.180000000000000000e+02
-8.539693689143934563e-02 5.960295449090378384e+01 3.180000000000000000e+02
4.536026995505569204e+00 6.671930473783993421e+01 3.190000000000000000e+02
3.765789673439401408e+00 6.553324636335057107e+01 3.190000000000000000e+02
2.995552351373233169e+00 6.434718798886122215e+01 3.190000000000000000e+02
2.225315029307065373e+00 6.316112961437185902e+01 3.190000000000000000e+02
1.455077707240897578e+00 6.197507123988250299e+01 3.190000000000000000e+02
6.848403851747297821e-01 6.078901286539313986e+01 3.190000000000000000e+02
-8.539693689143934563e-02 5.960295449090378384e+01 3.190000000000000000e+02
3.557879147227806182e+00 6.651139421162834253e+01 3.200000000000000000e+02
2.787641825161638387e+00 6.532533583713897940e+01 3.200000000000000000e+02
2.017404503095470591e+00 6.413927746264961627e+01 3.200000000000000000e+02
1.247167181029302352e+00 6.295321908816026735e+01 3.200000000000000000e+02
4.769298589631345564e-01 6.176716071367090422e+01 3.200000000000000000e+02
-2.933074631030336832e-01 6.058110233918154819e+01 3.200000000000000000e+02
-1.063544785169201923e+00 5.939504396469219216e+01 3.200000000000000000e+02
4.536026995505569204e+00 6.671930473783993421e+01 3.210000000000000000e+02
3.765789673439401408e+00 6.553324636335057107e+01 3.210000000000000000e+02
2.995552351373233169e+00 6.434718798886122215e+01 3.210000000000000000e+02
2.225315029307065373e+00 6.316112961437185902e+01 3.210000000000000000e+02
1.455077707240897578e+00 6.197507123988250299e+01 3.210000000000000000e+02
6.848403851747297821e-01 6.078901286539313986e+01 3.210000000000000000e+02
-8.539693689143934563e-02 5.960295449090378384e+01 3.210000000000000000e+02
-8.556342589576066970e-01 5.841689611641442781e+01 3.210000000000000000e+02
4.536026995505569204e+00 6.671930473783993421e+01 3.220000000000000000e+02
3.765789673439401408e+00 6.553324636335057107e+01 3.220000000000000000e+02
2.995552351373233169e+00 6.434718798886122215e+01 3.220000000000000000e+02
2.225315029307065373e+00 6.316112961437185902e+01 3.220000000000000000e+02
1.455077707240897578e+00 6.197507123988250299e+01 3.220000000000000000e+02
6.848403851747297821e-01 6.078901286539313986e+01 3.220000000000000000e+02
-8.539693689143934563e-02 5.960295449090378384e+01 3.220000000000000000e+02
-8.556342589576066970e-01 5.841689611641442781e+01 3.220000000000000000e+02
4.536026995505569204e+00 6.671930473783993421e+01 3.230000000000000000e+02
3.765789673439401408e+00 6.553324636335057107e+01 3.230000000000000000e+02
2.995552351373233169e+00 6.434718798886122215e+01 3.230000000000000000e+02
2.225315029307065373e+00 6.316112961437185902e+01 3.230000000000000000e+02
1.455077707240897578e+00 6.197507123988250299e+01 3.230000000000000000e+02
6.848403851747297821e-01 6.078901286539313986e+01 3.230000000000000000e+02
-8.539693689143934563e-02 5.960295449090378384e+01 3.230000000000000000e+02
-8.556342589576066970e-01 5.841689611641442781e+01 3.230000000000000000e+02
4.536026995505569204e+00 6.671930473783993421e+01 3.240000000000000000e+02
3.765789673439401408e+00 6.553324636335057107e+01 3.240000000000000000e+02
2.995552351373233169e+00 6.434718798886122215e+01 3.240000000000000000e+02
2.225315029307065373e+00 6.316112961437185902e+01 3.240000000000000000e+02
1.455077707240897578e+00 6.197507123988250299e+01 3.240000000000000000e+02
6.848403851747297821e-01 6.078901286539313986e+01 3.240000000000000000e+02
-8.539693689143934563e-02 5.960295449090378384e+01 3.240000000000000000e+02
4.536026995505569204e+00 6.671930473783993421e+01 3.250000000000000000e+02
3.765789673439401408e+00 6.553324636335057107e+01 3.250000000000000000e+02
2.995552351373233169e+00 6.434718798886122215e+01 3.250000000000000000e+02
2.225315029307065373e+00 6.316112961437185902e+01 3.250000000000000000e+02
1.455077707240897578e+00 6.197507123988250299e+01 3.250000000000000000e+02
6.848403851747297821e-01 6.078901286539313986e+01 3.250000000000000000e+02
-8.539693689143934563e-02 5.960295449090378384e+01 3.250000000000000000e+02
-8.556342589576066970e-01 5.841689611641442781e+01 3.250000000000000000e+02
4.536026995505569204e+00 6.671930473783993421e+01 3.260000000000000000e+02
3.765789673439401408e+00 6.553324636335057107e+01 3.260000000000000000e+02
2.995552351373233169e+00 6.434718798886122215e+01 3.260000000000000000e+02
2.225315029307065373e+00 6.316112961437185902e+01 3.260000000000000000e+02
1.455077707240897578e+00 6.197507123988250299e+01 3.260000000000000000e+02
6.848403851747297821e-01 6.078901286539313986e+01 3.260000000000000000e+02
-8.539693689143934563e-02 5.960295449090378384e+01 3.260000000000000000e+02
-8.556342589576066970e-01 5.841689611641442781e+01 3.260000000000000000e+02
5.514174843783332669e+00 6.692721526405152588e+01 3.270000000000000000e+02
4.743937521717164429e+00 6.574115688956217696e+01 3.270000000000000000e+02
3.973700199650996190e+00 6.455509851507281383e+01 3.270000000000000000e+02
3.203462877584828394e+00 6.336904014058345069e+01 3.270000000000000000e+02
2.433225555518660599e+00 6.218298176609409467e+01 3.270000000000000000e+02
1.662988233452492359e+00 6.099692339160473864e+01 3.270000000000000000e+02
8.927509113863241197e-01 5.981086501711538261e+01 3.270000000000000000e+02
1.225135893201558801e-01 5.862480664262601948e+01 3.270000000000000000e+02
-6.477237327460114713e-01 5.743874826813666346e+01 3.270000000000000000e+02
4.536026995505569204e+00 6.671930473783993421e+01 3.280000000000000000e+02
3.765789673439401408e+00 6.553324636335057107e+01 3.280000000000000000e+02
2.995552351373233169e+00 6.434718798886122215e+01 3.280000000000000000e+02
2.225315029307065373e+00 6.316112961437185902e+01 3.280000000000000000e+02
1.455077707240897578e+00 6.197507123988250299e+01 3.280000000000000000e+02
6.848403851747297821e-01 6.078901286539313986e+01 3.280000000000000000e+02
-8.539693689143934563e-02 5.960295449090378384e+01 3.280000000000000000e+02
4.536026995505569204e+00 6.671930473783993421e+01 3.290000000000000000e+02
3.765789673439401408e+00 6.553324636335057107e+01 3.290000000000000000e+02
2.995552351373233169e+00 6.434718798886122215e+01 3.290000000000000000e+02
2.225315029307065373e+00 6.316112961437185902e+01 3.290000000000000000e+02
1.455077707240897578e+00 6.197507123988250299e+01 3.290000000000000000e+02
6.848403851747297821e-01 6.078901286539313986e+01 3.290000000000000000e+02
-8.539693689143934563e-02 5.960295449090378384e+01 3.290000000000000000e+02
-8.556342589576066970e-01 5.841689611641442781e+01 3.290000000000000000e+02
4.536026995505569204e+00 6.671930473783993421e+01 3.300000000000000000e+02
3.765789673439401408e+00 6.553324636335057107e+01 3.300000000000000000e+02
2.995552351373233169e+00 6.434718798886122215e+01 3.300000000000000000e+02
2.225315029307065373e+00 6.316112961437185902e+01 3.300000000000000000e+02
1.455077707240897578e+00 6.197507123988250299e+01 3.300000000000000000e+02
6.848403851747297821e-01 6.078901286539313986e+01 3.300000000000000000e+02
-8.539693689143934563e-02 5.960295449090378384e+01 3.300000000000000000e+02
-8.556342589576066970e-01 5.841689611641442781e+01 3.300000000000000000e+02
4.536026995505569204e+00 6.671930473783993421e+01 3.310000000000000000e+02
3.765789673439401408e+00 6.553324636335057107e+01 3.310000000000000000e+02
2.995552351373233169e+00 6.434718798886122215e+01 3.310000000000000000e+02
2.225315029307065373e+00 6.316112961437185902e+01 3.310000000000000000e+02
1.455077707240897578e+00 6.197507123988250299e+01 3.310000000000000000e+02
6.848403851747297821e-01 6.078901286539313986e+01 3.310000000000000000e+02
-8.539693689143934563e-02 5.960295449090378384e+01 3.310000000000000000e+02
-8.556342589576066970e-01 5.841689611641442781e+01 3.310000000000000000e+02
4.536026995505569204e+00 6.671930473783993421e+01 3.320000000000000000e+02
3.765789673439401408e+00 6.553324636335057107e+01 3.320000000000000000e+02
2.995552351373233169e+00 6.434718798886122215e+01 3.320000000000000000e+02
2.225315029307065373e+00 6.316112961437185902e+01 3.320000000000000000e+02
1.455077707240897578e+00 6.197507123988250299e+01 3.320000000000000000e+02
6.848403851747297821e-01 6.078901286539313986e+01 3.320000000000000000e+02
-8.539693689143934563e-02 5.960295449090378384e+01 3.320000000000000000e+02
4.536026995505569204e+00 6.671930473783993421e+01 3.330000000000000000e+02
3.765789673439401408e+00 6.553324636335057107e+01 3.330000000000000000e+02
2.995552351373233169e+00 6.434718798886122215e+01 3.330000000000000000e+02
2.225315029307065373e+00 6.316112961437185902e+01 3.330000000000000000e+02
1.455077707240897578e+00 6.197507123988250299e+01 3.330000000000000000e+02
6.848403851747297821e-01 6.078901286539313986e+01 3.330000000000000000e+02
-8.539693689143934563e-02 5.960295449090378384e+01 3.330000000000000000e+02
4.536026995505569204e+00 6.671930473783993421e+01 3.340000000000000000e+02
3.765789673439401408e+00 6.553324636335057107e+01 3.340000000000000000e+02
2.995552351373233169e+00 6.434718798886122215e+01 3.340000000000000000e+02
2.225315029307065373e+00 6.316112961437185902e+01 3.340000000000000000e+02
1.455077707240897578e+00 6.197507123988250299e+01 3.340000000000000000e+02
6.848403851747297821e-01 6.078901286539313986e+01 3.340000000000000000e+02
-8.539693689143934563e-02 5.960295449090378384e+01 3.340000000000000000e+02
-8.556342589576066970e-01 5.841689611641442781e+01 3.340000000000000000e+02
5.514174843783332669e+00 6.692721526405152588e+01 3.350000000000000000e+02
4.743937521717164429e+00 6.574115688956217696e+01 3.350000000000000000e+02
3.973700199650996190e+00 6.455509851507281383e+01 3.350000000000000000e+02
3.203462877584828394e+00 6.336904014058345069e+01 3.350000000000000000e+02
2.433225555518660599e+00 6.218298176609409467e+01 3.350000000000000000e+02
1.662988233452492359e+00 6.099692339160473864e+01 3.350000000000000000e+02
8.927509113863241197e-01 5.981086501711538261e+01 3.350000000000000000e+02
1.225135893201558801e-01 5.862480664262601948e+01 3.350000000000000000e+02
-6.477237327460114713e-01 5.743874826813666346e+01 3.350000000000000000e+02
4.536026995505569204e+00 6.671930473783993421e+01 3.360000000000000000e+02
3.765789673439401408e+00 6.553324636335057107e+01 3.360000000000000000e+02
2.995552351373233169e+00 6.434718798886122215e+01 3.360000000000000000e+02
2.225315029307065373e+00 6.316112961437185902e+01 3.360000000000000000e+02
1.455077707240897578e+00 6.197507123988250299e+01 3.360000000000000000e+02
6.848403851747297821e-01 6.078901286539313986e+01 3.360000000000000000e+02
-8.539693689143934563e-02 5.960295449090378384e+01 3.360000000000000000e+02
4.536026995505569204e+00 6.671930473783993421e+01 3.370000000000000000e+02
3.765789673439401408e+00 6.553324636335057107e+01 3.370000000000000000e+02
2.995552351373233169e+00 6.434718798886122215e+01 3.370000000000000000e+02
2.225315029307065373e+00 6.316112961437185902e+01 3.370000000000000000e+02
1.455077707240897578e+00 6.197507123988250299e+01 3.370000000000000000e+02
6.848403851747297821e-01 6.078901286539313986e+01 3.370000000000000000e+02
-8.539693689143934563e-02 5.960295449090378384e+01 3.370000000000000000e+02
5.514174843783332669e+00 6.692721526405152588e+01 3.380000000000000000e+02
4.743937521717164429e+00 6.574115688956217696e+01 3.380000000000000000e+02
3.973700199650996190e+00 6.455509851507281383e+01 3.380000000000000000e+02
3.203462877584828394e+00 6.336904014058345069e+01 3.380000000000000000e+02
2.433225555518660599e+00 6.218298176609409467e+01 3.380000000000000000e+02
1.662988233452492359e+00 6.099692339160473864e+01 3.380000000000000000e+02
8.927509113863241197e-01 5.981086501711538261e+01 3.380000000000000000e+02
1.225135893201558801e-01 5.862480664262601948e+01 3.380000000000000000e+02
5.514174843783332669e+00 6.692721526405152588e+01 3.390000000000000000e+02
4.743937521717164429e+00 6.574115688956217696e+01 3.390000000000000000e+02
3.973700199650996190e+00 6.455509851507281383e+01 3.390000000000000000e+02
3.203462877584828394e+00 6.336904014058345069e+01 3.390000000000000000e+02
2.433225555518660599e+00 6.218298176609409467e+01 3.390000000000000000e+02
1.662988233452492359e+00 6.099692339160473864e+01 3.390000000000000000e+02
8.927509113863241197e-01 5.981086501711538261e+01 3.390000000000000000e+02
1.225135893201558801e-01 5.862480664262601948e+01 3.390000000000000000e+02
-6.477237327460114713e-01 5.743874826813666346e+01 3.390000000000000000e+02
4.536026995505569204e+00 6.671930473783993421e+01 3.400000000000000000e+02
3.765789673439401408e+00 6.553324636335057107e+01 3.400000000000000000e+02
2.995552351373233169e+00 6.434718798886122215e+01 3.400000000000000000e+02
2.225315029307065373e+00 6.316112961437185902e+01 3.400000000000000000e+02
1.455077707240897578e+00 6.197507123988250299e+01 3.400000000000000000e+02
6.848403851747297821e-01 6.078901286539313986e+01 3.400000000000000000e+02
-8.539693689143934563e-02 5.960295449090378384e+01 3.400000000000000000e+02
-8.556342589576066970e-01 5.841689611641442781e+01 3.400000000000000000e+02
4.536026995505569204e+00 6.671930473783993421e+01 3.410000000000000000e+02
3.765789673439401408e+00 6.553324636335057107e+01 3.410000000000000000e+02
2.995552351373233169e+00 6.434718798886122215e+01 3.410000000000000000e+02
2.225315029307065373e+00 6.316112961437185902e+01 3.410000000000000000e+02
1.455077707240897578e+00 6.197507123988250299e+01 3.410000000000000000e+02
6.848403851747297821e-01 6.078901286539313986e+01 3.410000000000000000e+02
-8.539693689143934563e-02 5.960295449090378384e+01 3.410000000000000000e+02
-8.556342589576066970e-01 5.841689611641442781e+01 3.410000000000000000e+02
3.557879147227806182e+00 6.651139421162834253e+01 3.420000000000000000e+02
2.787641825161638387e+00 6.532533583713897940e+01 3.420000000000000000e+02
2.017404503095470591e+00 6.413927746264961627e+01 3.420000000000000000e+02
