4.644751732096579211e-01 -6.453415794274417472e+00 3.200000000000000000e+02
-7.795355833857566807e-01 -7.126050343992839764e+00 3.200000000000000000e+02
7.928539712782145088e+00 -2.417608495963884607e+00 3.210000000000000000e+02
6.684528956186730042e+00 -3.090243045682306455e+00 3.210000000000000000e+02
5.440518199591315884e+00 -3.762877595400728747e+00 3.210000000000000000e+02
4.196507442995901727e+00 -4.435512145119150595e+00 3.210000000000000000e+02
2.952496686400486681e+00 -5.108146694837572888e+00 3.210000000000000000e+02
1.708485929805072523e+00 -5.780781244555995180e+00 3.210000000000000000e+02
4.644751732096579211e-01 -6.453415794274417472e+00 3.210000000000000000e+02
-7.795355833857566807e-01 -7.126050343992839764e+00 3.210000000000000000e+02
7.928539712782145088e+00 -2.417608495963884607e+00 3.220000000000000000e+02
6.684528956186730042e+00 -3.090243045682306455e+00 3.220000000000000000e+02
5.440518199591315884e+00 -3.762877595400728747e+00 3.220000000000000000e+02
4.196507442995901727e+00 -4.435512145119150595e+00 3.220000000000000000e+02
2.952496686400486681e+00 -5.108146694837572888e+00 3.220000000000000000e+02
1.708485929805072523e+00 -5.780781244555995180e+00 3.220000000000000000e+02
4.644751732096579211e-01 -6.453415794274417472e+00 3.220000000000000000e+02
-7.795355833857566807e-01 -7.126050343992839764e+00 3.220000000000000000e+02
7.928539712782145088e+00 -2.417608495963884607e+00 3.230000000000000000e+02
6.684528956186730042e+00 -3.090243045682306455e+00 3.230000000000000000e+02
5.440518199591315884e+00 -3.762877595400728747e+00 3.230000000000000000e+02
4.196507442995901727e+00 -4.435512145119150595e+00 3.230000000000000000e+02
2.952496686400486681e+00 -5.108146694837572888e+00 3.230000000000000000e+02
1.708485929805072523e+00 -5.780781244555995180e+00 3.230000000000000000e+02
4.644751732096579211e-01 -6.453415794274417472e+00 3.230000000000000000e+02
-7.795355833857566807e-01 -7.126050343992839764e+00 3.230000000000000000e+02
7.928539712782145088e+00 -2.417608495963884607e+00 3.240000000000000000e+02
6.684528956186730042e+00 -3.090243045682306455e+00 3.240000000000000000e+02
5.440518199591315884e+00 -3.762877595400728747e+00 3.240000000000000000e+02
4.196507442995901727e+00 -4.435512145119150595e+00 3.240000000000000000e+02
2.952496686400486681e+00 -5.108146694837572888e+00 3.240000000000000000e+02
1.708485929805072523e+00 -5.780781244555995180e+00 3.240000000000000000e+02
4.644751732096579211e-01 -6.453415794274417472e+00 3.240000000000000000e+02
-7.795355833857566807e-01 -7.126050343992839764e+00 3.240000000000000000e+02
-2.023546339981170838e+00 -7.798684893711261168e+00 3.240000000000000000e+02
7.928539712782145088e+00 -2.417608495963884607e+00 3.250000000000000000e+02
6.684528956186730042e+00 -3.090243045682306455e+00 3.250000000000000000e+02
5.440518199591315884e+00 -3.762877595400728747e+00 3.250000000000000000e+02
4.196507442995901727e+00 -4.435512145119150595e+00 3.250000000000000000e+02
2.952496686400486681e+00 -5.108146694837572888e+00 3.250000000000000000e+02
1.708485929805072523e+00 -5.780781244555995180e+00 3.250000000000000000e+02
4.644751732096579211e-01 -6.453415794274417472e+00 3.250000000000000000e+02
-7.795355833857566807e-01 -7.126050343992839764e+00 3.250000000000000000e+02
-2.023546339981170838e+00 -7.798684893711261168e+00 3.250000000000000000e+02
8.886862365939062869e+00 -2.703296599402380540e+00 3.260000000000000000e+02
7.642851609343649599e+00 -3.375931149120802388e+00 3.260000000000000000e+02
6.398840852748234553e+00 -4.048565698839224680e+00 3.260000000000000000e+02
5.154830096152819507e+00 -4.721200248557646972e+00 3.260000000000000000e+02
3.910819339557405350e+00 -5.393834798276069264e+00 3.260000000000000000e+02
2.666808582961990748e+00 -6.066469347994491557e+00 3.260000000000000000e+02
1.422797826366576590e+00 -6.739103897712913849e+00 3.260000000000000000e+02
1.787870697711619883e-01 -7.411738447431336141e+00 3.260000000000000000e+02
-1.065223686824253058e+00 -8.084372997149756657e+00 3.260000000000000000e+02
-2.309234443419667215e+00 -8.757007546868180725e+00 3.260000000000000000e+02
8.886862365939062869e+00 -2.703296599402380540e+00 3.270000000000000000e+02
7.642851609343649599e+00 -3.375931149120802388e+00 3.270000000000000000e+02
6.398840852748234553e+00 -4.048565698839224680e+00 3.270000000000000000e+02
5.154830096152819507e+00 -4.721200248557646972e+00 3.270000000000000000e+02
3.910819339557405350e+00 -5.393834798276069264e+00 3.270000000000000000e+02
2.666808582961990748e+00 -6.066469347994491557e+00 3.270000000000000000e+02
1.422797826366576590e+00 -6.739103897712913849e+00 3.270000000000000000e+02
1.787870697711619883e-01 -7.411738447431336141e+00 3.270000000000000000e+02
-1.065223686824253058e+00 -8.084372997149756657e+00 3.270000000000000000e+02
-2.309234443419667215e+00 -8.757007546868180725e+00 3.270000000000000000e+02
7.928539712782145088e+00 -2.417608495963884607e+00 3.280000000000000000e+02
6.684528956186730042e+00 -3.090243045682306455e+00 3.280000000000000000e+02
5.440518199591315884e+00 -3.762877595400728747e+00 3.280000000000000000e+02
4.196507442995901727e+00 -4.435512145119150595e+00 3.280000000000000000e+02
2.952496686400486681e+00 -5.108146694837572888e+00 3.280000000000000000e+02
1.708485929805072523e+00 -5.780781244555995180e+00 3.280000000000000000e+02
4.644751732096579211e-01 -6.453415794274417472e+00 3.280000000000000000e+02
-7.795355833857566807e-01 -7.126050343992839764e+00 3.280000000000000000e+02
-2.023546339981170838e+00 -7.798684893711261168e+00 3.280000000000000000e+02
7.928539712782145088e+00 -2.417608495963884607e+00 3.290000000000000000e+02
6.684528956186730042e+00 -3.090243045682306455e+00 3.290000000000000000e+02
5.440518199591315884e+00 -3.762877595400728747e+00 3.290000000000000000e+02
4.196507442995901727e+00 -4.435512145119150595e+00 3.290000000000000000e+02
2.952496686400486681e+00 -5.108146694837572888e+00 3.290000000000000000e+02
1.708485929805072523e+00 -5.780781244555995180e+00 3.290000000000000000e+02
4.644751732096579211e-01 -6.453415794274417472e+00 3.290000000000000000e+02
-7.795355833857566807e-01 -7.126050343992839764e+00 3.290000000000000000e+02
-2.023546339981170838e+00 -7.798684893711261168e+00 3.290000000000000000e+02
7.928539712782145088e+00 -2.417608495963884607e+00 3.300000000000000000e+02
6.684528956186730042e+00 -3.090243045682306455e+00 3.300000000000000000e+02
5.440518199591315884e+00 -3.762877595400728747e+00 3.300000000000000000e+02
4.196507442995901727e+00 -4.435512145119150595e+00 3.300000000000000000e+02
2.952496686400486681e+00 -5.108146694837572888e+00 3.300000000000000000e+02
1.708485929805072523e+00 -5.780781244555995180e+00 3.300000000000000000e+02
4.644751732096579211e-01 -6.453415794274417472e+00 3.300000000000000000e+02
-7.795355833857566807e-01 -7.126050343992839764e+00 3.300000000000000000e+02
-2.023546339981170838e+00 -7.798684893711261168e+00 3.300000000000000000e+02
7.928539712782145088e+00 -2.417608495963884607e+00 3.310000000000000000e+02
6.684528956186730042e+00 -3.090243045682306455e+00 3.310000000000000000e+02
5.440518199591315884e+00 -3.762877595400728747e+00 3.310000000000000000e+02
4.196507442995901727e+00 -4.435512145119150595e+00 3.310000000000000000e+02
2.952496686400486681e+00 -5.108146694837572888e+00 3.310000000000000000e+02
1.708485929805072523e+00 -5.780781244555995180e+00 3.310000000000000000e+02
4.644751732096579211e-01 -6.453415794274417472e+00 3.310000000000000000e+02
-7.795355833857566807e-01 -7.126050343992839764e+00 3.310000000000000000e+02
-2.023546339981170838e+00 -7.798684893711261168e+00 3.310000000000000000e+02
7.928539712782145088e+00 -2.417608495963884607e+00 3.320000000000000000e+02
6.684528956186730042e+00 -3.090243045682306455e+00 3.320000000000000000e+02
5.440518199591315884e+00 -3.762877595400728747e+00 3.320000000000000000e+02
4.196507442995901727e+00 -4.435512145119150595e+00 3.320000000000000000e+02
2.952496686400486681e+00 -5.108146694837572888e+00 3.320000000000000000e+02
1.708485929805072523e+00 -5.780781244555995180e+00 3.320000000000000000e+02
4.644751732096579211e-01 -6.453415794274417472e+00 3.320000000000000000e+02
-7.795355833857566807e-01 -7.126050343992839764e+00 3.320000000000000000e+02
-2.023546339981170838e+00 -7.798684893711261168e+00 3.320000000000000000e+02
7.928539712782145088e+00 -2.417608495963884607e+00 3.330000000000000000e+02
6.684528956186730042e+00 -3.090243045682306455e+00 3.330000000000000000e+02
5.440518199591315884e+00 -3.762877595400728747e+00 3.330000000000000000e+02
4.196507442995901727e+00 -4.435512145119150595e+00 3.330000000000000000e+02
2.952496686400486681e+00 -5.108146694837572888e+00 3.330000000000000000e+02
1.708485929805072523e+00 -5.780781244555995180e+00 3.330000000000000000e+02
4.644751732096579211e-01 -6.453415794274417472e+00 3.330000000000000000e+02
-7.795355833857566807e-01 -7.126050343992839764e+00 3.330000000000000000e+02
-2.023546339981170838e+00 -7.798684893711261168e+00 3.330000000000000000e+02
7.928539712782145088e+00 -2.417608495963884607e+00 3.340000000000000000e+02
6.684528956186730042e+00 -3.090243045682306455e+00 3.340000000000000000e+02
5.440518199591315884e+00 -3.762877595400728747e+00 3.340000000000000000e+02
4.196507442995901727e+00 -4.435512145119150595e+00 3.340000000000000000e+02
2.952496686400486681e+00 -5.108146694837572888e+00 3.340000000000000000e+02
1.708485929805072523e+00 -5.780781244555995180e+00 3.340000000000000000e+02
4.644751732096579211e-01 -6.453415794274417472e+00 3.340000000000000000e+02
-7.795355833857566807e-01 -7.126050343992839764e+00 3.340000000000000000e+02
-2.023546339981170838e+00 -7.798684893711261168e+00 3.340000000000000000e+02
7.928539712782145088e+00 -2.417608495963884607e+00 3.350000000000000000e+02
6.684528956186730042e+00 -3.090243045682306455e+00 3.350000000000000000e+02
5.440518199591315884e+00 -3.762877595400728747e+00 3.350000000000000000e+02
4.196507442995901727e+00 -4.435512145119150595e+00 3.350000000000000000e+02
2.952496686400486681e+00 -5.108146694837572888e+00 3.350000000000000000e+02
1.708485929805072523e+00 -5.780781244555995180e+00 3.350000000000000000e+02
4.644751732096579211e-01 -6.453415794274417472e+00 3.350000000000000000e+02
-7.795355833857566807e-01 -7.126050343992839764e+00 3.350000000000000000e+02
-2.023546339981170838e+00 -7.798684893711261168e+00 3.350000000000000000e+02
7.928539712782145088e+00 -2.417608495963884607e+00 3.360000000000000000e+02
6.684528956186730042e+00 -3.090243045682306455e+00 3.360000000000000000e+02
5.440518199591315884e+00 -3.762877595400728747e+00 3.360000000000000000e+02
4.196507442995901727e+00 -4.435512145119150595e+00 3.360000000000000000e+02
2.952496686400486681e+00 -5.108146694837572888e+00 3.360000000000000000e+02
1.708485929805072523e+00 -5.780781244555995180e+00 3.360000000000000000e+02
4.644751732096579211e-01 -6.453415794274417472e+00 3.360000000000000000e+02
-7.795355833857566807e-01 -7.126050343992839764e+00 3.360000000000000000e+02
-2.023546339981170838e+00 -7.798684893711261168e+00 3.360000000000000000e+02
7.928539712782145088e+00 -2.417608495963884607e+00 3.370000000000000000e+02
6.684528956186730042e+00 -3.090243045682306455e+00 3.370000000000000000e+02
5.440518199591315884e+00 -3.762877595400728747e+00 3.370000000000000000e+02
4.196507442995901727e+00 -4.435512145119150595e+00 3.370000000000000000e+02
2.952496686400486681e+00 -5.108146694837572888e+00 3.370000000000000000e+02
1.708485929805072523e+00 -5.780781244555995180e+00 3.370000000000000000e+02
4.644751732096579211e-01 -6.453415794274417472e+00 3.370000000000000000e+02
-7.795355833857566807e-01 -7.126050343992839764e+00 3.370000000000000000e+02
-2.023546339981170838e+00 -7.798684893711261168e+00 3.370000000000000000e+02
6.970217059625226419e+00 -2.131920392525388230e+00 3.380000000000000000e+02
5.726206303029812261e+00 -2.804554942243810522e+00 3.380000000000000000e+02
4.482195546434397215e+00 -3.477189491962232815e+00 3.380000000000000000e+02
3.238184789838983058e+00 -4.149824041680655107e+00 3.380000000000000000e+02
1.994174033243568678e+00 -4.822458591399076511e+00 3.380000000000000000e+02
7.501632766481542980e-01 -5.495093141117498803e+00 3.380000000000000000e+02
-4.938474799472603038e-01 -6.167727690835921095e+00 3.380000000000000000e+02
-1.737858236542675350e+00 -6.840362240554343387e+00 3.380000000000000000e+02
7.928539712782145088e+00 -2.417608495963884607e+00 3.390000000000000000e+02
6.684528956186730042e+00 -3.090243045682306455e+00 3.390000000000000000e+02
5.440518199591315884e+00 -3.762877595400728747e+00 3.390000000000000000e+02
4.196507442995901727e+00 -4.435512145119150595e+00 3.390000000000000000e+02
2.952496686400486681e+00 -5.108146694837572888e+00 3.390000000000000000e+02
1.708485929805072523e+00 -5.780781244555995180e+00 3.390000000000000000e+02
4.644751732096579211e-01 -6.453415794274417472e+00 3.390000000000000000e+02
-7.795355833857566807e-01 -7.126050343992839764e+00 3.390000000000000000e+02
-2.023546339981170838e+00 -7.798684893711261168e+00 3.390000000000000000e+02
7.928539712782145088e+00 -2.417608495963884607e+00 3.400000000000000000e+02
6.684528956186730042e+00 -3.090243045682306455e+00 3.400000000000000000e+02
5.440518199591315884e+00 -3.762877595400728747e+00 3.400000000000000000e+02
4.196507442995901727e+00 -4.435512145119150595e+00 3.400000000000000000e+02
2.952496686400486681e+00 -5.108146694837572888e+00 3.400000000000000000e+02
1.708485929805072523e+00 -5.780781244555995180e+00 3.400000000000000000e+02
4.644751732096579211e-01 -6.453415794274417472e+00 3.400000000000000000e+02
-7.795355833857566807e-01 -7.126050343992839764e+00 3.400000000000000000e+02
-2.023546339981170838e+00 -7.798684893711261168e+00 3.400000000000000000e+02
7.928539712782145088e+00 -2.417608495963884607e+00 3.410000000000000000e+02
6.684528956186730042e+00 -3.090243045682306455e+00 3.410000000000000000e+02
5.440518199591315884e+00 -3.762877595400728747e+00 3.410000000000000000e+02
4.196507442995901727e+00 -4.435512145119150595e+00 3.410000000000000000e+02
2.952496686400486681e+00 -5.108146694837572888e+00 3.410000000000000000e+02
1.708485929805072523e+00 -5.780781244555995180e+00 3.410000000000000000e+02
4.644751732096579211e-01 -6.453415794274417472e+00 3.410000000000000000e+02
-7.795355833857566807e-01 -7.126050343992839764e+00 3.410000000000000000e+02
-2.023546339981170838e+00 -7.798684893711261168e+00 3.410000000000000000e+02
7.928539712782145088e+00 -2.417608495963884607e+00 3.420000000000000000e+02
6.684528956186730042e+00 -3.090243045682306455e+00 3.420000000000000000e+02
5.440518199591315884e+00 -3.762877595400728747e+00 3.420000000000000000e+02
4.196507442995901727e+00 -4.435512145119150595e+00 3.420000000000000000e+02
2.952496686400486681e+00 -5.108146694837572888e+00 3.420000000000000000e+02
1.708485929805072523e+00 -5.780781244555995180e+00 3.420000000000000000e+02
4.644751732096579211e-01 -6.453415794274417472e+00 3.420000000000000000e+02
-7.795355833857566807e-01 -7.126050343992839764e+00 3.420000000000000000e+02
-2.023546339981170838e+00 -7.798684893711261168e+00 3.420000000000000000e+02
7.928539712782145088e+00 -2.417608495963884607e+00 3.430000000000000000e+02
6.684528956186730042e+00 -3.090243045682306455e+00 3.430000000000000000e+02
5.440518199591315884e+00 -3.762877595400728747e+00 3.430000000000000000e+02
4.196507442995901727e+00 -4.435512145119150595e+00 3.430000000000000000e+02
2.952496686400486681e+00 -5.108146694837572888e+00 3.430000000000000000e+02
1.708485929805072523e+00 -5.780781244555995180e+00 3.430000000000000000e+02
4.644751732096579211e-01 -6.453415794274417472e+00 3.430000000000000000e+02
-7.795355833857566807e-01 -7.126050343992839764e+00 3.430000000000000000e+02
-2.023546339981170838e+00 -7.798684893711261168e+00 3.430000000000000000e+02
6.970217059625226419e+00 -2.131920392525388230e+00 3.440000000000000000e+02
5.726206303029812261e+00 -2.804554942243810522e+00 3.440000000000000000e+02
4.482195546434397215e+00 -3.477189491962232815e+00 3.440000000000000000e+02
3.238184789838983058e+00 -4.149824041680655107e+00 3.440000000000000000e+02
1.994174033243568678e+00 -4.822458591399076511e+00 3.440000000000000000e+02
7.501632766481542980e-01 -5.495093141117498803e+00 3.440000000000000000e+02
-4.938474799472603038e-01 -6.167727690835921095e+00 3.440000000000000000e+02
-1.737858236542675350e+00 -6.840362240554343387e+00 3.440000000000000000e+02
6.970217059625226419e+00 -2.131920392525388230e+00 3.450000000000000000e+02
5.726206303029812261e+00 -2.804554942243810522e+00 3.450000000000000000e+02
4.482195546434397215e+00 -3.477189491962232815e+00 3.450000000000000000e+02
3.238184789838983058e+00 -4.149824041680655107e+00 3.450000000000000000e+02
1.994174033243568678e+00 -4.822458591399076511e+00 3.450000000000000000e+02
7.501632766481542980e-01 -5.495093141117498803e+00 3.450000000000000000e+02
-4.938474799472603038e-01 -6.167727690835921095e+00 3.450000000000000000e+02
-1.737858236542675350e+00 -6.840362240554343387e+00 3.450000000000000000e+02
7.928539712782145088e+00 -2.417608495963884607e+00 3.460000000000000000e+02
6.684528956186730042e+00 -3.090243045682306455e+00 3.460000000000000000e+02
5.440518199591315884e+00 -3.762877595400728747e+00 3.460000000000000000e+02
4.196507442995901727e+00 -4.435512145119150595e+00 3.460000000000000000e+02
2.952496686400486681e+00 -5.108146694837572888e+00 3.460000000000000000e+02
1.708485929805072523e+00 -5.780781244555995180e+00 3.460000000000000000e+02
4.644751732096579211e-01 -6.453415794274417472e+00 3.460000000000000000e+02
-7.795355833857566807e-01 -7.126050343992839764e+00 3.460000000000000000e+02
-2.023546339981170838e+00 -7.798684893711261168e+00 3.460000000000000000e+02
7.928539712782145088e+00 -2.417608495963884607e+00 3.470000000000000000e+02
6.684528956186730042e+00 -3.090243045682306455e+00 3.470000000000000000e+02
5.440518199591315884e+00 -3.762877595400728747e+00 3.470000000000000000e+02
4.196507442995901727e+00 -4.435512145119150595e+00 3.470000000000000000e+02
2.952496686400486681e+00 -5.108146694837572888e+00 3.470000000000000000e+02
1.708485929805072523e+00 -5.780781244555995180e+00 3.470000000000000000e+02
4.644751732096579211e-01 -6.453415794274417472e+00 3.470000000000000000e+02
-7.795355833857566807e-01 -7.126050343992839764e+00 3.470000000000000000e+02
-2.023546339981170838e+00 -7.798684893711261168e+00 3.470000000000000000e+02
7.928539712782145088e+00 -2.417608495963884607e+00 3.480000000000000000e+02
6.684528956186730042e+00 -3.090243045682306455e+00 3.480000000000000000e+02
5.440518199591315884e+00 -3.762877595400728747e+00 3.480000000000000000e+02
4.196507442995901727e+00 -4.435512145119150595e+00 3.480000000000000000e+02
2.952496686400486681e+00 -5.108146694837572888e+00 3.480000000000000000e+02
1.708485929805072523e+00 -5.780781244555995180e+00 3.480000000000000000e+02
4.644751732096579211e-01 -6.453415794274417472e+00 3.480000000000000000e+02
-7.795355833857566807e-01 -7.126050343992839764e+00 3.480000000000000000e+02
-2.023546339981170838e+00 -7.798684893711261168e+00 3.480000000000000000e+02
7.928539712782145088e+00 -2.417608495963884607e+00 3.490000000000000000e+02
6.684528956186730042e+00 -3.090243045682306455e+00 3.490000000000000000e+02
5.440518199591315884e+00 -3.762877595400728747e+00 3.490000000000000000e+02
4.196507442995901727e+00 -4.435512145119150595e+00 3.490000000000000000e+02
2.952496686400486681e+00 -5.108146694837572888e+00 3.490000000000000000e+02
1.708485929805072523e+00 -5.780781244555995180e+00 3.490000000000000000e+02
4.644751732096579211e-01 -6.453415794274417472e+00 3.490000000000000000e+02
-7.795355833857566807e-01 -7.126050343992839764e+00 3.490000000000000000e+02
-2.023546339981170838e+00 -7.798684893711261168e+00 3.490000000000000000e+02
7.928539712782145088e+00 -2.417608495963884607e+00 3.500000000000000000e+02
6.684528956186730042e+00 -3.090243045682306455e+00 3.500000000000000000e+02
5.440518199591315884e+00 -3.762877595400728747e+00 3.500000000000000000e+02
4.196507442995901727e+00 -4.435512145119150595e+00 3.500000000000000000e+02
2.952496686400486681e+00 -5.108146694837572888e+00 3.500000000000000000e+02
1.708485929805072523e+00 -5.780781244555995180e+00 3.500000000000000000e+02
4.644751732096579211e-01 -6.453415794274417472e+00 3.500000000000000000e+02
-7.795355833857566807e-01 -7.126050343992839764e+00 3.500000000000000000e+02
-2.023546339981170838e+00 -7.798684893711261168e+00 3.500000000000000000e+02
6.970217059625226419e+00 -2.131920392525388230e+00 3.510000000000000000e+02
5.726206303029812261e+00 -2.804554942243810522e+00 3.510000000000000000e+02
4.482195546434397215e+00 -3.477189491962232815e+00 3.510000000000000000e+02
3.238184789838983058e+00 -4.149824041680655107e+00 3.510000000000000000e+02
1.994174033243568678e+00 -4.822458591399076511e+00 3.510000000000000000e+02
7.501632766481542980e-01 -5.495093141117498803e+00 3.510000000000000000e+02
-4.938474799472603038e-01 -6.167727690835921095e+00 3.510000000000000000e+02
-1.737858236542675350e+00 -6.840362240554343387e+00 3.510000000000000000e+02
6.970217059625226419e+00 -2.131920392525388230e+00 3.520000000000000000e+02
5.726206303029812261e+00 -2.804554942243810522e+00 3.520000000000000000e+02
4.482195546434397215e+00 -3.477189491962232815e+00 3.520000000000000000e+02
3.238184789838983058e+00 -4.149824041680655107e+00 3.520000000000000000e+02
1.994174033243568678e+00 -4.822458591399076511e+00 3.520000000000000000e+02
7.501632766481542980e-01 -5.495093141117498803e+00 3.520000000000000000e+02
-4.938474799472603038e-01 -6.167727690835921095e+00 3.520000000000000000e+02
-1.737858236542675350e+00 -6.840362240554343387e+00 3.520000000000000000e+02
7.928539712782145088e+00 -2.417608495963884607e+00 3.530000000000000000e+02
6.684528956186730042e+00 -3.090243045682306455e+00 3.530000000000000000e+02
5.440518199591315884e+00 -3.762877595400728747e+00 3.530000000000000000e+02
4.196507442995901727e+00 -4.435512145119150595e+00 3.530000000000000000e+02
2.952496686400486681e+00 -5.108146694837572888e+00 3.530000000000000000e+02
1.708485929805072523e+00 -5.780781244555995180e+00 3.530000000000000000e+02
4.644751732096579211e-01 -6.453415794274417472e+00 3.530000000000000000e+02
-7.795355833857566807e-01 -7.126050343992839764e+00 3.530000000000000000e+02
-2.023546339981170838e+00 -7.798684893711261168e+00 3.530000000000000000e+02
7.928539712782145088e+00 -2.417608495963884607e+00 3.540000000000000000e+02
6.684528956186730042e+00 -3.090243045682306455e+00 3.540000000000000000e+02
5.440518199591315884e+00 -3.762877595400728747e+00 3.540000000000000000e+02
4.196507442995901727e+00 -4.435512145119150595e+00 3.540000000000000000e+02
2.952496686400486681e+00 -5.108146694837572888e+00 3.540000000000000000e+02
1.708485929805072523e+00 -5.780781244555995180e+00 3.540000000000000000e+02
4.644751732096579211e-01 -6.453415794274417472e+00 3.540000000000000000e+02
-7.795355833857566807e-01 -7.126050343992839764e+00 3.540000000000000000e+02
-2.023546339981170838e+00 -7.798684893711261168e+00 3.540000000000000000e+02
7.928539712782145088e+00 -2.417608495963884607e+00 3.550000000000000000e+02
6.684528956186730042e+00 -3.090243045682306455e+00 3.550000000000000000e+02
5.440518199591315884e+00 -3.762877595400728747e+00 3.550000000000000000e+02
4.196507442995901727e+00 -4.435512145119150595e+00 3.550000000000000000e+02
2.952496686400486681e+00 -5.108146694837572888e+00 3.550000000000000000e+02
1.708485929805072523e+00 -5.780781244555995180e+00 3.550000000000000000e+02
4.644751732096579211e-01 -6.453415794274417472e+00 3.550000000000000000e+02
-7.795355833857566807e-01 -7.126050343992839764e+00 3.550000000000000000e+02
-2.023546339981170838e+00 -7.798684893711261168e+00 3.550000000000000000e+02
7.928539712782145088e+00 -2.417608495963884607e+00 3.560000000000000000e+02
6.684528956186730042e+00 -3.090243045682306455e+00 3.560000000000000000e+02
5.440518199591315884e+00 -3.762877595400728747e+00 3.560000000000000000e+02
4.196507442995901727e+00 -4.435512145119150595e+00 3.560000000000000000e+02
2.952496686400486681e+00 -5.108146694837572888e+00 3.560000000000000000e+02
1.708485929805072523e+00 -5.780781244555995180e+00 3.560000000000000000e+02
4.644751732096579211e-01 -6.453415794274417472e+00 3.560000000000000000e+02
-7.795355833857566807e-01 -7.126050343992839764e+00 3.560000000000000000e+02
-2.023546339981170838e+00 -7.798684893711261168e+00 3.560000000000000000e+02
7.928539712782145088e+00 -2.417608495963884607e+00 3.570000000000000000e+02
6.684528956186730042e+00 -3.090243045682306455e+00 3.570000000000000000e+02
5.440518199591315884e+00 -3.762877595400728747e+00 3.570000000000000000e+02
4.196507442995901727e+00 -4.435512145119150595e+00 3.570000000000000000e+02
2.952496686400486681e+00 -5.108146694837572888e+00 3.570000000000000000e+02
1.708485929805072523e+00 -5.780781244555995180e+00 3.570000000000000000e+02
4.644751732096579211e-01 -6.453415794274417472e+00 3.570000000000000000e+02
-7.795355833857566807e-01 -7.126050343992839764e+00 3.570000000000000000e+02
-2.023546339981170838e+00 -7.798684893711261168e+00 3.570000000000000000e+02
7.928539712782145088e+00 -2.417608495963884607e+00 3.580000000000000000e+02
6.684528956186730042e+00 -3.090243045682306455e+00 3.580000000000000000e+02
5.440518199591315884e+00 -3.762877595400728747e+00 3.580000000000000000e+02
4.196507442995901727e+00 -4.435512145119150595e+00 3.580000000000000000e+02
2.952496686400486681e+00 -5.108146694837572888e+00 3.580000000000000000e+02
1.708485929805072523e+00 -5.780781244555995180e+00 3.580000000000000000e+02
4.644751732096579211e-01 -6.453415794274417472e+00 3.580000000000000000e+02
-7.795355833857566807e-01 -7.126050343992839764e+00 3.580000000000000000e+02
-2.023546339981170838e+00 -7.798684893711261168e+00 3.580000000000000000e+02
7.928539712782145088e+00 -2.417608495963884607e+00 3.590000000000000000e+02
6.684528956186730042e+00 -3.090243045682306455e+00 3.590000000000000000e+02
5.440518199591315884e+00 -3.762877595400728747e+00 3.590000000000000000e+02
4.196507442995901727e+00 -4.435512145119150595e+00 3.590000000000000000e+02
2.952496686400486681e+00 -5.108146694837572888e+00 3.590000000000000000e+02
1.708485929805072523e+00 -5.780781244555995180e+00 3.590000000000000000e+02
4.644751732096579211e-01 -6.453415794274417472e+00 3.590000000000000000e+02
-7.795355833857566807e-01 -7.126050343992839764e+00 3.590000000000000000e+02
-2.023546339981170838e+00 -7.798684893711261168e+00 3.590000000000000000e+02
7.928539712782145088e+00 -2.417608495963884607e+00 3.600000000000000000e+02
6.684528956186730042e+00 -3.090243045682306455e+00 3.600000000000000000e+02
5.440518199591315884e+00 -3.762877595400728747e+00 3.600000000000000000e+02
4.196507442995901727e+00 -4.435512145119150595e+00 3.600000000000000000e+02
2.952496686400486681e+00 -5.108146694837572888e+00 3.600000000000000000e+02
1.708485929805072523e+00 -5.780781244555995180e+00 3.600000000000000000e+02
4.644751732096579211e-01 -6.453415794274417472e+00 3.600000000000000000e+02
-7.795355833857566807e-01 -7.126050343992839764e+00 3.600000000000000000e+02
-2.023546339981170838e+00 -7.798684893711261168e+00 3.600000000000000000e+02
7.928539712782145088e+00 -2.417608495963884607e+00 3.610000000000000000e+02
6.684528956186730042e+00 -3.090243045682306455e+00 3.610000000000000000e+02
5.440518199591315884e+00 -3.762877595400728747e+00 3.610000000000000000e+02
4.196507442995901727e+00 -4.435512145119150595e+00 3.610000000000000000e+02
2.952496686400486681e+00 -5.108146694837572888e+00 3.610000000000000000e+02
1.708485929805072523e+00 -5.780781244555995180e+00 3.610000000000000000e+02
4.644751732096579211e-01 -6.453415794274417472e+00 3.610000000000000000e+02
-7.795355833857566807e-01 -7.126050343992839764e+00 3.610000000000000000e+02
-2.023546339981170838e+00 -7.798684893711261168e+00 3.610000000000000000e+02
7.928539712782145088e+00 -2.417608495963884607e+00 3.620000000000000000e+02
6.684528956186730042e+00 -3.090243045682306455e+00 3.620000000000000000e+02
5.440518199591315884e+00 -3.762877595400728747e+00 3.620000000000000000e+02
4.196507442995901727e+00 -4.435512145119150595e+00 3.620000000000000000e+02
2.952496686400486681e+00 -5.108146694837572888e+00 3.620000000000000000e+02
1.708485929805072523e+00 -5.780781244555995180e+00 3.620000000000000000e+02
4.644751732096579211e-01 -6.453415794274417472e+00 3.620000000000000000e+02
-7.795355833857566807e-01 -7.126050343992839764e+00 3.620000000000000000e+02
-2.023546339981170838e+00 -7.798684893711261168e+00 3.620000000000000000e+02
7.928539712782145088e+00 -2.417608495963884607e+00 3.630000000000000000e+02
6.684528956186730042e+00 -3.090243045682306455e+00 3.630000000000000000e+02
5.440518199591315884e+00 -3.762877595400728747e+00 3.630000000000000000e+02
4.196507442995901727e+00 -4.435512145119150595e+00 3.630000000000000000e+02
2.952496686400486681e+00 -5.108146694837572888e+00 3.630000000000000000e+02
1.708485929805072523e+00 -5.780781244555995180e+00 3.630000000000000000e+02
4.644751732096579211e-01 -6.453415794274417472e+00 3.630000000000000000e+02
-7.795355833857566807e-01 -7.126050343992839764e+00 3.630000000000000000e+02
-2.023546339981170838e+00 -7.798684893711261168e+00 3.630000000000000000e+02
7.928539712782145088e+00 -2.417608495963884607e+00 3.640000000000000000e+02
6.684528956186730042e+00 -3.090243045682306455e+00 3.640000000000000000e+02
5.440518199591315884e+00 -3.762877595400728747e+00 3.640000000000000000e+02
4.196507442995901727e+00 -4.435512145119150595e+00 3.640000000000000000e+02
2.952496686400486681e+00 -5.108146694837572888e+00 3.640000000000000000e+02
1.708485929805072523e+00 -5.780781244555995180e+00 3.640000000000000000e+02
4.644751732096579211e-01 -6.453415794274417472e+00 3.640000000000000000e+02
-7.795355833857566807e-01 -7.126050343992839764e+00 3.640000000000000000e+02
-2.023546339981170838e+00 -7.798684893711261168e+00 3.640000000000000000e+02
6.970217059625226419e+00 -2.131920392525388230e+00 3.650000000000000000e+02
5.726206303029812261e+00 -2.804554942243810522e+00 3.650000000000000000e+02
4.482195546434397215e+00 -3.477189491962232815e+00 3.650000000000000000e+02
3.238184789838983058e+00 -4.149824041680655107e+00 3.650000000000000000e+02
1.994174033243568678e+00 -4.822458591399076511e+00 3.650000000000000000e+02
7.501632766481542980e-01 -5.495093141117498803e+00 3.650000000000000000e+02
-4.938474799472603038e-01 -6.167727690835921095e+00 3.650000000000000000e+02
-1.737858236542675350e+00 -6.840362240554343387e+00 3.650000000000000000e+02
6.970217059625226419e+00 -2.131920392525388230e+00 3.660000000000000000e+02
5.726206303029812261e+00 -2.804554942243810522e+00 3.660000000000000000e+02
4.482195546434397215e+00 -3.477189491962232815e+00 3.660000000000000000e+02
3.238184789838983058e+00 -4.149824041680655107e+00 3.660000000000000000e+02
1.994174033243568678e+00 -4.822458591399076511e+00 3.660000000000000000e+02
7.501632766481542980e-01 -5.495093141117498803e+00 3.660000000000000000e+02
-4.938474799472603038e-01 -6.167727690835921095e+00 3.660000000000000000e+02
-1.737858236542675350e+00 -6.840362240554343387e+00 3.660000000000000000e+02
6.970217059625226419e+00 -2.131920392525388230e+00 3.670000000000000000e+02
5.726206303029812261e+00 -2.804554942243810522e+00 3.670000000000000000e+02
4.482195546434397215e+00 -3.477189491962232815e+00 3.670000000000000000e+02
3.238184789838983058e+00 -4.149824041680655107e+00 3.670000000000000000e+02
1.994174033243568678e+00 -4.822458591399076511e+00 3.670000000000000000e+02
7.501632766481542980e-01 -5.495093141117498803e+00 3.670000000000000000e+02
-4.938474799472603038e-01 -6.167727690835921095e+00 3.670000000000000000e+02
-1.737858236542675350e+00 -6.840362240554343387e+00 3.670000000000000000e+02
6.970217059625226419e+00 -2.131920392525388230e+00 3.680000000000000000e+02
5.726206303029812261e+00 -2.804554942243810522e+00 3.680000000000000000e+02
4.482195546434397215e+00 -3.477189491962232815e+00 3.680000000000000000e+02
3.238184789838983058e+00 -4.149824041680655107e+00 3.680000000000000000e+02
1.994174033243568678e+00 -4.822458591399076511e+00 3.680000000000000000e+02
7.501632766481542980e-01 -5.495093141117498803e+00 3.680000000000000000e+02
-4.938474799472603038e-01 -6.167727690835921095e+00 3.680000000000000000e+02
-1.737858236542675350e+00 -6.840362240554343387e+00 3.680000000000000000e+02
6.970217059625226419e+00 -2.131920392525388230e+00 3.690000000000000000e+02
5.726206303029812261e+00 -2.804554942243810522e+00 3.690000000000000000e+02
4.482195546434397215e+00 -3.477189491962232815e+00 3.690000000000000000e+02
3.238184789838983058e+00 -4.149824041680655107e+00 3.690000000000000000e+02
1.994174033243568678e+00 -4.822458591399076511e+00 3.690000000000000000e+02
7.501632766481542980e-01 -5.495093141117498803e+00 3.690000000000000000e+02
-4.938474799472603038e-01 -6.167727690835921095e+00 3.690000000000000000e+02
-1.737858236542675350e+00 -6.840362240554343387e+00 3.690000000000000000e+02
6.970217059625226419e+00 -2.131920392525388230e+00 3.700000000000000000e+02
5.726206303029812261e+00 -2.804554942243810522e+00 3.700000000000000000e+02
4.482195546434397215e+00 -3.477189491962232815e+00 3.700000000000000000e+02
3.238184789838983058e+00 -4.149824041680655107e+00 3.700000000000000000e+02
1.994174033243568678e+00 -4.822458591399076511e+00 3.700000000000000000e+02
7.501632766481542980e-01 -5.495093141117498803e+00 3.700000000000000000e+02
-4.938474799472603038e-01 -6.167727690835921095e+00 3.700000000000000000e+02
-1.737858236542675350e+00 -6.840362240554343387e+00 3.700000000000000000e+02
6.970217059625226419e+00 -2.131920392525388230e+00 3.710000000000000000e+02
5.726206303029812261e+00 -2.804554942243810522e+00 3.710000000000000000e+02
4.482195546434397215e+00 -3.477189491962232815e+00 3.710000000000000000e+02
3.238184789838983058e+00 -4.149824041680655107e+00 3.710000000000000000e+02
1.994174033243568678e+00 -4.822458591399076511e+00 3.710000000000000000e+02
7.501632766481542980e-01 -5.495093141117498803e+00 3.710000000000000000e+02
-4.938474799472603038e-01 -6.167727690835921095e+00 3.710000000000000000e+02
-1.737858236542675350e+00 -6.840362240554343387e+00 3.710000000000000000e+02
7.928539712782145088e+00 -2.417608495963884607e+00 3.720000000000000000e+02
6.684528956186730042e+00 -3.090243045682306455e+00 3.720000000000000000e+02
5.440518199591315884e+00 -3.762877595400728747e+00 3.720000000000000000e+02
4.196507442995901727e+00 -4.435512145119150595e+00 3.720000000000000000e+02
2.952496686400486681e+00 -5.108146694837572888e+00 3.720000000000000000e+02
1.708485929805072523e+00 -5.780781244555995180e+00 3.720000000000000000e+02
4.644751732096579211e-01 -6.453415794274417472e+00 3.720000000000000000e+02
-7.795355833857566807e-01 -7.126050343992839764e+00 3.720000000000000000e+02
-2.023546339981170838e+00 -7.798684893711261168e+00 3.720000000000000000e+02
6.970217059625226419e+00 -2.131920392525388230e+00 3.730000000000000000e+02
5.726206303029812261e+00 -2.804554942243810522e+00 3.730000000000000000e+02
4.482195546434397215e+00 -3.477189491962232815e+00 3.730000000000000000e+02
3.238184789838983058e+00 -4.149824041680655107e+00 3.730000000000000000e+02
1.994174033243568678e+00 -4.822458591399076511e+00 3.730000000000000000e+02
7.501632766481542980e-01 -5.495093141117498803e+00 3.730000000000000000e+02
-4.938474799472603038e-01 -6.167727690835921095e+00 3.730000000000000000e+02
-1.737858236542675350e+00 -6.840362240554343387e+00 3.730000000000000000e+02
6.970217059625226419e+00 -2.131920392525388230e+00 3.740000000000000000e+02
5.726206303029812261e+00 -2.804554942243810522e+00 3.740000000000000000e+02
4.482195546434397215e+00 -3.477189491962232815e+00 3.740000000000000000e+02
3.238184789838983058e+00 -4.149824041680655107e+00 3.740000000000000000e+02
1.994174033243568678e+00 -4.822458591399076511e+00 3.740000000000000000e+02
7.501632766481542980e-01 -5.495093141117498803e+00 3.740000000000000000e+02
-4.938474799472603038e-01 -6.167727690835921095e+00 3.740000000000000000e+02
-1.737858236542675350e+00 -6.840362240554343387e+00 3.740000000000000000e+02
7.928539712782145088e+00 -2.417608495963884607e+00 3.750000000000000000e+02
6.684528956186730042e+00 -3.090243045682306455e+00 3.750000000000000000e+02
5.440518199591315884e+00 -3.762877595400728747e+00 3.750000000000000000e+02
4.196507442995901727e+00 -4.435512145119150595e+00 3.750000000000000000e+02
2.952496686400486681e+00 -5.108146694837572888e+00 3.750000000000000000e+02
1.708485929805072523e+00 -5.780781244555995180e+00 3.750000000000000000e+02
4.644751732096579211e-01 -6.453415794274417472e+00 3.750000000000000000e+02
-7.795355833857566807e-01 -7.126050343992839764e+00 3.750000000000000000e+02
-2.023546339981170838e+00 -7.798684893711261168e+00 3.750000000000000000e+02
7.928539712782145088e+00 -2.417608495963884607e+00 3.760000000000000000e+02
6.684528956186730042e+00 -3.090243045682306455e+00 3.760000000000000000e+02
5.440518199591315884e+00 -3.762877595400728747e+00 3.760000000000000000e+02
4.196507442995901727e+00 -4.435512145119150595e+00 3.760000000000000000e+02
2.952496686400486681e+00 -5.108146694837572888e+00 3.760000000000000000e+02
1.708485929805072523e+00 -5.780781244555995180e+00 3.760000000000000000e+02
4.644751732096579211e-01 -6.453415794274417472e+00 3.760000000000000000e+02
-7.795355833857566807e-01 -7.126050343992839764e+00 3.760000000000000000e+02
-2.023546339981170838e+00 -7.798684893711261168e+00 3.760000000000000000e+02
7.928539712782145088e+00 -2.417608495963884607e+00 3.770000000000000000e+02
6.684528956186730042e+00 -3.090243045682306455e+00 3.770000000000000000e+02
5.440518199591315884e+00 -3.762877595400728747e+00 3.770000000000000000e+02
4.196507442995901727e+00 -4.435512145119150595e+00 3.770000000000000000e+02
2.952496686400486681e+00 -5.108146694837572888e+00 3.770000000000000000e+02
1.708485929805072523e+00 -5.780781244555995180e+00 3.770000000000000000e+02
4.644751732096579211e-01 -6.453415794274417472e+00 3.770000000000000000e+02
-7.795355833857566807e-01 -7.126050343992839764e+00 3.770000000000000000e+02
-2.023546339981170838e+00 -7.798684893711261168e+00 3.770000000000000000e+02
7.928539712782145088e+00 -2.417608495963884607e+00 3.780000000000000000e+02
6.684528956186730042e+00 -3.090243045682306455e+00 3.780000000000000000e+02
5.440518199591315884e+00 -3.762877595400728747e+00 3.780000000000000000e+02
4.196507442995901727e+00 -4.435512145119150595e+00 3.780000000000000000e+02
2.952496686400486681e+00 -5.108146694837572888e+00 3.780000000000000000e+02
1.708485929805072523e+00 -5.780781244555995180e+00 3.780000000000000000e+02
4.644751732096579211e-01 -6.453415794274417472e+00 3.780000000000000000e+02
-7.795355833857566807e-01 -7.126050343992839764e+00 3.780000000000000000e+02
-2.023546339981170838e+00 -7.798684893711261168e+00 3.780000000000000000e+02
6.970217059625226419e+00 -2.131920392525388230e+00 3.790000000000000000e+02
5.726206303029812261e+00 -2.804554942243810522e+00 3.790000000000000000e+02
4.482195546434397215e+00 -3.477189491962232815e+00 3.790000000000000000e+02
3.238184789838983058e+00 -4.149824041680655107e+00 3.790000000000000000e+02
1.994174033243568678e+00 -4.822458591399076511e+00 3.790000000000000000e+02
7.501632766481542980e-01 -5.495093141117498803e+00 3.790000000000000000e+02
-4.938474799472603038e-01 -6.167727690835921095e+00 3.790000000000000000e+02
-1.737858236542675350e+00 -6.840362240554343387e+00 3.790000000000000000e+02
6.970217059625226419e+00 -2.131920392525388230e+00 3.800000000000000000e+02
5.726206303029812261e+00 -2.804554942243810522e+00 3.800000000000000000e+02
4.482195546434397215e+00 -3.477189491962232815e+00 3.800000000000000000e+02
3.238184789838983058e+00 -4.149824041680655107e+00 3.800000000000000000e+02
1.994174033243568678e+00 -4.822458591399076511e+00 3.800000000000000000e+02
7.501632766481542980e-01 -5.495093141117498803e+00 3.800000000000000000e+02
-4.938474799472603038e-01 -6.167727690835921095e+00 3.800000000000000000e+02
-1.737858236542675350e+00 -6.840362240554343387e+00 3.800000000000000000e+02
6.970217059625226419e+00 -2.131920392525388230e+00 3.810000000000000000e+02
5.726206303029812261e+00 -2.804554942243810522e+00 3.810000000000000000e+02
4.482195546434397215e+00 -3.477189491962232815e+00 3.810000000000000000e+02
3.238184789838983058e+00 -4.149824041680655107e+00 3.810000000000000000e+02
1.994174033243568678e+00 -4.822458591399076511e+00 3.810000000000000000e+02
7.501632766481542980e-01 -5.495093141117498803e+00 3.810000000000000000e+02
-4.938474799472603038e-01 -6.167727690835921095e+00 3.810000000000000000e+02
-1.737858236542675350e+00 -6.840362240554343387e+00 3.810000000000000000e+02
6.970217059625226419e+00 -2.131920392525388230e+00 3.820000000000000000e+02
5.726206303029812261e+00 -2.804554942243810522e+00 3.820000000000000000e+02
4.482195546434397215e+00 -3.477189491962232815e+00 3.820000000000000000e+02
3.238184789838983058e+00 -4.149824041680655107e+00 3.820000000000000000e+02
1.994174033243568678e+00 -4.822458591399076511e+00 3.820000000000000000e+02
7.501632766481542980e-01 -5.495093141117498803e+00 3.820000000000000000e+02
-4.938474799472603038e-01 -6.167727690835921095e+00 3.820000000000000000e+02
-1.737858236542675350e+00 -6.840362240554343387e+00 3.820000000000000000e+02
6.970217059625226419e+00 -2.131920392525388230e+00 3.830000000000000000e+02
5.726206303029812261e+00 -2.804554942243810522e+00 3.830000000000000000e+02
4.482195546434397215e+00 -3.477189491962232815e+00 3.830000000000000000e+02
3.238184789838983058e+00 -4.149824041680655107e+00 3.830000000000000000e+02
1.994174033243568678e+00 -4.822458591399076511e+00 3.830000000000000000e+02
7.501632766481542980e-01 -5.495093141117498803e+00 3.830000000000000000e+02
-4.938474799472603038e-01 -6.167727690835921095e+00 3.830000000000000000e+02
-1.737858236542675350e+00 -6.840362240554343387e+00 3.830000000000000000e+02
7.928539712782145088e+00 -2.417608495963884607e+00 3.840000000000000000e+02
6.684528956186730042e+00 -3.090243045682306455e+00 3.840000000000000000e+02
5.440518199591315884e+00 -3.762877595400728747e+00 3.840000000000000000e+02
4.196507442995901727e+00 -4.435512145119150595e+00 3.840000000000000000e+02
2.952496686400486681e+00 -5.108146694837572888e+00 3.840000000000000000e+02
1.708485929805072523e+00 -5.780781244555995180e+00 3.840000000000000000e+02
4.644751732096579211e-01 -6.453415794274417472e+00 3.840000000000000000e+02
-7.795355833857566807e-01 -7.126050343992839764e+00 3.840000000000000000e+02
-2.023546339981170838e+00 -7.798684893711261168e+00 3.840000000000000000e+02
7.928539712782145088e+00 -2.417608495963884607e+00 3.850000000000000000e+02
6.684528956186730042e+00 -3.090243045682306455e+00 3.850000000000000000e+02
5.440518199591315884e+00 -3.762877595400728747e+00 3.850000000000000000e+02
4.196507442995901727e+00 -4.435512145119150595e+00 3.850000000000000000e+02
2.952496686400486681e+00 -5.108146694837572888e+00 3.850000000000000000e+02
1.708485929805072523e+00 -5.780781244555995180e+00 3.850000000000000000e+02
4.644751732096579211e-01 -6.453415794274417472e+00 3.850000000000000000e+02
-7.795355833857566807e-01 -7.126050343992839764e+00 3.850000000000000000e+02
-2.023546339981170838e+00 -7.798684893711261168e+00 3.850000000000000000e+02
7.928539712782145088e+00 -2.417608495963884607e+00 3.860000000000000000e+02
6.684528956186730042e+00 -3.090243045682306455e+00 3.860000000000000000e+02
5.440518199591315884e+00 -3.762877595400728747e+00 3.860000000000000000e+02
4.196507442995901727e+00 -4.435512145119150595e+00 3.860000000000000000e+02
2.952496686400486681e+00 -5.108146694837572888e+00 3.860000000000000000e+02
1.708485929805072523e+00 -5.780781244555995180e+00 3.860000000000000000e+02
4.644751732096579211e-01 -6.453415794274417472e+00 3.860000000000000000e+02
-7.795355833857566807e-01 -7.126050343992839764e+00 3.860000000000000000e+02
-2.023546339981170838e+00 -7.798684893711261168e+00 3.860000000000000000e+02
7.928539712782145088e+00 -2.417608495963884607e+00 3.870000000000000000e+02
6.684528956186730042e+00 -3.090243045682306455e+00 3.870000000000000000e+02
5.440518199591315884e+00 -3.762877595400728747e+00 3.870000000000000000e+02
4.196507442995901727e+00 -4.435512145119150595e+00 3.870000000000000000e+02
2.952496686400486681e+00 -5.108146694837572888e+00 3.870000000000000000e+02
1.708485929805072523e+00 -5.780781244555995180e+00 3.870000000000000000e+02
4.644751732096579211e-01 -6.453415794274417472e+00 3.870000000000000000e+02
-7.795355833857566807e-01 -7.126050343992839764e+00 3.870000000000000000e+02
-2.023546339981170838e+00 -7.798684893711261168e+00 3.870000000000000000e+02
7.928539712782145088e+00 -2.417608495963884607e+00 3.880000000000000000e+02
6.684528956186730042e+00 -3.090243045682306455e+00 3.880000000000000000e+02
5.440518199591315884e+00 -3.762877595400728747e+00 3.880000000000000000e+02
4.196507442995901727e+00 -4.435512145119150595e+00 3.880000000000000000e+02
2.952496686400486681e+00 -5.108146694837572888e+00 3.880000000000000000e+02
1.708485929805072523e+00 -5.780781244555995180e+00 3.880000000000000000e+02
4.644751732096579211e-01 -6.453415794274417472e+00 3.880000000000000000e+02
-7.795355833857566807e-01 -7.126050343992839764e+00 3.880000000000000000e+02
-2.023546339981170838e+00 -7.798684893711261168e+00 3.880000000000000000e+02
7.928539712782145088e+00 -2.417608495963884607e+00 3.890000000000000000e+02
6.684528956186730042e+00 -3.090243045682306455e+00 3.890000000000000000e+02
5.440518199591315884e+00 -3.762877595400728747e+00 3.890000000000000000e+02
4.196507442995901727e+00 -4.435512145119150595e+00 3.890000000000000000e+02
2.952496686400486681e+00 -5.108146694837572888e+00 3.890000000000000000e+02
1.708485929805072523e+00 -5.780781244555995180e+00 3.890000000000000000e+02
4.644751732096579211e-01 -6.453415794274417472e+00 3.890000000000000000e+02
-7.795355833857566807e-01 -7.126050343992839764e+00 3.890000000000000000e+02
-2.023546339981170838e+00 -7.798684893711261168e+00 3.890000000000000000e+02
7.928539712782145088e+00 -2.417608495963884607e+00 3.900000000000000000e+02
6.684528956186730042e+00 -3.090243045682306455e+00 3.900000000000000000e+02
5.440518199591315884e+00 -3.762877595400728747e+00 3.900000000000000000e+02
4.196507442995901727e+00 -4.435512145119150595e+00 3.900000000000000000e+02
2.952496686400486681e+00 -5.108146694837572888e+00 3.900000000000000000e+02
1.708485929805072523e+00 -5.780781244555995180e+00 3.900000000000000000e+02
4.644751732096579211e-01 -6.453415794274417472e+00 3.900000000000000000e+02
-7.795355833857566807e-01 -7.126050343992839764e+00 3.900000000000000000e+02
-2.023546339981170838e+00 -7.798684893711261168e+00 3.900000000000000000e+02
7.928539712782145088e+00 -2.417608495963884607e+00 3.910000000000000000e+02
6.684528956186730042e+00 -3.090243045682306455e+00 3.910000000000000000e+02
5.440518199591315884e+00 -3.762877595400728747e+00 3.910000000000000000e+02
4.196507442995901727e+00 -4.435512145119150595e+00 3.910000000000000000e+02
2.952496686400486681e+00 -5.108146694837572888e+00 3.910000000000000000e+02
1.708485929805072523e+00 -5.780781244555995180e+00 3.910000000000000000e+02
4.644751732096579211e-01 -6.453415794274417472e+00 3.910000000000000000e+02
-7.795355833857566807e-01 -7.126050343992839764e+00 3.910000000000000000e+02
-2.023546339981170838e+00 -7.798684893711261168e+00 3.910000000000000000e+02
7.928539712782145088e+00 -2.417608495963884607e+00 3.920000000000000000e+02
6.684528956186730042e+00 -3.090243045682306455e+00 3.920000000000000000e+02
5.440518199591315884e+00 -3.762877595400728747e+00 3.920000000000000000e+02
4.196507442995901727e+00 -4.435512145119150595e+00 3.920000000000000000e+02
2.952496686400486681e+00 -5.108146694837572888e+00 3.920000000000000000e+02
1.708485929805072523e+00 -5.780781244555995180e+00 3.920000000000000000e+02
4.644751732096579211e-01 -6.453415794274417472e+00 3.920000000000000000e+02
-7.795355833857566807e-01 -7.126050343992839764e+00 3.920000000000000000e+02
