-7.241951336805643180e-01 2.194824549605577602e+00 3.290000000000000000e+02
9.123498444873728852e-03 9.855918243712344928e-01 3.290000000000000000e+02
7.424421305703116092e-01 -2.236409008631088380e-01 3.290000000000000000e+02
1.475760762695749628e+00 -1.432873626097451947e+00 3.290000000000000000e+02
2.209079394821187758e+00 -2.642106351331795278e+00 3.290000000000000000e+02
-2.190832397931440134e+00 4.613290000074264263e+00 3.300000000000000000e+02
-1.457513765806002226e+00 3.404057274839920932e+00 3.300000000000000000e+02
-7.241951336805643180e-01 2.194824549605577602e+00 3.300000000000000000e+02
9.123498444873728852e-03 9.855918243712344928e-01 3.300000000000000000e+02
7.424421305703116092e-01 -2.236409008631088380e-01 3.300000000000000000e+02
1.475760762695749628e+00 -1.432873626097451947e+00 3.300000000000000000e+02
2.209079394821187758e+00 -2.642106351331795278e+00 3.300000000000000000e+02
-2.190832397931440134e+00 4.613290000074264263e+00 3.310000000000000000e+02
-1.457513765806002226e+00 3.404057274839920932e+00 3.310000000000000000e+02
-7.241951336805643180e-01 2.194824549605577602e+00 3.310000000000000000e+02
9.123498444873728852e-03 9.855918243712344928e-01 3.310000000000000000e+02
7.424421305703116092e-01 -2.236409008631088380e-01 3.310000000000000000e+02
1.475760762695749628e+00 -1.432873626097451947e+00 3.310000000000000000e+02
2.209079394821187758e+00 -2.642106351331795278e+00 3.310000000000000000e+02
-2.190832397931440134e+00 4.613290000074264263e+00 3.320000000000000000e+02
-1.457513765806002226e+00 3.404057274839920932e+00 3.320000000000000000e+02
-7.241951336805643180e-01 2.194824549605577602e+00 3.320000000000000000e+02
9.123498444873728852e-03 9.855918243712344928e-01 3.320000000000000000e+02
7.424421305703116092e-01 -2.236409008631088380e-01 3.320000000000000000e+02
1.475760762695749628e+00 -1.432873626097451947e+00 3.320000000000000000e+02
2.209079394821187758e+00 -2.642106351331795278e+00 3.320000000000000000e+02
-2.190832397931440134e+00 4.613290000074264263e+00 3.330000000000000000e+02
-1.457513765806002226e+00 3.404057274839920932e+00 3.330000000000000000e+02
-7.241951336805643180e-01 2.194824549605577602e+00 3.330000000000000000e+02
9.123498444873728852e-03 9.855918243712344928e-01 3.330000000000000000e+02
7.424421305703116092e-01 -2.236409008631088380e-01 3.330000000000000000e+02
1.475760762695749628e+00 -1.432873626097451947e+00 3.330000000000000000e+02
2.209079394821187758e+00 -2.642106351331795278e+00 3.330000000000000000e+02
-2.190832397931440134e+00 4.613290000074264263e+00 3.340000000000000000e+02
-1.457513765806002226e+00 3.404057274839920932e+00 3.340000000000000000e+02
-7.241951336805643180e-01 2.194824549605577602e+00 3.340000000000000000e+02
9.123498444873728852e-03 9.855918243712344928e-01 3.340000000000000000e+02
7.424421305703116092e-01 -2.236409008631088380e-01 3.340000000000000000e+02
1.475760762695749628e+00 -1.432873626097451947e+00 3.340000000000000000e+02
2.209079394821187758e+00 -2.642106351331795278e+00 3.340000000000000000e+02
-2.190832397931440134e+00 4.613290000074264263e+00 3.350000000000000000e+02
-1.457513765806002226e+00 3.404057274839920932e+00 3.350000000000000000e+02
-7.241951336805643180e-01 2.194824549605577602e+00 3.350000000000000000e+02
9.123498444873728852e-03 9.855918243712344928e-01 3.350000000000000000e+02
7.424421305703116092e-01 -2.236409008631088380e-01 3.350000000000000000e+02
1.475760762695749628e+00 -1.432873626097451947e+00 3.350000000000000000e+02
2.209079394821187758e+00 -2.642106351331795278e+00 3.350000000000000000e+02
-2.190832397931440134e+00 4.613290000074264263e+00 3.360000000000000000e+02
-1.457513765806002226e+00 3.404057274839920932e+00 3.360000000000000000e+02
-7.241951336805643180e-01 2.194824549605577602e+00 3.360000000000000000e+02
9.123498444873728852e-03 9.855918243712344928e-01 3.360000000000000000e+02
7.424421305703116092e-01 -2.236409008631088380e-01 3.360000000000000000e+02
1.475760762695749628e+00 -1.432873626097451947e+00 3.360000000000000000e+02
2.209079394821187758e+00 -2.642106351331795278e+00 3.360000000000000000e+02
-2.190832397931440134e+00 4.613290000074264263e+00 3.370000000000000000e+02
-1.457513765806002226e+00 3.404057274839920932e+00 3.370000000000000000e+02
-7.241951336805643180e-01 2.194824549605577602e+00 3.370000000000000000e+02
9.123498444873728852e-03 9.855918243712344928e-01 3.370000000000000000e+02
7.424421305703116092e-01 -2.236409008631088380e-01 3.370000000000000000e+02
1.475760762695749628e+00 -1.432873626097451947e+00 3.370000000000000000e+02
2.209079394821187758e+00 -2.642106351331795278e+00 3.370000000000000000e+02
-2.190832397931440134e+00 4.613290000074264263e+00 3.380000000000000000e+02
-1.457513765806002226e+00 3.404057274839920932e+00 3.380000000000000000e+02
-7.241951336805643180e-01 2.194824549605577602e+00 3.380000000000000000e+02
9.123498444873728852e-03 9.855918243712344928e-01 3.380000000000000000e+02
7.424421305703116092e-01 -2.236409008631088380e-01 3.380000000000000000e+02
1.475760762695749628e+00 -1.432873626097451947e+00 3.380000000000000000e+02
2.209079394821187758e+00 -2.642106351331795278e+00 3.380000000000000000e+02
-2.190832397931440134e+00 4.613290000074264263e+00 3.390000000000000000e+02
-1.457513765806002226e+00 3.404057274839920932e+00 3.390000000000000000e+02
-7.241951336805643180e-01 2.194824549605577602e+00 3.390000000000000000e+02
9.123498444873728852e-03 9.855918243712344928e-01 3.390000000000000000e+02
7.424421305703116092e-01 -2.236409008631088380e-01 3.390000000000000000e+02
1.475760762695749628e+00 -1.432873626097451947e+00 3.390000000000000000e+02
2.209079394821187758e+00 -2.642106351331795278e+00 3.390000000000000000e+02
-2.190832397931440134e+00 4.613290000074264263e+00 3.400000000000000000e+02
-1.457513765806002226e+00 3.404057274839920932e+00 3.400000000000000000e+02
-7.241951336805643180e-01 2.194824549605577602e+00 3.400000000000000000e+02
9.123498444873728852e-03 9.855918243712344928e-01 3.400000000000000000e+02
7.424421305703116092e-01 -2.236409008631088380e-01 3.400000000000000000e+02
1.475760762695749628e+00 -1.432873626097451947e+00 3.400000000000000000e+02
2.209079394821187758e+00 -2.642106351331795278e+00 3.400000000000000000e+02
-2.190832397931440134e+00 4.613290000074264263e+00 3.410000000000000000e+02
-1.457513765806002226e+00 3.404057274839920932e+00 3.410000000000000000e+02
-7.241951336805643180e-01 2.194824549605577602e+00 3.410000000000000000e+02
9.123498444873728852e-03 9.855918243712344928e-01 3.410000000000000000e+02
7.424421305703116092e-01 -2.236409008631088380e-01 3.410000000000000000e+02
1.475760762695749628e+00 -1.432873626097451947e+00 3.410000000000000000e+02
2.209079394821187758e+00 -2.642106351331795278e+00 3.410000000000000000e+02
-2.190832397931440134e+00 4.613290000074264263e+00 3.420000000000000000e+02
-1.457513765806002226e+00 3.404057274839920932e+00 3.420000000000000000e+02
-7.241951336805643180e-01 2.194824549605577602e+00 3.420000000000000000e+02
9.123498444873728852e-03 9.855918243712344928e-01 3.420000000000000000e+02
7.424421305703116092e-01 -2.236409008631088380e-01 3.420000000000000000e+02
1.475760762695749628e+00 -1.432873626097451947e+00 3.420000000000000000e+02
2.209079394821187758e+00 -2.642106351331795278e+00 3.420000000000000000e+02
-2.190832397931440134e+00 4.613290000074264263e+00 3.430000000000000000e+02
-1.457513765806002226e+00 3.404057274839920932e+00 3.430000000000000000e+02
-7.241951336805643180e-01 2.194824549605577602e+00 3.430000000000000000e+02
9.123498444873728852e-03 9.855918243712344928e-01 3.430000000000000000e+02
7.424421305703116092e-01 -2.236409008631088380e-01 3.430000000000000000e+02
1.475760762695749628e+00 -1.432873626097451947e+00 3.430000000000000000e+02
2.209079394821187758e+00 -2.642106351331795278e+00 3.430000000000000000e+02
-2.190832397931440134e+00 4.613290000074264263e+00 3.440000000000000000e+02
-1.457513765806002226e+00 3.404057274839920932e+00 3.440000000000000000e+02
-7.241951336805643180e-01 2.194824549605577602e+00 3.440000000000000000e+02
9.123498444873728852e-03 9.855918243712344928e-01 3.440000000000000000e+02
7.424421305703116092e-01 -2.236409008631088380e-01 3.440000000000000000e+02
1.475760762695749628e+00 -1.432873626097451947e+00 3.440000000000000000e+02
2.209079394821187758e+00 -2.642106351331795278e+00 3.440000000000000000e+02
-2.190832397931440134e+00 4.613290000074264263e+00 3.450000000000000000e+02
-1.457513765806002226e+00 3.404057274839920932e+00 3.450000000000000000e+02
-7.241951336805643180e-01 2.194824549605577602e+00 3.450000000000000000e+02
9.123498444873728852e-03 9.855918243712344928e-01 3.450000000000000000e+02
7.424421305703116092e-01 -2.236409008631088380e-01 3.450000000000000000e+02
1.475760762695749628e+00 -1.432873626097451947e+00 3.450000000000000000e+02
2.209079394821187758e+00 -2.642106351331795278e+00 3.450000000000000000e+02
-2.190832397931440134e+00 4.613290000074264263e+00 3.460000000000000000e+02
-1.457513765806002226e+00 3.404057274839920932e+00 3.460000000000000000e+02
-7.241951336805643180e-01 2.194824549605577602e+00 3.460000000000000000e+02
9.123498444873728852e-03 9.855918243712344928e-01 3.460000000000000000e+02
7.424421305703116092e-01 -2.236409008631088380e-01 3.460000000000000000e+02
1.475760762695749628e+00 -1.432873626097451947e+00 3.460000000000000000e+02
2.209079394821187758e+00 -2.642106351331795278e+00 3.460000000000000000e+02
-2.190832397931440134e+00 4.613290000074264263e+00 3.470000000000000000e+02
-1.457513765806002226e+00 3.404057274839920932e+00 3.470000000000000000e+02
-7.241951336805643180e-01 2.194824549605577602e+00 3.470000000000000000e+02
9.123498444873728852e-03 9.855918243712344928e-01 3.470000000000000000e+02
7.424421305703116092e-01 -2.236409008631088380e-01 3.470000000000000000e+02
1.475760762695749628e+00 -1.432873626097451947e+00 3.470000000000000000e+02
2.209079394821187758e+00 -2.642106351331795278e+00 3.470000000000000000e+02
2.942398026946626111e+00 -3.851339076566139052e+00 3.470000000000000000e+02
-2.190832397931440134e+00 4.613290000074264263e+00 3.480000000000000000e+02
-1.457513765806002226e+00 3.404057274839920932e+00 3.480000000000000000e+02
-7.241951336805643180e-01 2.194824549605577602e+00 3.480000000000000000e+02
9.123498444873728852e-03 9.855918243712344928e-01 3.480000000000000000e+02
7.424421305703116092e-01 -2.236409008631088380e-01 3.480000000000000000e+02
1.475760762695749628e+00 -1.432873626097451947e+00 3.480000000000000000e+02
2.209079394821187758e+00 -2.642106351331795278e+00 3.480000000000000000e+02
-2.190832397931440134e+00 4.613290000074264263e+00 3.490000000000000000e+02
-1.457513765806002226e+00 3.404057274839920932e+00 3.490000000000000000e+02
-7.241951336805643180e-01 2.194824549605577602e+00 3.490000000000000000e+02
9.123498444873728852e-03 9.855918243712344928e-01 3.490000000000000000e+02
7.424421305703116092e-01 -2.236409008631088380e-01 3.490000000000000000e+02
1.475760762695749628e+00 -1.432873626097451947e+00 3.490000000000000000e+02
2.209079394821187758e+00 -2.642106351331795278e+00 3.490000000000000000e+02
-2.190832397931440134e+00 4.613290000074264263e+00 3.500000000000000000e+02
-1.457513765806002226e+00 3.404057274839920932e+00 3.500000000000000000e+02
-7.241951336805643180e-01 2.194824549605577602e+00 3.500000000000000000e+02
9.123498444873728852e-03 9.855918243712344928e-01 3.500000000000000000e+02
7.424421305703116092e-01 -2.236409008631088380e-01 3.500000000000000000e+02
1.475760762695749628e+00 -1.432873626097451947e+00 3.500000000000000000e+02
2.209079394821187758e+00 -2.642106351331795278e+00 3.500000000000000000e+02
2.942398026946626111e+00 -3.851339076566139052e+00 3.500000000000000000e+02
-2.190832397931440134e+00 4.613290000074264263e+00 3.510000000000000000e+02
-1.457513765806002226e+00 3.404057274839920932e+00 3.510000000000000000e+02
-7.241951336805643180e-01 2.194824549605577602e+00 3.510000000000000000e+02
9.123498444873728852e-03 9.855918243712344928e-01 3.510000000000000000e+02
7.424421305703116092e-01 -2.236409008631088380e-01 3.510000000000000000e+02
1.475760762695749628e+00 -1.432873626097451947e+00 3.510000000000000000e+02
2.209079394821187758e+00 -2.642106351331795278e+00 3.510000000000000000e+02
2.942398026946626111e+00 -3.851339076566139052e+00 3.510000000000000000e+02
-2.190832397931440134e+00 4.613290000074264263e+00 3.520000000000000000e+02
-1.457513765806002226e+00 3.404057274839920932e+00 3.520000000000000000e+02
-7.241951336805643180e-01 2.194824549605577602e+00 3.520000000000000000e+02
9.123498444873728852e-03 9.855918243712344928e-01 3.520000000000000000e+02
7.424421305703116092e-01 -2.236409008631088380e-01 3.520000000000000000e+02
1.475760762695749628e+00 -1.432873626097451947e+00 3.520000000000000000e+02
2.209079394821187758e+00 -2.642106351331795278e+00 3.520000000000000000e+02
2.942398026946626111e+00 -3.851339076566139052e+00 3.520000000000000000e+02
-2.190832397931440134e+00 4.613290000074264263e+00 3.530000000000000000e+02
-1.457513765806002226e+00 3.404057274839920932e+00 3.530000000000000000e+02
-7.241951336805643180e-01 2.194824549605577602e+00 3.530000000000000000e+02
9.123498444873728852e-03 9.855918243712344928e-01 3.530000000000000000e+02
7.424421305703116092e-01 -2.236409008631088380e-01 3.530000000000000000e+02
1.475760762695749628e+00 -1.432873626097451947e+00 3.530000000000000000e+02
2.209079394821187758e+00 -2.642106351331795278e+00 3.530000000000000000e+02
-2.190832397931440134e+00 4.613290000074264263e+00 3.540000000000000000e+02
-1.457513765806002226e+00 3.404057274839920932e+00 3.540000000000000000e+02
-7.241951336805643180e-01 2.194824549605577602e+00 3.540000000000000000e+02
9.123498444873728852e-03 9.855918243712344928e-01 3.540000000000000000e+02
7.424421305703116092e-01 -2.236409008631088380e-01 3.540000000000000000e+02
1.475760762695749628e+00 -1.432873626097451947e+00 3.540000000000000000e+02
2.209079394821187758e+00 -2.642106351331795278e+00 3.540000000000000000e+02
-2.190832397931440134e+00 4.613290000074264263e+00 3.550000000000000000e+02
-1.457513765806002226e+00 3.404057274839920932e+00 3.550000000000000000e+02
-7.241951336805643180e-01 2.194824549605577602e+00 3.550000000000000000e+02
9.123498444873728852e-03 9.855918243712344928e-01 3.550000000000000000e+02
7.424421305703116092e-01 -2.236409008631088380e-01 3.550000000000000000e+02
1.475760762695749628e+00 -1.432873626097451947e+00 3.550000000000000000e+02
2.209079394821187758e+00 -2.642106351331795278e+00 3.550000000000000000e+02
-2.190832397931440134e+00 4.613290000074264263e+00 3.560000000000000000e+02
-1.457513765806002226e+00 3.404057274839920932e+00 3.560000000000000000e+02
-7.241951336805643180e-01 2.194824549605577602e+00 3.560000000000000000e+02
9.123498444873728852e-03 9.855918243712344928e-01 3.560000000000000000e+02
7.424421305703116092e-01 -2.236409008631088380e-01 3.560000000000000000e+02
1.475760762695749628e+00 -1.432873626097451947e+00 3.560000000000000000e+02
2.209079394821187758e+00 -2.642106351331795278e+00 3.560000000000000000e+02
-2.190832397931440134e+00 4.613290000074264263e+00 3.570000000000000000e+02
-1.457513765806002226e+00 3.404057274839920932e+00 3.570000000000000000e+02
-7.241951336805643180e-01 2.194824549605577602e+00 3.570000000000000000e+02
9.123498444873728852e-03 9.855918243712344928e-01 3.570000000000000000e+02
7.424421305703116092e-01 -2.236409008631088380e-01 3.570000000000000000e+02
1.475760762695749628e+00 -1.432873626097451947e+00 3.570000000000000000e+02
2.209079394821187758e+00 -2.642106351331795278e+00 3.570000000000000000e+02
-2.190832397931440134e+00 4.613290000074264263e+00 3.580000000000000000e+02
-1.457513765806002226e+00 3.404057274839920932e+00 3.580000000000000000e+02
-7.241951336805643180e-01 2.194824549605577602e+00 3.580000000000000000e+02
9.123498444873728852e-03 9.855918243712344928e-01 3.580000000000000000e+02
7.424421305703116092e-01 -2.236409008631088380e-01 3.580000000000000000e+02
1.475760762695749628e+00 -1.432873626097451947e+00 3.580000000000000000e+02
2.209079394821187758e+00 -2.642106351331795278e+00 3.580000000000000000e+02
-2.190832397931440134e+00 4.613290000074264263e+00 3.590000000000000000e+02
-1.457513765806002226e+00 3.404057274839920932e+00 3.590000000000000000e+02
-7.241951336805643180e-01 2.194824549605577602e+00 3.590000000000000000e+02
9.123498444873728852e-03 9.855918243712344928e-01 3.590000000000000000e+02
7.424421305703116092e-01 -2.236409008631088380e-01 3.590000000000000000e+02
1.475760762695749628e+00 -1.432873626097451947e+00 3.590000000000000000e+02
2.209079394821187758e+00 -2.642106351331795278e+00 3.590000000000000000e+02
-2.190832397931440134e+00 4.613290000074264263e+00 3.600000000000000000e+02
-1.457513765806002226e+00 3.404057274839920932e+00 3.600000000000000000e+02
-7.241951336805643180e-01 2.194824549605577602e+00 3.600000000000000000e+02
9.123498444873728852e-03 9.855918243712344928e-01 3.600000000000000000e+02
7.424421305703116092e-01 -2.236409008631088380e-01 3.600000000000000000e+02
1.475760762695749628e+00 -1.432873626097451947e+00 3.600000000000000000e+02
2.209079394821187758e+00 -2.642106351331795278e+00 3.600000000000000000e+02
-2.190832397931440134e+00 4.613290000074264263e+00 3.610000000000000000e+02
-1.457513765806002226e+00 3.404057274839920932e+00 3.610000000000000000e+02
-7.241951336805643180e-01 2.194824549605577602e+00 3.610000000000000000e+02
9.123498444873728852e-03 9.855918243712344928e-01 3.610000000000000000e+02
7.424421305703116092e-01 -2.236409008631088380e-01 3.610000000000000000e+02
1.475760762695749628e+00 -1.432873626097451947e+00 3.610000000000000000e+02
2.209079394821187758e+00 -2.642106351331795278e+00 3.610000000000000000e+02
-2.190832397931440134e+00 4.613290000074264263e+00 3.620000000000000000e+02
-1.457513765806002226e+00 3.404057274839920932e+00 3.620000000000000000e+02
-7.241951336805643180e-01 2.194824549605577602e+00 3.620000000000000000e+02
9.123498444873728852e-03 9.855918243712344928e-01 3.620000000000000000e+02
7.424421305703116092e-01 -2.236409008631088380e-01 3.620000000000000000e+02
1.475760762695749628e+00 -1.432873626097451947e+00 3.620000000000000000e+02
2.209079394821187758e+00 -2.642106351331795278e+00 3.620000000000000000e+02
-2.190832397931440134e+00 4.613290000074264263e+00 3.630000000000000000e+02
-1.457513765806002226e+00 3.404057274839920932e+00 3.630000000000000000e+02
-7.241951336805643180e-01 2.194824549605577602e+00 3.630000000000000000e+02
9.123498444873728852e-03 9.855918243712344928e-01 3.630000000000000000e+02
7.424421305703116092e-01 -2.236409008631088380e-01 3.630000000000000000e+02
1.475760762695749628e+00 -1.432873626097451947e+00 3.630000000000000000e+02
2.209079394821187758e+00 -2.642106351331795278e+00 3.630000000000000000e+02
-2.190832397931440134e+00 4.613290000074264263e+00 3.640000000000000000e+02
-1.457513765806002226e+00 3.404057274839920932e+00 3.640000000000000000e+02
-7.241951336805643180e-01 2.194824549605577602e+00 3.640000000000000000e+02
9.123498444873728852e-03 9.855918243712344928e-01 3.640000000000000000e+02
7.424421305703116092e-01 -2.236409008631088380e-01 3.640000000000000000e+02
1.475760762695749628e+00 -1.432873626097451947e+00 3.640000000000000000e+02
2.209079394821187758e+00 -2.642106351331795278e+00 3.640000000000000000e+02
-2.190832397931440134e+00 4.613290000074264263e+00 3.650000000000000000e+02
-1.457513765806002226e+00 3.404057274839920932e+00 3.650000000000000000e+02
-7.241951336805643180e-01 2.194824549605577602e+00 3.650000000000000000e+02
9.123498444873728852e-03 9.855918243712344928e-01 3.650000000000000000e+02
7.424421305703116092e-01 -2.236409008631088380e-01 3.650000000000000000e+02
1.475760762695749628e+00 -1.432873626097451947e+00 3.650000000000000000e+02
2.209079394821187758e+00 -2.642106351331795278e+00 3.650000000000000000e+02
-2.190832397931440134e+00 4.613290000074264263e+00 3.660000000000000000e+02
-1.457513765806002226e+00 3.404057274839920932e+00 3.660000000000000000e+02
-7.241951336805643180e-01 2.194824549605577602e+00 3.660000000000000000e+02
9.123498444873728852e-03 9.855918243712344928e-01 3.660000000000000000e+02
7.424421305703116092e-01 -2.236409008631088380e-01 3.660000000000000000e+02
1.475760762695749628e+00 -1.432873626097451947e+00 3.660000000000000000e+02
2.209079394821187758e+00 -2.642106351331795278e+00 3.660000000000000000e+02
-2.190832397931440134e+00 4.613290000074264263e+00 3.670000000000000000e+02
-1.457513765806002226e+00 3.404057274839920932e+00 3.670000000000000000e+02
-7.241951336805643180e-01 2.194824549605577602e+00 3.670000000000000000e+02
9.123498444873728852e-03 9.855918243712344928e-01 3.670000000000000000e+02
7.424421305703116092e-01 -2.236409008631088380e-01 3.670000000000000000e+02
1.475760762695749628e+00 -1.432873626097451947e+00 3.670000000000000000e+02
2.209079394821187758e+00 -2.642106351331795278e+00 3.670000000000000000e+02
-2.190832397931440134e+00 4.613290000074264263e+00 3.680000000000000000e+02
-1.457513765806002226e+00 3.404057274839920932e+00 3.680000000000000000e+02
-7.241951336805643180e-01 2.194824549605577602e+00 3.680000000000000000e+02
9.123498444873728852e-03 9.855918243712344928e-01 3.680000000000000000e+02
7.424421305703116092e-01 -2.236409008631088380e-01 3.680000000000000000e+02
1.475760762695749628e+00 -1.432873626097451947e+00 3.680000000000000000e+02
2.209079394821187758e+00 -2.642106351331795278e+00 3.680000000000000000e+02
-2.190832397931440134e+00 4.613290000074264263e+00 3.690000000000000000e+02
-1.457513765806002226e+00 3.404057274839920932e+00 3.690000000000000000e+02
-7.241951336805643180e-01 2.194824549605577602e+00 3.690000000000000000e+02
9.123498444873728852e-03 9.855918243712344928e-01 3.690000000000000000e+02
7.424421305703116092e-01 -2.236409008631088380e-01 3.690000000000000000e+02
1.475760762695749628e+00 -1.432873626097451947e+00 3.690000000000000000e+02
2.209079394821187758e+00 -2.642106351331795278e+00 3.690000000000000000e+02
-2.428789444485893068e+00 3.642014321394373422e+00 3.700000000000000000e+02
-1.695470812360454937e+00 2.432781596160030535e+00 3.700000000000000000e+02
-9.621521802350169184e-01 1.223548870925687204e+00 3.700000000000000000e+02
-2.288335481095788992e-01 1.431614569134387338e-02 3.700000000000000000e+02
5.044850840158588978e-01 -1.194916579542999457e+00 3.700000000000000000e+02
1.237803716141296917e+00 -2.404149304777342788e+00 3.700000000000000000e+02
1.971122348266734825e+00 -3.613382030011685675e+00 3.700000000000000000e+02
-2.428789444485893068e+00 3.642014321394373422e+00 3.710000000000000000e+02
-1.695470812360454937e+00 2.432781596160030535e+00 3.710000000000000000e+02
-9.621521802350169184e-01 1.223548870925687204e+00 3.710000000000000000e+02
-2.288335481095788992e-01 1.431614569134387338e-02 3.710000000000000000e+02
5.044850840158588978e-01 -1.194916579542999457e+00 3.710000000000000000e+02
1.237803716141296917e+00 -2.404149304777342788e+00 3.710000000000000000e+02
1.971122348266734825e+00 -3.613382030011685675e+00 3.710000000000000000e+02
-2.190832397931440134e+00 4.613290000074264263e+00 3.720000000000000000e+02
-1.457513765806002226e+00 3.404057274839920932e+00 3.720000000000000000e+02
-7.241951336805643180e-01 2.194824549605577602e+00 3.720000000000000000e+02
9.123498444873728852e-03 9.855918243712344928e-01 3.720000000000000000e+02
7.424421305703116092e-01 -2.236409008631088380e-01 3.720000000000000000e+02
1.475760762695749628e+00 -1.432873626097451947e+00 3.720000000000000000e+02
2.209079394821187758e+00 -2.642106351331795278e+00 3.720000000000000000e+02
-2.190832397931440134e+00 4.613290000074264263e+00 3.730000000000000000e+02
-1.457513765806002226e+00 3.404057274839920932e+00 3.730000000000000000e+02
-7.241951336805643180e-01 2.194824549605577602e+00 3.730000000000000000e+02
9.123498444873728852e-03 9.855918243712344928e-01 3.730000000000000000e+02
7.424421305703116092e-01 -2.236409008631088380e-01 3.730000000000000000e+02
1.475760762695749628e+00 -1.432873626097451947e+00 3.730000000000000000e+02
2.209079394821187758e+00 -2.642106351331795278e+00 3.730000000000000000e+02
-2.190832397931440134e+00 4.613290000074264263e+00 3.740000000000000000e+02
-1.457513765806002226e+00 3.404057274839920932e+00 3.740000000000000000e+02
-7.241951336805643180e-01 2.194824549605577602e+00 3.740000000000000000e+02
9.123498444873728852e-03 9.855918243712344928e-01 3.740000000000000000e+02
7.424421305703116092e-01 -2.236409008631088380e-01 3.740000000000000000e+02
1.475760762695749628e+00 -1.432873626097451947e+00 3.740000000000000000e+02
2.209079394821187758e+00 -2.642106351331795278e+00 3.740000000000000000e+02
2.942398026946626111e+00 -3.851339076566139052e+00 3.740000000000000000e+02
-2.190832397931440134e+00 4.613290000074264263e+00 3.750000000000000000e+02
-1.457513765806002226e+00 3.404057274839920932e+00 3.750000000000000000e+02
-7.241951336805643180e-01 2.194824549605577602e+00 3.750000000000000000e+02
9.123498444873728852e-03 9.855918243712344928e-01 3.750000000000000000e+02
7.424421305703116092e-01 -2.236409008631088380e-01 3.750000000000000000e+02
1.475760762695749628e+00 -1.432873626097451947e+00 3.750000000000000000e+02
2.209079394821187758e+00 -2.642106351331795278e+00 3.750000000000000000e+02
-2.190832397931440134e+00 4.613290000074264263e+00 3.760000000000000000e+02
-1.457513765806002226e+00 3.404057274839920932e+00 3.760000000000000000e+02
-7.241951336805643180e-01 2.194824549605577602e+00 3.760000000000000000e+02
9.123498444873728852e-03 9.855918243712344928e-01 3.760000000000000000e+02
7.424421305703116092e-01 -2.236409008631088380e-01 3.760000000000000000e+02
1.475760762695749628e+00 -1.432873626097451947e+00 3.760000000000000000e+02
2.209079394821187758e+00 -2.642106351331795278e+00 3.760000000000000000e+02
-2.190832397931440134e+00 4.613290000074264263e+00 3.770000000000000000e+02
-1.457513765806002226e+00 3.404057274839920932e+00 3.770000000000000000e+02
-7.241951336805643180e-01 2.194824549605577602e+00 3.770000000000000000e+02
9.123498444873728852e-03 9.855918243712344928e-01 3.770000000000000000e+02
7.424421305703116092e-01 -2.236409008631088380e-01 3.770000000000000000e+02
1.475760762695749628e+00 -1.432873626097451947e+00 3.770000000000000000e+02
2.209079394821187758e+00 -2.642106351331795278e+00 3.770000000000000000e+02
-2.190832397931440134e+00 4.613290000074264263e+00 3.780000000000000000e+02
-1.457513765806002226e+00 3.404057274839920932e+00 3.780000000000000000e+02
-7.241951336805643180e-01 2.194824549605577602e+00 3.780000000000000000e+02
9.123498444873728852e-03 9.855918243712344928e-01 3.780000000000000000e+02
7.424421305703116092e-01 -2.236409008631088380e-01 3.780000000000000000e+02
1.475760762695749628e+00 -1.432873626097451947e+00 3.780000000000000000e+02
2.209079394821187758e+00 -2.642106351331795278e+00 3.780000000000000000e+02
-2.428789444485893068e+00 3.642014321394373422e+00 3.790000000000000000e+02
-1.695470812360454937e+00 2.432781596160030535e+00 3.790000000000000000e+02
-9.621521802350169184e-01 1.223548870925687204e+00 3.790000000000000000e+02
-2.288335481095788992e-01 1.431614569134387338e-02 3.790000000000000000e+02
5.044850840158588978e-01 -1.194916579542999457e+00 3.790000000000000000e+02
1.237803716141296917e+00 -2.404149304777342788e+00 3.790000000000000000e+02
-2.428789444485893068e+00 3.642014321394373422e+00 3.800000000000000000e+02
-1.695470812360454937e+00 2.432781596160030535e+00 3.800000000000000000e+02
-9.621521802350169184e-01 1.223548870925687204e+00 3.800000000000000000e+02
-2.288335481095788992e-01 1.431614569134387338e-02 3.800000000000000000e+02
5.044850840158588978e-01 -1.194916579542999457e+00 3.800000000000000000e+02
1.237803716141296917e+00 -2.404149304777342788e+00 3.800000000000000000e+02
-2.190832397931440134e+00 4.613290000074264263e+00 3.810000000000000000e+02
-1.457513765806002226e+00 3.404057274839920932e+00 3.810000000000000000e+02
-7.241951336805643180e-01 2.194824549605577602e+00 3.810000000000000000e+02
9.123498444873728852e-03 9.855918243712344928e-01 3.810000000000000000e+02
7.424421305703116092e-01 -2.236409008631088380e-01 3.810000000000000000e+02
1.475760762695749628e+00 -1.432873626097451947e+00 3.810000000000000000e+02
2.209079394821187758e+00 -2.642106351331795278e+00 3.810000000000000000e+02
-2.190832397931440134e+00 4.613290000074264263e+00 3.820000000000000000e+02
-1.457513765806002226e+00 3.404057274839920932e+00 3.820000000000000000e+02
-7.241951336805643180e-01 2.194824549605577602e+00 3.820000000000000000e+02
9.123498444873728852e-03 9.855918243712344928e-01 3.820000000000000000e+02
7.424421305703116092e-01 -2.236409008631088380e-01 3.820000000000000000e+02
1.475760762695749628e+00 -1.432873626097451947e+00 3.820000000000000000e+02
2.209079394821187758e+00 -2.642106351331795278e+00 3.820000000000000000e+02
-2.190832397931440134e+00 4.613290000074264263e+00 3.830000000000000000e+02
-1.457513765806002226e+00 3.404057274839920932e+00 3.830000000000000000e+02
-7.241951336805643180e-01 2.194824549605577602e+00 3.830000000000000000e+02
9.123498444873728852e-03 9.855918243712344928e-01 3.830000000000000000e+02
7.424421305703116092e-01 -2.236409008631088380e-01 3.830000000000000000e+02
1.475760762695749628e+00 -1.432873626097451947e+00 3.830000000000000000e+02
2.209079394821187758e+00 -2.642106351331795278e+00 3.830000000000000000e+02
-2.190832397931440134e+00 4.613290000074264263e+00 3.840000000000000000e+02
-1.457513765806002226e+00 3.404057274839920932e+00 3.840000000000000000e+02
-7.241951336805643180e-01 2.194824549605577602e+00 3.840000000000000000e+02
9.123498444873728852e-03 9.855918243712344928e-01 3.840000000000000000e+02
7.424421305703116092e-01 -2.236409008631088380e-01 3.840000000000000000e+02
1.475760762695749628e+00 -1.432873626097451947e+00 3.840000000000000000e+02
2.209079394821187758e+00 -2.642106351331795278e+00 3.840000000000000000e+02
-2.190832397931440134e+00 4.613290000074264263e+00 3.850000000000000000e+02
-1.457513765806002226e+00 3.404057274839920932e+00 3.850000000000000000e+02
-7.241951336805643180e-01 2.194824549605577602e+00 3.850000000000000000e+02
9.123498444873728852e-03 9.855918243712344928e-01 3.850000000000000000e+02
7.424421305703116092e-01 -2.236409008631088380e-01 3.850000000000000000e+02
1.475760762695749628e+00 -1.432873626097451947e+00 3.850000000000000000e+02
2.209079394821187758e+00 -2.642106351331795278e+00 3.850000000000000000e+02
-2.190832397931440134e+00 4.613290000074264263e+00 3.860000000000000000e+02
-1.457513765806002226e+00 3.404057274839920932e+00 3.860000000000000000e+02
-7.241951336805643180e-01 2.194824549605577602e+00 3.860000000000000000e+02
9.123498444873728852e-03 9.855918243712344928e-01 3.860000000000000000e+02
7.424421305703116092e-01 -2.236409008631088380e-01 3.860000000000000000e+02
1.475760762695749628e+00 -1.432873626097451947e+00 3.860000000000000000e+02
2.209079394821187758e+00 -2.642106351331795278e+00 3.860000000000000000e+02
-2.190832397931440134e+00 4.613290000074264263e+00 3.870000000000000000e+02
-1.457513765806002226e+00 3.404057274839920932e+00 3.870000000000000000e+02
-7.241951336805643180e-01 2.194824549605577602e+00 3.870000000000000000e+02
9.123498444873728852e-03 9.855918243712344928e-01 3.870000000000000000e+02
7.424421305703116092e-01 -2.236409008631088380e-01 3.870000000000000000e+02
1.475760762695749628e+00 -1.432873626097451947e+00 3.870000000000000000e+02
2.209079394821187758e+00 -2.642106351331795278e+00 3.870000000000000000e+02
-2.428789444485893068e+00 3.642014321394373422e+00 3.880000000000000000e+02
-1.695470812360454937e+00 2.432781596160030535e+00 3.880000000000000000e+02
-9.621521802350169184e-01 1.223548870925687204e+00 3.880000000000000000e+02
-2.288335481095788992e-01 1.431614569134387338e-02 3.880000000000000000e+02
5.044850840158588978e-01 -1.194916579542999457e+00 3.880000000000000000e+02
1.237803716141296917e+00 -2.404149304777342788e+00 3.880000000000000000e+02
-2.428789444485893068e+00 3.642014321394373422e+00 3.890000000000000000e+02
-1.695470812360454937e+00 2.432781596160030535e+00 3.890000000000000000e+02
-9.621521802350169184e-01 1.223548870925687204e+00 3.890000000000000000e+02
-2.288335481095788992e-01 1.431614569134387338e-02 3.890000000000000000e+02
5.044850840158588978e-01 -1.194916579542999457e+00 3.890000000000000000e+02
1.237803716141296917e+00 -2.404149304777342788e+00 3.890000000000000000e+02
-2.428789444485893068e+00 3.642014321394373422e+00 3.900000000000000000e+02
-1.695470812360454937e+00 2.432781596160030535e+00 3.900000000000000000e+02
-9.621521802350169184e-01 1.223548870925687204e+00 3.900000000000000000e+02
-2.288335481095788992e-01 1.431614569134387338e-02 3.900000000000000000e+02
5.044850840158588978e-01 -1.194916579542999457e+00 3.900000000000000000e+02
1.237803716141296917e+00 -2.404149304777342788e+00 3.900000000000000000e+02
-2.428789444485893068e+00 3.642014321394373422e+00 3.910000000000000000e+02
-1.695470812360454937e+00 2.432781596160030535e+00 3.910000000000000000e+02
-9.621521802350169184e-01 1.223548870925687204e+00 3.910000000000000000e+02
-2.288335481095788992e-01 1.431614569134387338e-02 3.910000000000000000e+02
5.044850840158588978e-01 -1.194916579542999457e+00 3.910000000000000000e+02
1.237803716141296917e+00 -2.404149304777342788e+00 3.910000000000000000e+02
-2.190832397931440134e+00 4.613290000074264263e+00 3.920000000000000000e+02
-1.457513765806002226e+00 3.404057274839920932e+00 3.920000000000000000e+02
-7.241951336805643180e-01 2.194824549605577602e+00 3.920000000000000000e+02
9.123498444873728852e-03 9.855918243712344928e-01 3.920000000000000000e+02
7.424421305703116092e-01 -2.236409008631088380e-01 3.920000000000000000e+02
1.475760762695749628e+00 -1.432873626097451947e+00 3.920000000000000000e+02
2.209079394821187758e+00 -2.642106351331795278e+00 3.920000000000000000e+02
-2.190832397931440134e+00 4.613290000074264263e+00 3.930000000000000000e+02
-1.457513765806002226e+00 3.404057274839920932e+00 3.930000000000000000e+02
-7.241951336805643180e-01 2.194824549605577602e+00 3.930000000000000000e+02
9.123498444873728852e-03 9.855918243712344928e-01 3.930000000000000000e+02
7.424421305703116092e-01 -2.236409008631088380e-01 3.930000000000000000e+02
1.475760762695749628e+00 -1.432873626097451947e+00 3.930000000000000000e+02
2.209079394821187758e+00 -2.642106351331795278e+00 3.930000000000000000e+02
-2.190832397931440134e+00 4.613290000074264263e+00 3.940000000000000000e+02
-1.457513765806002226e+00 3.404057274839920932e+00 3.940000000000000000e+02
-7.241951336805643180e-01 2.194824549605577602e+00 3.940000000000000000e+02
9.123498444873728852e-03 9.855918243712344928e-01 3.940000000000000000e+02
7.424421305703116092e-01 -2.236409008631088380e-01 3.940000000000000000e+02
1.475760762695749628e+00 -1.432873626097451947e+00 3.940000000000000000e+02
2.209079394821187758e+00 -2.642106351331795278e+00 3.940000000000000000e+02
-2.190832397931440134e+00 4.613290000074264263e+00 3.950000000000000000e+02
-1.457513765806002226e+00 3.404057274839920932e+00 3.950000000000000000e+02
-7.241951336805643180e-01 2.194824549605577602e+00 3.950000000000000000e+02
9.123498444873728852e-03 9.855918243712344928e-01 3.950000000000000000e+02
7.424421305703116092e-01 -2.236409008631088380e-01 3.950000000000000000e+02
1.475760762695749628e+00 -1.432873626097451947e+00 3.950000000000000000e+02
2.209079394821187758e+00 -2.642106351331795278e+00 3.950000000000000000e+02
-2.428789444485893068e+00 3.642014321394373422e+00 3.960000000000000000e+02
-1.695470812360454937e+00 2.432781596160030535e+00 3.960000000000000000e+02
-9.621521802350169184e-01 1.223548870925687204e+00 3.960000000000000000e+02
-2.288335481095788992e-01 1.431614569134387338e-02 3.960000000000000000e+02
5.044850840158588978e-01 -1.194916579542999457e+00 3.960000000000000000e+02
1.237803716141296917e+00 -2.404149304777342788e+00 3.960000000000000000e+02
-2.428789444485893068e+00 3.642014321394373422e+00 3.970000000000000000e+02
-1.695470812360454937e+00 2.432781596160030535e+00 3.970000000000000000e+02
-9.621521802350169184e-01 1.223548870925687204e+00 3.970000000000000000e+02
-2.288335481095788992e-01 1.431614569134387338e-02 3.970000000000000000e+02
5.044850840158588978e-01 -1.194916579542999457e+00 3.970000000000000000e+02
1.237803716141296917e+00 -2.404149304777342788e+00 3.970000000000000000e+02
-2.428789444485893068e+00 3.642014321394373422e+00 3.980000000000000000e+02
-1.695470812360454937e+00 2.432781596160030535e+00 3.980000000000000000e+02
-9.621521802350169184e-01 1.223548870925687204e+00 3.980000000000000000e+02
-2.288335481095788992e-01 1.431614569134387338e-02 3.980000000000000000e+02
5.044850840158588978e-01 -1.194916579542999457e+00 3.980000000000000000e+02
1.237803716141296917e+00 -2.404149304777342788e+00 3.980000000000000000e+02
-2.428789444485893068e+00 3.642014321394373422e+00 3.990000000000000000e+02
-1.695470812360454937e+00 2.432781596160030535e+00 3.990000000000000000e+02
-9.621521802350169184e-01 1.223548870925687204e+00 3.990000000000000000e+02
-2.288335481095788992e-01 1.431614569134387338e-02 3.990000000000000000e+02
5.044850840158588978e-01 -1.194916579542999457e+00 3.990000000000000000e+02
1.237803716141296917e+00 -2.404149304777342788e+00 3.990000000000000000e+02
-2.428789444485893068e+00 3.642014321394373422e+00 4.000000000000000000e+02
-1.695470812360454937e+00 2.432781596160030535e+00 4.000000000000000000e+02
-9.621521802350169184e-01 1.223548870925687204e+00 4.000000000000000000e+02
-2.288335481095788992e-01 1.431614569134387338e-02 4.000000000000000000e+02
5.044850840158588978e-01 -1.194916579542999457e+00 4.000000000000000000e+02
1.237803716141296917e+00 -2.404149304777342788e+00 4.000000000000000000e+02
1.971122348266734825e+00 -3.613382030011685675e+00 4.000000000000000000e+02
-2.428789444485893068e+00 3.642014321394373422e+00 4.010000000000000000e+02
-1.695470812360454937e+00 2.432781596160030535e+00 4.010000000000000000e+02
-9.621521802350169184e-01 1.223548870925687204e+00 4.010000000000000000e+02
-2.288335481095788992e-01 1.431614569134387338e-02 4.010000000000000000e+02
5.044850840158588978e-01 -1.194916579542999457e+00 4.010000000000000000e+02
1.237803716141296917e+00 -2.404149304777342788e+00 4.010000000000000000e+02
1.971122348266734825e+00 -3.613382030011685675e+00 4.010000000000000000e+02
-2.428789444485893068e+00 3.642014321394373422e+00 4.020000000000000000e+02
-1.695470812360454937e+00 2.432781596160030535e+00 4.020000000000000000e+02
-9.621521802350169184e-01 1.223548870925687204e+00 4.020000000000000000e+02
-2.288335481095788992e-01 1.431614569134387338e-02 4.020000000000000000e+02
5.044850840158588978e-01 -1.194916579542999457e+00 4.020000000000000000e+02
1.237803716141296917e+00 -2.404149304777342788e+00 4.020000000000000000e+02
1.971122348266734825e+00 -3.613382030011685675e+00 4.020000000000000000e+02
-2.428789444485893068e+00 3.642014321394373422e+00 4.030000000000000000e+02
-1.695470812360454937e+00 2.432781596160030535e+00 4.030000000000000000e+02
-9.621521802350169184e-01 1.223548870925687204e+00 4.030000000000000000e+02
-2.288335481095788992e-01 1.431614569134387338e-02 4.030000000000000000e+02
5.044850840158588978e-01 -1.194916579542999457e+00 4.030000000000000000e+02
1.237803716141296917e+00 -2.404149304777342788e+00 4.030000000000000000e+02
-2.428789444485893068e+00 3.642014321394373422e+00 4.040000000000000000e+02
-1.695470812360454937e+00 2.432781596160030535e+00 4.040000000000000000e+02
-9.621521802350169184e-01 1.223548870925687204e+00 4.040000000000000000e+02
-2.288335481095788992e-01 1.431614569134387338e-02 4.040000000000000000e+02
5.044850840158588978e-01 -1.194916579542999457e+00 4.040000000000000000e+02
1.237803716141296917e+00 -2.404149304777342788e+00 4.040000000000000000e+02
-2.428789444485893068e+00 3.642014321394373422e+00 4.050000000000000000e+02
-1.695470812360454937e+00 2.432781596160030535e+00 4.050000000000000000e+02
-9.621521802350169184e-01 1.223548870925687204e+00 4.050000000000000000e+02
-2.288335481095788992e-01 1.431614569134387338e-02 4.050000000000000000e+02
5.044850840158588978e-01 -1.194916579542999457e+00 4.050000000000000000e+02
1.237803716141296917e+00 -2.404149304777342788e+00 4.050000000000000000e+02
-2.428789444485893068e+00 3.642014321394373422e+00 4.060000000000000000e+02
-1.695470812360454937e+00 2.432781596160030535e+00 4.060000000000000000e+02
-9.621521802350169184e-01 1.223548870925687204e+00 4.060000000000000000e+02
-2.288335481095788992e-01 1.431614569134387338e-02 4.060000000000000000e+02
5.044850840158588978e-01 -1.194916579542999457e+00 4.060000000000000000e+02
1.237803716141296917e+00 -2.404149304777342788e+00 4.060000000000000000e+02
-2.428789444485893068e+00 3.642014321394373422e+00 4.070000000000000000e+02
-1.695470812360454937e+00 2.432781596160030535e+00 4.070000000000000000e+02
-9.621521802350169184e-01 1.223548870925687204e+00 4.070000000000000000e+02
-2.288335481095788992e-01 1.431614569134387338e-02 4.070000000000000000e+02
5.044850840158588978e-01 -1.194916579542999457e+00 4.070000000000000000e+02
1.237803716141296917e+00 -2.404149304777342788e+00 4.070000000000000000e+02
-2.428789444485893068e+00 3.642014321394373422e+00 4.080000000000000000e+02
-1.695470812360454937e+00 2.432781596160030535e+00 4.080000000000000000e+02
-9.621521802350169184e-01 1.223548870925687204e+00 4.080000000000000000e+02
-2.288335481095788992e-01 1.431614569134387338e-02 4.080000000000000000e+02
5.044850840158588978e-01 -1.194916579542999457e+00 4.080000000000000000e+02
1.237803716141296917e+00 -2.404149304777342788e+00 4.080000000000000000e+02
-2.428789444485893068e+00 3.642014321394373422e+00 4.090000000000000000e+02
-1.695470812360454937e+00 2.432781596160030535e+00 4.090000000000000000e+02
-9.621521802350169184e-01 1.223548870925687204e+00 4.090000000000000000e+02
-2.288335481095788992e-01 1.431614569134387338e-02 4.090000000000000000e+02
5.044850840158588978e-01 -1.194916579542999457e+00 4.090000000000000000e+02
1.237803716141296917e+00 -2.404149304777342788e+00 4.090000000000000000e+02
1.971122348266734825e+00 -3.613382030011685675e+00 4.090000000000000000e+02
-2.190832397931440134e+00 4.613290000074264263e+00 4.100000000000000000e+02
-1.457513765806002226e+00 3.404057274839920932e+00 4.100000000000000000e+02
-7.241951336805643180e-01 2.194824549605577602e+00 4.100000000000000000e+02
9.123498444873728852e-03 9.855918243712344928e-01 4.100000000000000000e+02
7.424421305703116092e-01 -2.236409008631088380e-01 4.100000000000000000e+02
1.475760762695749628e+00 -1.432873626097451947e+00 4.100000000000000000e+02
2.209079394821187758e+00 -2.642106351331795278e+00 4.100000000000000000e+02
2.942398026946626111e+00 -3.851339076566139052e+00 4.100000000000000000e+02
-2.190832397931440134e+00 4.613290000074264263e+00 4.110000000000000000e+02
-1.457513765806002226e+00 3.404057274839920932e+00 4.110000000000000000e+02
-7.241951336805643180e-01 2.194824549605577602e+00 4.110000000000000000e+02
9.123498444873728852e-03 9.855918243712344928e-01 4.110000000000000000e+02
7.424421305703116092e-01 -2.236409008631088380e-01 4.110000000000000000e+02
1.475760762695749628e+00 -1.432873626097451947e+00 4.110000000000000000e+02
2.209079394821187758e+00 -2.642106351331795278e+00 4.110000000000000000e+02
-2.190832397931440134e+00 4.613290000074264263e+00 4.120000000000000000e+02
-1.457513765806002226e+00 3.404057274839920932e+00 4.120000000000000000e+02
-7.241951336805643180e-01 2.194824549605577602e+00 4.120000000000000000e+02
9.123498444873728852e-03 9.855918243712344928e-01 4.120000000000000000e+02
7.424421305703116092e-01 -2.236409008631088380e-01 4.120000000000000000e+02
1.475760762695749628e+00 -1.432873626097451947e+00 4.120000000000000000e+02
2.209079394821187758e+00 -2.642106351331795278e+00 4.120000000000000000e+02
-2.190832397931440134e+00 4.613290000074264263e+00 4.130000000000000000e+02
-1.457513765806002226e+00 3.404057274839920932e+00 4.130000000000000000e+02
-7.241951336805643180e-01 2.194824549605577602e+00 4.130000000000000000e+02
9.123498444873728852e-03 9.855918243712344928e-01 4.130000000000000000e+02
7.424421305703116092e-01 -2.236409008631088380e-01 4.130000000000000000e+02
1.475760762695749628e+00 -1.432873626097451947e+00 4.130000000000000000e+02
2.209079394821187758e+00 -2.642106351331795278e+00 4.130000000000000000e+02
-2.428789444485893068e+00 3.642014321394373422e+00 4.140000000000000000e+02
-1.695470812360454937e+00 2.432781596160030535e+00 4.140000000000000000e+02
-9.621521802350169184e-01 1.223548870925687204e+00 4.140000000000000000e+02
-2.288335481095788992e-01 1.431614569134387338e-02 4.140000000000000000e+02
5.044850840158588978e-01 -1.194916579542999457e+00 4.140000000000000000e+02
1.237803716141296917e+00 -2.404149304777342788e+00 4.140000000000000000e+02
-2.190832397931440134e+00 4.613290000074264263e+00 4.150000000000000000e+02
-1.457513765806002226e+00 3.404057274839920932e+00 4.150000000000000000e+02
-7.241951336805643180e-01 2.194824549605577602e+00 4.150000000000000000e+02
9.123498444873728852e-03 9.855918243712344928e-01 4.150000000000000000e+02
7.424421305703116092e-01 -2.236409008631088380e-01 4.150000000000000000e+02
1.475760762695749628e+00 -1.432873626097451947e+00 4.150000000000000000e+02
2.209079394821187758e+00 -2.642106351331795278e+00 4.150000000000000000e+02
-2.190832397931440134e+00 4.613290000074264263e+00 4.160000000000000000e+02
-1.457513765806002226e+00 3.404057274839920932e+00 4.160000000000000000e+02
-7.241951336805643180e-01 2.194824549605577602e+00 4.160000000000000000e+02
9.123498444873728852e-03 9.855918243712344928e-01 4.160000000000000000e+02
7.424421305703116092e-01 -2.236409008631088380e-01 4.160000000000000000e+02
1.475760762695749628e+00 -1.432873626097451947e+00 4.160000000000000000e+02
2.209079394821187758e+00 -2.642106351331795278e+00 4.160000000000000000e+02
-2.190832397931440134e+00 4.613290000074264263e+00 4.170000000000000000e+02
-1.457513765806002226e+00 3.404057274839920932e+00 4.170000000000000000e+02
-7.241951336805643180e-01 2.194824549605577602e+00 4.170000000000000000e+02
9.123498444873728852e-03 9.855918243712344928e-01 4.170000000000000000e+02
7.424421305703116092e-01 -2.236409008631088380e-01 4.170000000000000000e+02
1.475760762695749628e+00 -1.432873626097451947e+00 4.170000000000000000e+02
2.209079394821187758e+00 -2.642106351331795278e+00 4.170000000000000000e+02
-2.190832397931440134e+00 4.613290000074264263e+00 4.180000000000000000e+02
-1.457513765806002226e+00 3.404057274839920932e+00 4.180000000000000000e+02
-7.241951336805643180e-01 2.194824549605577602e+00 4.180000000000000000e+02
9.123498444873728852e-03 9.855918243712344928e-01 4.180000000000000000e+02
7.424421305703116092e-01 -2.236409008631088380e-01 4.180000000000000000e+02
1.475760762695749628e+00 -1.432873626097451947e+00 4.180000000000000000e+02
2.209079394821187758e+00 -2.642106351331795278e+00 4.180000000000000000e+02
-2.190832397931440134e+00 4.613290000074264263e+00 4.190000000000000000e+02
-1.457513765806002226e+00 3.404057274839920932e+00 4.190000000000000000e+02
-7.241951336805643180e-01 2.194824549605577602e+00 4.190000000000000000e+02
9.123498444873728852e-03 9.855918243712344928e-01 4.190000000000000000e+02
7.424421305703116092e-01 -2.236409008631088380e-01 4.190000000000000000e+02
1.475760762695749628e+00 -1.432873626097451947e+00 4.190000000000000000e+02
2.209079394821187758e+00 -2.642106351331795278e+00 4.190000000000000000e+02
-2.190832397931440134e+00 4.613290000074264263e+00 4.200000000000000000e+02
-1.457513765806002226e+00 3.404057274839920932e+00 4.200000000000000000e+02
-7.241951336805643180e-01 2.194824549605577602e+00 4.200000000000000000e+02
9.123498444873728852e-03 9.855918243712344928e-01 4.200000000000000000e+02
7.424421305703116092e-01 -2.236409008631088380e-01 4.200000000000000000e+02
1.475760762695749628e+00 -1.432873626097451947e+00 4.200000000000000000e+02
2.209079394821187758e+00 -2.642106351331795278e+00 4.200000000000000000e+02
-2.428789444485893068e+00 3.642014321394373422e+00 4.210000000000000000e+02
