-4.284547091197277169e+00 3.403992506437942822e+00 3.120000000000000000e+02
-4.656948804168181688e+00 4.768293413194343522e+00 3.120000000000000000e+02
-5.029350517139086207e+00 6.132594319950743333e+00 3.120000000000000000e+02
-2.050136813371848277e+00 -4.781812934100456935e+00 3.130000000000000000e+02
-2.422538526342752352e+00 -3.417512027344057568e+00 3.130000000000000000e+02
-2.794940239313657315e+00 -2.053211120587657756e+00 3.130000000000000000e+02
-3.167341952284562279e+00 -6.889102138312573897e-01 3.130000000000000000e+02
-3.539743665255467242e+00 6.753906929251427549e-01 3.130000000000000000e+02
-3.912145378226371761e+00 2.039691599681543011e+00 3.130000000000000000e+02
-4.284547091197277169e+00 3.403992506437942822e+00 3.130000000000000000e+02
-4.656948804168181688e+00 4.768293413194343522e+00 3.130000000000000000e+02
-5.029350517139086207e+00 6.132594319950743333e+00 3.130000000000000000e+02
-2.050136813371848277e+00 -4.781812934100456935e+00 3.140000000000000000e+02
-2.422538526342752352e+00 -3.417512027344057568e+00 3.140000000000000000e+02
-2.794940239313657315e+00 -2.053211120587657756e+00 3.140000000000000000e+02
-3.167341952284562279e+00 -6.889102138312573897e-01 3.140000000000000000e+02
-3.539743665255467242e+00 6.753906929251427549e-01 3.140000000000000000e+02
-3.912145378226371761e+00 2.039691599681543011e+00 3.140000000000000000e+02
-4.284547091197277169e+00 3.403992506437942822e+00 3.140000000000000000e+02
-4.656948804168181688e+00 4.768293413194343522e+00 3.140000000000000000e+02
-5.029350517139086207e+00 6.132594319950743333e+00 3.140000000000000000e+02
-2.050136813371848277e+00 -4.781812934100456935e+00 3.150000000000000000e+02
-2.422538526342752352e+00 -3.417512027344057568e+00 3.150000000000000000e+02
-2.794940239313657315e+00 -2.053211120587657756e+00 3.150000000000000000e+02
-3.167341952284562279e+00 -6.889102138312573897e-01 3.150000000000000000e+02
-3.539743665255467242e+00 6.753906929251427549e-01 3.150000000000000000e+02
-3.912145378226371761e+00 2.039691599681543011e+00 3.150000000000000000e+02
-4.284547091197277169e+00 3.403992506437942822e+00 3.150000000000000000e+02
-4.656948804168181688e+00 4.768293413194343522e+00 3.150000000000000000e+02
-5.029350517139086207e+00 6.132594319950743333e+00 3.150000000000000000e+02
-2.050136813371848277e+00 -4.781812934100456935e+00 3.160000000000000000e+02
-2.422538526342752352e+00 -3.417512027344057568e+00 3.160000000000000000e+02
-2.794940239313657315e+00 -2.053211120587657756e+00 3.160000000000000000e+02
-3.167341952284562279e+00 -6.889102138312573897e-01 3.160000000000000000e+02
-3.539743665255467242e+00 6.753906929251427549e-01 3.160000000000000000e+02
-3.912145378226371761e+00 2.039691599681543011e+00 3.160000000000000000e+02
-4.284547091197277169e+00 3.403992506437942822e+00 3.160000000000000000e+02
-4.656948804168181688e+00 4.768293413194343522e+00 3.160000000000000000e+02
-5.029350517139086207e+00 6.132594319950743333e+00 3.160000000000000000e+02
-2.050136813371848277e+00 -4.781812934100456935e+00 3.170000000000000000e+02
-2.422538526342752352e+00 -3.417512027344057568e+00 3.170000000000000000e+02
-2.794940239313657315e+00 -2.053211120587657756e+00 3.170000000000000000e+02
-3.167341952284562279e+00 -6.889102138312573897e-01 3.170000000000000000e+02
-3.539743665255467242e+00 6.753906929251427549e-01 3.170000000000000000e+02
-3.912145378226371761e+00 2.039691599681543011e+00 3.170000000000000000e+02
-4.284547091197277169e+00 3.403992506437942822e+00 3.170000000000000000e+02
-4.656948804168181688e+00 4.768293413194343522e+00 3.170000000000000000e+02
-5.029350517139086207e+00 6.132594319950743333e+00 3.170000000000000000e+02
-2.050136813371848277e+00 -4.781812934100456935e+00 3.180000000000000000e+02
-2.422538526342752352e+00 -3.417512027344057568e+00 3.180000000000000000e+02
-2.794940239313657315e+00 -2.053211120587657756e+00 3.180000000000000000e+02
-3.167341952284562279e+00 -6.889102138312573897e-01 3.180000000000000000e+02
-3.539743665255467242e+00 6.753906929251427549e-01 3.180000000000000000e+02
-3.912145378226371761e+00 2.039691599681543011e+00 3.180000000000000000e+02
-4.284547091197277169e+00 3.403992506437942822e+00 3.180000000000000000e+02
-4.656948804168181688e+00 4.768293413194343522e+00 3.180000000000000000e+02
-5.029350517139086207e+00 6.132594319950743333e+00 3.180000000000000000e+02
-2.050136813371848277e+00 -4.781812934100456935e+00 3.190000000000000000e+02
-2.422538526342752352e+00 -3.417512027344057568e+00 3.190000000000000000e+02
-2.794940239313657315e+00 -2.053211120587657756e+00 3.190000000000000000e+02
-3.167341952284562279e+00 -6.889102138312573897e-01 3.190000000000000000e+02
-3.539743665255467242e+00 6.753906929251427549e-01 3.190000000000000000e+02
-3.912145378226371761e+00 2.039691599681543011e+00 3.190000000000000000e+02
-4.284547091197277169e+00 3.403992506437942822e+00 3.190000000000000000e+02
-4.656948804168181688e+00 4.768293413194343522e+00 3.190000000000000000e+02
-5.029350517139086207e+00 6.132594319950743333e+00 3.190000000000000000e+02
-2.050136813371848277e+00 -4.781812934100456935e+00 3.200000000000000000e+02
-2.422538526342752352e+00 -3.417512027344057568e+00 3.200000000000000000e+02
-2.794940239313657315e+00 -2.053211120587657756e+00 3.200000000000000000e+02
-3.167341952284562279e+00 -6.889102138312573897e-01 3.200000000000000000e+02
-3.539743665255467242e+00 6.753906929251427549e-01 3.200000000000000000e+02
-3.912145378226371761e+00 2.039691599681543011e+00 3.200000000000000000e+02
-4.284547091197277169e+00 3.403992506437942822e+00 3.200000000000000000e+02
-4.656948804168181688e+00 4.768293413194343522e+00 3.200000000000000000e+02
-5.029350517139086207e+00 6.132594319950743333e+00 3.200000000000000000e+02
-5.401752230109991615e+00 7.496895226707144033e+00 3.200000000000000000e+02
-2.050136813371848277e+00 -4.781812934100456935e+00 3.210000000000000000e+02
-2.422538526342752352e+00 -3.417512027344057568e+00 3.210000000000000000e+02
-2.794940239313657315e+00 -2.053211120587657756e+00 3.210000000000000000e+02
-3.167341952284562279e+00 -6.889102138312573897e-01 3.210000000000000000e+02
-3.539743665255467242e+00 6.753906929251427549e-01 3.210000000000000000e+02
-3.912145378226371761e+00 2.039691599681543011e+00 3.210000000000000000e+02
-4.284547091197277169e+00 3.403992506437942822e+00 3.210000000000000000e+02
-4.656948804168181688e+00 4.768293413194343522e+00 3.210000000000000000e+02
-5.029350517139086207e+00 6.132594319950743333e+00 3.210000000000000000e+02
-5.401752230109991615e+00 7.496895226707144033e+00 3.210000000000000000e+02
-1.554187216479100631e+00 -3.913461624236804770e+00 3.220000000000000000e+02
-1.926588929450004706e+00 -2.549160717480404958e+00 3.220000000000000000e+02
-2.298990642420909669e+00 -1.184859810724005147e+00 3.220000000000000000e+02
-2.671392355391814633e+00 1.794410960323951088e-01 3.220000000000000000e+02
-3.043794068362719152e+00 1.543742002788795364e+00 3.220000000000000000e+02
-3.416195781333624559e+00 2.908042909545195176e+00 3.220000000000000000e+02
-3.788597494304529079e+00 4.272343816301595432e+00 3.220000000000000000e+02
-4.160999207275434486e+00 5.636644723057996131e+00 3.220000000000000000e+02
-4.533400920246339005e+00 7.000945629814395943e+00 3.220000000000000000e+02
-1.554187216479100631e+00 -3.913461624236804770e+00 3.230000000000000000e+02
-1.926588929450004706e+00 -2.549160717480404958e+00 3.230000000000000000e+02
-2.298990642420909669e+00 -1.184859810724005147e+00 3.230000000000000000e+02
-2.671392355391814633e+00 1.794410960323951088e-01 3.230000000000000000e+02
-3.043794068362719152e+00 1.543742002788795364e+00 3.230000000000000000e+02
-3.416195781333624559e+00 2.908042909545195176e+00 3.230000000000000000e+02
-3.788597494304529079e+00 4.272343816301595432e+00 3.230000000000000000e+02
-4.160999207275434486e+00 5.636644723057996131e+00 3.230000000000000000e+02
-4.533400920246339005e+00 7.000945629814395943e+00 3.230000000000000000e+02
-1.554187216479100631e+00 -3.913461624236804770e+00 3.240000000000000000e+02
-1.926588929450004706e+00 -2.549160717480404958e+00 3.240000000000000000e+02
-2.298990642420909669e+00 -1.184859810724005147e+00 3.240000000000000000e+02
-2.671392355391814633e+00 1.794410960323951088e-01 3.240000000000000000e+02
-3.043794068362719152e+00 1.543742002788795364e+00 3.240000000000000000e+02
-3.416195781333624559e+00 2.908042909545195176e+00 3.240000000000000000e+02
-3.788597494304529079e+00 4.272343816301595432e+00 3.240000000000000000e+02
-4.160999207275434486e+00 5.636644723057996131e+00 3.240000000000000000e+02
-4.533400920246339005e+00 7.000945629814395943e+00 3.240000000000000000e+02
-2.050136813371848277e+00 -4.781812934100456935e+00 3.250000000000000000e+02
-2.422538526342752352e+00 -3.417512027344057568e+00 3.250000000000000000e+02
-2.794940239313657315e+00 -2.053211120587657756e+00 3.250000000000000000e+02
-3.167341952284562279e+00 -6.889102138312573897e-01 3.250000000000000000e+02
-3.539743665255467242e+00 6.753906929251427549e-01 3.250000000000000000e+02
-3.912145378226371761e+00 2.039691599681543011e+00 3.250000000000000000e+02
-4.284547091197277169e+00 3.403992506437942822e+00 3.250000000000000000e+02
-4.656948804168181688e+00 4.768293413194343522e+00 3.250000000000000000e+02
-5.029350517139086207e+00 6.132594319950743333e+00 3.250000000000000000e+02
-5.401752230109991615e+00 7.496895226707144033e+00 3.250000000000000000e+02
-2.050136813371848277e+00 -4.781812934100456935e+00 3.260000000000000000e+02
-2.422538526342752352e+00 -3.417512027344057568e+00 3.260000000000000000e+02
-2.794940239313657315e+00 -2.053211120587657756e+00 3.260000000000000000e+02
-3.167341952284562279e+00 -6.889102138312573897e-01 3.260000000000000000e+02
-3.539743665255467242e+00 6.753906929251427549e-01 3.260000000000000000e+02
-3.912145378226371761e+00 2.039691599681543011e+00 3.260000000000000000e+02
-4.284547091197277169e+00 3.403992506437942822e+00 3.260000000000000000e+02
-4.656948804168181688e+00 4.768293413194343522e+00 3.260000000000000000e+02
-5.029350517139086207e+00 6.132594319950743333e+00 3.260000000000000000e+02
-5.401752230109991615e+00 7.496895226707144033e+00 3.260000000000000000e+02
-2.050136813371848277e+00 -4.781812934100456935e+00 3.270000000000000000e+02
-2.422538526342752352e+00 -3.417512027344057568e+00 3.270000000000000000e+02
-2.794940239313657315e+00 -2.053211120587657756e+00 3.270000000000000000e+02
-3.167341952284562279e+00 -6.889102138312573897e-01 3.270000000000000000e+02
-3.539743665255467242e+00 6.753906929251427549e-01 3.270000000000000000e+02
-3.912145378226371761e+00 2.039691599681543011e+00 3.270000000000000000e+02
-4.284547091197277169e+00 3.403992506437942822e+00 3.270000000000000000e+02
-4.656948804168181688e+00 4.768293413194343522e+00 3.270000000000000000e+02
-5.029350517139086207e+00 6.132594319950743333e+00 3.270000000000000000e+02
-2.050136813371848277e+00 -4.781812934100456935e+00 3.280000000000000000e+02
-2.422538526342752352e+00 -3.417512027344057568e+00 3.280000000000000000e+02
-2.794940239313657315e+00 -2.053211120587657756e+00 3.280000000000000000e+02
-3.167341952284562279e+00 -6.889102138312573897e-01 3.280000000000000000e+02
-3.539743665255467242e+00 6.753906929251427549e-01 3.280000000000000000e+02
-3.912145378226371761e+00 2.039691599681543011e+00 3.280000000000000000e+02
-4.284547091197277169e+00 3.403992506437942822e+00 3.280000000000000000e+02
-4.656948804168181688e+00 4.768293413194343522e+00 3.280000000000000000e+02
-5.029350517139086207e+00 6.132594319950743333e+00 3.280000000000000000e+02
-2.050136813371848277e+00 -4.781812934100456935e+00 3.290000000000000000e+02
-2.422538526342752352e+00 -3.417512027344057568e+00 3.290000000000000000e+02
-2.794940239313657315e+00 -2.053211120587657756e+00 3.290000000000000000e+02
-3.167341952284562279e+00 -6.889102138312573897e-01 3.290000000000000000e+02
-3.539743665255467242e+00 6.753906929251427549e-01 3.290000000000000000e+02
-3.912145378226371761e+00 2.039691599681543011e+00 3.290000000000000000e+02
-4.284547091197277169e+00 3.403992506437942822e+00 3.290000000000000000e+02
-4.656948804168181688e+00 4.768293413194343522e+00 3.290000000000000000e+02
-5.029350517139086207e+00 6.132594319950743333e+00 3.290000000000000000e+02
-1.554187216479100631e+00 -3.913461624236804770e+00 3.300000000000000000e+02
-1.926588929450004706e+00 -2.549160717480404958e+00 3.300000000000000000e+02
-2.298990642420909669e+00 -1.184859810724005147e+00 3.300000000000000000e+02
-2.671392355391814633e+00 1.794410960323951088e-01 3.300000000000000000e+02
-3.043794068362719152e+00 1.543742002788795364e+00 3.300000000000000000e+02
-3.416195781333624559e+00 2.908042909545195176e+00 3.300000000000000000e+02
-3.788597494304529079e+00 4.272343816301595432e+00 3.300000000000000000e+02
-4.160999207275434486e+00 5.636644723057996131e+00 3.300000000000000000e+02
-4.533400920246339005e+00 7.000945629814395943e+00 3.300000000000000000e+02
-2.050136813371848277e+00 -4.781812934100456935e+00 3.310000000000000000e+02
-2.422538526342752352e+00 -3.417512027344057568e+00 3.310000000000000000e+02
-2.794940239313657315e+00 -2.053211120587657756e+00 3.310000000000000000e+02
-3.167341952284562279e+00 -6.889102138312573897e-01 3.310000000000000000e+02
-3.539743665255467242e+00 6.753906929251427549e-01 3.310000000000000000e+02
-3.912145378226371761e+00 2.039691599681543011e+00 3.310000000000000000e+02
-4.284547091197277169e+00 3.403992506437942822e+00 3.310000000000000000e+02
-4.656948804168181688e+00 4.768293413194343522e+00 3.310000000000000000e+02
-5.029350517139086207e+00 6.132594319950743333e+00 3.310000000000000000e+02
-5.401752230109991615e+00 7.496895226707144033e+00 3.310000000000000000e+02
-1.554187216479100631e+00 -3.913461624236804770e+00 3.320000000000000000e+02
-1.926588929450004706e+00 -2.549160717480404958e+00 3.320000000000000000e+02
-2.298990642420909669e+00 -1.184859810724005147e+00 3.320000000000000000e+02
-2.671392355391814633e+00 1.794410960323951088e-01 3.320000000000000000e+02
-3.043794068362719152e+00 1.543742002788795364e+00 3.320000000000000000e+02
-3.416195781333624559e+00 2.908042909545195176e+00 3.320000000000000000e+02
-3.788597494304529079e+00 4.272343816301595432e+00 3.320000000000000000e+02
-4.160999207275434486e+00 5.636644723057996131e+00 3.320000000000000000e+02
-2.050136813371848277e+00 -4.781812934100456935e+00 3.330000000000000000e+02
-2.422538526342752352e+00 -3.417512027344057568e+00 3.330000000000000000e+02
-2.794940239313657315e+00 -2.053211120587657756e+00 3.330000000000000000e+02
-3.167341952284562279e+00 -6.889102138312573897e-01 3.330000000000000000e+02
-3.539743665255467242e+00 6.753906929251427549e-01 3.330000000000000000e+02
-3.912145378226371761e+00 2.039691599681543011e+00 3.330000000000000000e+02
-4.284547091197277169e+00 3.403992506437942822e+00 3.330000000000000000e+02
-4.656948804168181688e+00 4.768293413194343522e+00 3.330000000000000000e+02
-5.029350517139086207e+00 6.132594319950743333e+00 3.330000000000000000e+02
-1.554187216479100631e+00 -3.913461624236804770e+00 3.340000000000000000e+02
-1.926588929450004706e+00 -2.549160717480404958e+00 3.340000000000000000e+02
-2.298990642420909669e+00 -1.184859810724005147e+00 3.340000000000000000e+02
-2.671392355391814633e+00 1.794410960323951088e-01 3.340000000000000000e+02
-3.043794068362719152e+00 1.543742002788795364e+00 3.340000000000000000e+02
-3.416195781333624559e+00 2.908042909545195176e+00 3.340000000000000000e+02
-3.788597494304529079e+00 4.272343816301595432e+00 3.340000000000000000e+02
-4.160999207275434486e+00 5.636644723057996131e+00 3.340000000000000000e+02
-2.050136813371848277e+00 -4.781812934100456935e+00 3.350000000000000000e+02
-2.422538526342752352e+00 -3.417512027344057568e+00 3.350000000000000000e+02
-2.794940239313657315e+00 -2.053211120587657756e+00 3.350000000000000000e+02
-3.167341952284562279e+00 -6.889102138312573897e-01 3.350000000000000000e+02
-3.539743665255467242e+00 6.753906929251427549e-01 3.350000000000000000e+02
-3.912145378226371761e+00 2.039691599681543011e+00 3.350000000000000000e+02
-4.284547091197277169e+00 3.403992506437942822e+00 3.350000000000000000e+02
-4.656948804168181688e+00 4.768293413194343522e+00 3.350000000000000000e+02
-5.029350517139086207e+00 6.132594319950743333e+00 3.350000000000000000e+02
-1.554187216479100631e+00 -3.913461624236804770e+00 3.360000000000000000e+02
-1.926588929450004706e+00 -2.549160717480404958e+00 3.360000000000000000e+02
-2.298990642420909669e+00 -1.184859810724005147e+00 3.360000000000000000e+02
-2.671392355391814633e+00 1.794410960323951088e-01 3.360000000000000000e+02
-3.043794068362719152e+00 1.543742002788795364e+00 3.360000000000000000e+02
-3.416195781333624559e+00 2.908042909545195176e+00 3.360000000000000000e+02
-3.788597494304529079e+00 4.272343816301595432e+00 3.360000000000000000e+02
-4.160999207275434486e+00 5.636644723057996131e+00 3.360000000000000000e+02
-4.533400920246339005e+00 7.000945629814395943e+00 3.360000000000000000e+02
-2.050136813371848277e+00 -4.781812934100456935e+00 3.370000000000000000e+02
-2.422538526342752352e+00 -3.417512027344057568e+00 3.370000000000000000e+02
-2.794940239313657315e+00 -2.053211120587657756e+00 3.370000000000000000e+02
-3.167341952284562279e+00 -6.889102138312573897e-01 3.370000000000000000e+02
-3.539743665255467242e+00 6.753906929251427549e-01 3.370000000000000000e+02
-3.912145378226371761e+00 2.039691599681543011e+00 3.370000000000000000e+02
-4.284547091197277169e+00 3.403992506437942822e+00 3.370000000000000000e+02
-4.656948804168181688e+00 4.768293413194343522e+00 3.370000000000000000e+02
-5.029350517139086207e+00 6.132594319950743333e+00 3.370000000000000000e+02
-5.401752230109991615e+00 7.496895226707144033e+00 3.370000000000000000e+02
-1.554187216479100631e+00 -3.913461624236804770e+00 3.380000000000000000e+02
-1.926588929450004706e+00 -2.549160717480404958e+00 3.380000000000000000e+02
-2.298990642420909669e+00 -1.184859810724005147e+00 3.380000000000000000e+02
-2.671392355391814633e+00 1.794410960323951088e-01 3.380000000000000000e+02
-3.043794068362719152e+00 1.543742002788795364e+00 3.380000000000000000e+02
-3.416195781333624559e+00 2.908042909545195176e+00 3.380000000000000000e+02
-3.788597494304529079e+00 4.272343816301595432e+00 3.380000000000000000e+02
-4.160999207275434486e+00 5.636644723057996131e+00 3.380000000000000000e+02
-4.533400920246339005e+00 7.000945629814395943e+00 3.380000000000000000e+02
-2.050136813371848277e+00 -4.781812934100456935e+00 3.390000000000000000e+02
-2.422538526342752352e+00 -3.417512027344057568e+00 3.390000000000000000e+02
-2.794940239313657315e+00 -2.053211120587657756e+00 3.390000000000000000e+02
-3.167341952284562279e+00 -6.889102138312573897e-01 3.390000000000000000e+02
-3.539743665255467242e+00 6.753906929251427549e-01 3.390000000000000000e+02
-3.912145378226371761e+00 2.039691599681543011e+00 3.390000000000000000e+02
-4.284547091197277169e+00 3.403992506437942822e+00 3.390000000000000000e+02
-4.656948804168181688e+00 4.768293413194343522e+00 3.390000000000000000e+02
-5.029350517139086207e+00 6.132594319950743333e+00 3.390000000000000000e+02
-5.401752230109991615e+00 7.496895226707144033e+00 3.390000000000000000e+02
-2.050136813371848277e+00 -4.781812934100456935e+00 3.400000000000000000e+02
-2.422538526342752352e+00 -3.417512027344057568e+00 3.400000000000000000e+02
-2.794940239313657315e+00 -2.053211120587657756e+00 3.400000000000000000e+02
-3.167341952284562279e+00 -6.889102138312573897e-01 3.400000000000000000e+02
-3.539743665255467242e+00 6.753906929251427549e-01 3.400000000000000000e+02
-3.912145378226371761e+00 2.039691599681543011e+00 3.400000000000000000e+02
-4.284547091197277169e+00 3.403992506437942822e+00 3.400000000000000000e+02
-4.656948804168181688e+00 4.768293413194343522e+00 3.400000000000000000e+02
-5.029350517139086207e+00 6.132594319950743333e+00 3.400000000000000000e+02
-5.401752230109991615e+00 7.496895226707144033e+00 3.400000000000000000e+02
-2.050136813371848277e+00 -4.781812934100456935e+00 3.410000000000000000e+02
-2.422538526342752352e+00 -3.417512027344057568e+00 3.410000000000000000e+02
-2.794940239313657315e+00 -2.053211120587657756e+00 3.410000000000000000e+02
-3.167341952284562279e+00 -6.889102138312573897e-01 3.410000000000000000e+02
-3.539743665255467242e+00 6.753906929251427549e-01 3.410000000000000000e+02
-3.912145378226371761e+00 2.039691599681543011e+00 3.410000000000000000e+02
-4.284547091197277169e+00 3.403992506437942822e+00 3.410000000000000000e+02
-4.656948804168181688e+00 4.768293413194343522e+00 3.410000000000000000e+02
-5.029350517139086207e+00 6.132594319950743333e+00 3.410000000000000000e+02
-5.401752230109991615e+00 7.496895226707144033e+00 3.410000000000000000e+02
-1.554187216479100631e+00 -3.913461624236804770e+00 3.420000000000000000e+02
-1.926588929450004706e+00 -2.549160717480404958e+00 3.420000000000000000e+02
-2.298990642420909669e+00 -1.184859810724005147e+00 3.420000000000000000e+02
-2.671392355391814633e+00 1.794410960323951088e-01 3.420000000000000000e+02
-3.043794068362719152e+00 1.543742002788795364e+00 3.420000000000000000e+02
-3.416195781333624559e+00 2.908042909545195176e+00 3.420000000000000000e+02
-3.788597494304529079e+00 4.272343816301595432e+00 3.420000000000000000e+02
-4.160999207275434486e+00 5.636644723057996131e+00 3.420000000000000000e+02
-4.533400920246339005e+00 7.000945629814395943e+00 3.420000000000000000e+02
-2.050136813371848277e+00 -4.781812934100456935e+00 3.430000000000000000e+02
-2.422538526342752352e+00 -3.417512027344057568e+00 3.430000000000000000e+02
-2.794940239313657315e+00 -2.053211120587657756e+00 3.430000000000000000e+02
-3.167341952284562279e+00 -6.889102138312573897e-01 3.430000000000000000e+02
-3.539743665255467242e+00 6.753906929251427549e-01 3.430000000000000000e+02
-3.912145378226371761e+00 2.039691599681543011e+00 3.430000000000000000e+02
-4.284547091197277169e+00 3.403992506437942822e+00 3.430000000000000000e+02
-4.656948804168181688e+00 4.768293413194343522e+00 3.430000000000000000e+02
-5.029350517139086207e+00 6.132594319950743333e+00 3.430000000000000000e+02
-5.401752230109991615e+00 7.496895226707144033e+00 3.430000000000000000e+02
-2.050136813371848277e+00 -4.781812934100456935e+00 3.440000000000000000e+02
-2.422538526342752352e+00 -3.417512027344057568e+00 3.440000000000000000e+02
-2.794940239313657315e+00 -2.053211120587657756e+00 3.440000000000000000e+02
-3.167341952284562279e+00 -6.889102138312573897e-01 3.440000000000000000e+02
-3.539743665255467242e+00 6.753906929251427549e-01 3.440000000000000000e+02
-3.912145378226371761e+00 2.039691599681543011e+00 3.440000000000000000e+02
-4.284547091197277169e+00 3.403992506437942822e+00 3.440000000000000000e+02
-4.656948804168181688e+00 4.768293413194343522e+00 3.440000000000000000e+02
-5.029350517139086207e+00 6.132594319950743333e+00 3.440000000000000000e+02
-5.401752230109991615e+00 7.496895226707144033e+00 3.440000000000000000e+02
-2.050136813371848277e+00 -4.781812934100456935e+00 3.450000000000000000e+02
-2.422538526342752352e+00 -3.417512027344057568e+00 3.450000000000000000e+02
-2.794940239313657315e+00 -2.053211120587657756e+00 3.450000000000000000e+02
-3.167341952284562279e+00 -6.889102138312573897e-01 3.450000000000000000e+02
-3.539743665255467242e+00 6.753906929251427549e-01 3.450000000000000000e+02
-3.912145378226371761e+00 2.039691599681543011e+00 3.450000000000000000e+02
-4.284547091197277169e+00 3.403992506437942822e+00 3.450000000000000000e+02
-4.656948804168181688e+00 4.768293413194343522e+00 3.450000000000000000e+02
-5.029350517139086207e+00 6.132594319950743333e+00 3.450000000000000000e+02
-5.401752230109991615e+00 7.496895226707144033e+00 3.450000000000000000e+02
-1.554187216479100631e+00 -3.913461624236804770e+00 3.460000000000000000e+02
-1.926588929450004706e+00 -2.549160717480404958e+00 3.460000000000000000e+02
-2.298990642420909669e+00 -1.184859810724005147e+00 3.460000000000000000e+02
-2.671392355391814633e+00 1.794410960323951088e-01 3.460000000000000000e+02
-3.043794068362719152e+00 1.543742002788795364e+00 3.460000000000000000e+02
-3.416195781333624559e+00 2.908042909545195176e+00 3.460000000000000000e+02
-3.788597494304529079e+00 4.272343816301595432e+00 3.460000000000000000e+02
-4.160999207275434486e+00 5.636644723057996131e+00 3.460000000000000000e+02
-4.533400920246339005e+00 7.000945629814395943e+00 3.460000000000000000e+02
-2.050136813371848277e+00 -4.781812934100456935e+00 3.470000000000000000e+02
-2.422538526342752352e+00 -3.417512027344057568e+00 3.470000000000000000e+02
-2.794940239313657315e+00 -2.053211120587657756e+00 3.470000000000000000e+02
-3.167341952284562279e+00 -6.889102138312573897e-01 3.470000000000000000e+02
-3.539743665255467242e+00 6.753906929251427549e-01 3.470000000000000000e+02
-3.912145378226371761e+00 2.039691599681543011e+00 3.470000000000000000e+02
-4.284547091197277169e+00 3.403992506437942822e+00 3.470000000000000000e+02
-4.656948804168181688e+00 4.768293413194343522e+00 3.470000000000000000e+02
-5.029350517139086207e+00 6.132594319950743333e+00 3.470000000000000000e+02
-5.401752230109991615e+00 7.496895226707144033e+00 3.470000000000000000e+02
-1.554187216479100631e+00 -3.913461624236804770e+00 3.480000000000000000e+02
-1.926588929450004706e+00 -2.549160717480404958e+00 3.480000000000000000e+02
-2.298990642420909669e+00 -1.184859810724005147e+00 3.480000000000000000e+02
-2.671392355391814633e+00 1.794410960323951088e-01 3.480000000000000000e+02
-3.043794068362719152e+00 1.543742002788795364e+00 3.480000000000000000e+02
-3.416195781333624559e+00 2.908042909545195176e+00 3.480000000000000000e+02
-3.788597494304529079e+00 4.272343816301595432e+00 3.480000000000000000e+02
-4.160999207275434486e+00 5.636644723057996131e+00 3.480000000000000000e+02
-4.533400920246339005e+00 7.000945629814395943e+00 3.480000000000000000e+02
-2.050136813371848277e+00 -4.781812934100456935e+00 3.490000000000000000e+02
-2.422538526342752352e+00 -3.417512027344057568e+00 3.490000000000000000e+02
-2.794940239313657315e+00 -2.053211120587657756e+00 3.490000000000000000e+02
-3.167341952284562279e+00 -6.889102138312573897e-01 3.490000000000000000e+02
-3.539743665255467242e+00 6.753906929251427549e-01 3.490000000000000000e+02
-3.912145378226371761e+00 2.039691599681543011e+00 3.490000000000000000e+02
-4.284547091197277169e+00 3.403992506437942822e+00 3.490000000000000000e+02
-4.656948804168181688e+00 4.768293413194343522e+00 3.490000000000000000e+02
-5.029350517139086207e+00 6.132594319950743333e+00 3.490000000000000000e+02
-5.401752230109991615e+00 7.496895226707144033e+00 3.490000000000000000e+02
-1.554187216479100631e+00 -3.913461624236804770e+00 3.500000000000000000e+02
-1.926588929450004706e+00 -2.549160717480404958e+00 3.500000000000000000e+02
-2.298990642420909669e+00 -1.184859810724005147e+00 3.500000000000000000e+02
-2.671392355391814633e+00 1.794410960323951088e-01 3.500000000000000000e+02
-3.043794068362719152e+00 1.543742002788795364e+00 3.500000000000000000e+02
-3.416195781333624559e+00 2.908042909545195176e+00 3.500000000000000000e+02
-3.788597494304529079e+00 4.272343816301595432e+00 3.500000000000000000e+02
-4.160999207275434486e+00 5.636644723057996131e+00 3.500000000000000000e+02
-4.533400920246339005e+00 7.000945629814395943e+00 3.500000000000000000e+02
-1.554187216479100631e+00 -3.913461624236804770e+00 3.510000000000000000e+02
-1.926588929450004706e+00 -2.549160717480404958e+00 3.510000000000000000e+02
-2.298990642420909669e+00 -1.184859810724005147e+00 3.510000000000000000e+02
-2.671392355391814633e+00 1.794410960323951088e-01 3.510000000000000000e+02
-3.043794068362719152e+00 1.543742002788795364e+00 3.510000000000000000e+02
-3.416195781333624559e+00 2.908042909545195176e+00 3.510000000000000000e+02
-3.788597494304529079e+00 4.272343816301595432e+00 3.510000000000000000e+02
-4.160999207275434486e+00 5.636644723057996131e+00 3.510000000000000000e+02
-4.533400920246339005e+00 7.000945629814395943e+00 3.510000000000000000e+02
-2.050136813371848277e+00 -4.781812934100456935e+00 3.520000000000000000e+02
-2.422538526342752352e+00 -3.417512027344057568e+00 3.520000000000000000e+02
-2.794940239313657315e+00 -2.053211120587657756e+00 3.520000000000000000e+02
-3.167341952284562279e+00 -6.889102138312573897e-01 3.520000000000000000e+02
-3.539743665255467242e+00 6.753906929251427549e-01 3.520000000000000000e+02
-3.912145378226371761e+00 2.039691599681543011e+00 3.520000000000000000e+02
-4.284547091197277169e+00 3.403992506437942822e+00 3.520000000000000000e+02
-4.656948804168181688e+00 4.768293413194343522e+00 3.520000000000000000e+02
-5.029350517139086207e+00 6.132594319950743333e+00 3.520000000000000000e+02
-2.050136813371848277e+00 -4.781812934100456935e+00 3.530000000000000000e+02
-2.422538526342752352e+00 -3.417512027344057568e+00 3.530000000000000000e+02
-2.794940239313657315e+00 -2.053211120587657756e+00 3.530000000000000000e+02
-3.167341952284562279e+00 -6.889102138312573897e-01 3.530000000000000000e+02
-3.539743665255467242e+00 6.753906929251427549e-01 3.530000000000000000e+02
-3.912145378226371761e+00 2.039691599681543011e+00 3.530000000000000000e+02
-4.284547091197277169e+00 3.403992506437942822e+00 3.530000000000000000e+02
-4.656948804168181688e+00 4.768293413194343522e+00 3.530000000000000000e+02
-5.029350517139086207e+00 6.132594319950743333e+00 3.530000000000000000e+02
-2.050136813371848277e+00 -4.781812934100456935e+00 3.540000000000000000e+02
-2.422538526342752352e+00 -3.417512027344057568e+00 3.540000000000000000e+02
-2.794940239313657315e+00 -2.053211120587657756e+00 3.540000000000000000e+02
-3.167341952284562279e+00 -6.889102138312573897e-01 3.540000000000000000e+02
-3.539743665255467242e+00 6.753906929251427549e-01 3.540000000000000000e+02
-3.912145378226371761e+00 2.039691599681543011e+00 3.540000000000000000e+02
-4.284547091197277169e+00 3.403992506437942822e+00 3.540000000000000000e+02
-4.656948804168181688e+00 4.768293413194343522e+00 3.540000000000000000e+02
-5.029350517139086207e+00 6.132594319950743333e+00 3.540000000000000000e+02
-5.401752230109991615e+00 7.496895226707144033e+00 3.540000000000000000e+02
-2.050136813371848277e+00 -4.781812934100456935e+00 3.550000000000000000e+02
-2.422538526342752352e+00 -3.417512027344057568e+00 3.550000000000000000e+02
-2.794940239313657315e+00 -2.053211120587657756e+00 3.550000000000000000e+02
-3.167341952284562279e+00 -6.889102138312573897e-01 3.550000000000000000e+02
-3.539743665255467242e+00 6.753906929251427549e-01 3.550000000000000000e+02
-3.912145378226371761e+00 2.039691599681543011e+00 3.550000000000000000e+02
-4.284547091197277169e+00 3.403992506437942822e+00 3.550000000000000000e+02
-4.656948804168181688e+00 4.768293413194343522e+00 3.550000000000000000e+02
-5.029350517139086207e+00 6.132594319950743333e+00 3.550000000000000000e+02
-5.401752230109991615e+00 7.496895226707144033e+00 3.550000000000000000e+02
-1.554187216479100631e+00 -3.913461624236804770e+00 3.560000000000000000e+02
-1.926588929450004706e+00 -2.549160717480404958e+00 3.560000000000000000e+02
-2.298990642420909669e+00 -1.184859810724005147e+00 3.560000000000000000e+02
-2.671392355391814633e+00 1.794410960323951088e-01 3.560000000000000000e+02
-3.043794068362719152e+00 1.543742002788795364e+00 3.560000000000000000e+02
-3.416195781333624559e+00 2.908042909545195176e+00 3.560000000000000000e+02
-3.788597494304529079e+00 4.272343816301595432e+00 3.560000000000000000e+02
-4.160999207275434486e+00 5.636644723057996131e+00 3.560000000000000000e+02
-4.533400920246339005e+00 7.000945629814395943e+00 3.560000000000000000e+02
-2.050136813371848277e+00 -4.781812934100456935e+00 3.570000000000000000e+02
-2.422538526342752352e+00 -3.417512027344057568e+00 3.570000000000000000e+02
-2.794940239313657315e+00 -2.053211120587657756e+00 3.570000000000000000e+02
-3.167341952284562279e+00 -6.889102138312573897e-01 3.570000000000000000e+02
-3.539743665255467242e+00 6.753906929251427549e-01 3.570000000000000000e+02
-3.912145378226371761e+00 2.039691599681543011e+00 3.570000000000000000e+02
-4.284547091197277169e+00 3.403992506437942822e+00 3.570000000000000000e+02
-4.656948804168181688e+00 4.768293413194343522e+00 3.570000000000000000e+02
-5.029350517139086207e+00 6.132594319950743333e+00 3.570000000000000000e+02
-5.401752230109991615e+00 7.496895226707144033e+00 3.570000000000000000e+02
-2.050136813371848277e+00 -4.781812934100456935e+00 3.580000000000000000e+02
-2.422538526342752352e+00 -3.417512027344057568e+00 3.580000000000000000e+02
-2.794940239313657315e+00 -2.053211120587657756e+00 3.580000000000000000e+02
-3.167341952284562279e+00 -6.889102138312573897e-01 3.580000000000000000e+02
-3.539743665255467242e+00 6.753906929251427549e-01 3.580000000000000000e+02
-3.912145378226371761e+00 2.039691599681543011e+00 3.580000000000000000e+02
-4.284547091197277169e+00 3.403992506437942822e+00 3.580000000000000000e+02
-4.656948804168181688e+00 4.768293413194343522e+00 3.580000000000000000e+02
-5.029350517139086207e+00 6.132594319950743333e+00 3.580000000000000000e+02
-2.050136813371848277e+00 -4.781812934100456935e+00 3.590000000000000000e+02
-2.422538526342752352e+00 -3.417512027344057568e+00 3.590000000000000000e+02
-2.794940239313657315e+00 -2.053211120587657756e+00 3.590000000000000000e+02
-3.167341952284562279e+00 -6.889102138312573897e-01 3.590000000000000000e+02
-3.539743665255467242e+00 6.753906929251427549e-01 3.590000000000000000e+02
-3.912145378226371761e+00 2.039691599681543011e+00 3.590000000000000000e+02
-4.284547091197277169e+00 3.403992506437942822e+00 3.590000000000000000e+02
-4.656948804168181688e+00 4.768293413194343522e+00 3.590000000000000000e+02
-5.029350517139086207e+00 6.132594319950743333e+00 3.590000000000000000e+02
-2.050136813371848277e+00 -4.781812934100456935e+00 3.600000000000000000e+02
-2.422538526342752352e+00 -3.417512027344057568e+00 3.600000000000000000e+02
-2.794940239313657315e+00 -2.053211120587657756e+00 3.600000000000000000e+02
-3.167341952284562279e+00 -6.889102138312573897e-01 3.600000000000000000e+02
-3.539743665255467242e+00 6.753906929251427549e-01 3.600000000000000000e+02
-3.912145378226371761e+00 2.039691599681543011e+00 3.600000000000000000e+02
-4.284547091197277169e+00 3.403992506437942822e+00 3.600000000000000000e+02
-4.656948804168181688e+00 4.768293413194343522e+00 3.600000000000000000e+02
-5.029350517139086207e+00 6.132594319950743333e+00 3.600000000000000000e+02
-2.050136813371848277e+00 -4.781812934100456935e+00 3.610000000000000000e+02
-2.422538526342752352e+00 -3.417512027344057568e+00 3.610000000000000000e+02
-2.794940239313657315e+00 -2.053211120587657756e+00 3.610000000000000000e+02
-3.167341952284562279e+00 -6.889102138312573897e-01 3.610000000000000000e+02
-3.539743665255467242e+00 6.753906929251427549e-01 3.610000000000000000e+02
-3.912145378226371761e+00 2.039691599681543011e+00 3.610000000000000000e+02
-4.284547091197277169e+00 3.403992506437942822e+00 3.610000000000000000e+02
-4.656948804168181688e+00 4.768293413194343522e+00 3.610000000000000000e+02
-5.029350517139086207e+00 6.132594319950743333e+00 3.610000000000000000e+02
-5.401752230109991615e+00 7.496895226707144033e+00 3.610000000000000000e+02
-2.050136813371848277e+00 -4.781812934100456935e+00 3.620000000000000000e+02
-2.422538526342752352e+00 -3.417512027344057568e+00 3.620000000000000000e+02
-2.794940239313657315e+00 -2.053211120587657756e+00 3.620000000000000000e+02
-3.167341952284562279e+00 -6.889102138312573897e-01 3.620000000000000000e+02
-3.539743665255467242e+00 6.753906929251427549e-01 3.620000000000000000e+02
-3.912145378226371761e+00 2.039691599681543011e+00 3.620000000000000000e+02
-4.284547091197277169e+00 3.403992506437942822e+00 3.620000000000000000e+02
-4.656948804168181688e+00 4.768293413194343522e+00 3.620000000000000000e+02
-5.029350517139086207e+00 6.132594319950743333e+00 3.620000000000000000e+02
-5.401752230109991615e+00 7.496895226707144033e+00 3.620000000000000000e+02
-2.050136813371848277e+00 -4.781812934100456935e+00 3.630000000000000000e+02
-2.422538526342752352e+00 -3.417512027344057568e+00 3.630000000000000000e+02
-2.794940239313657315e+00 -2.053211120587657756e+00 3.630000000000000000e+02
-3.167341952284562279e+00 -6.889102138312573897e-01 3.630000000000000000e+02
-3.539743665255467242e+00 6.753906929251427549e-01 3.630000000000000000e+02
-3.912145378226371761e+00 2.039691599681543011e+00 3.630000000000000000e+02
-4.284547091197277169e+00 3.403992506437942822e+00 3.630000000000000000e+02
-4.656948804168181688e+00 4.768293413194343522e+00 3.630000000000000000e+02
-5.029350517139086207e+00 6.132594319950743333e+00 3.630000000000000000e+02
-5.401752230109991615e+00 7.496895226707144033e+00 3.630000000000000000e+02
-1.554187216479100631e+00 -3.913461624236804770e+00 3.640000000000000000e+02
-1.926588929450004706e+00 -2.549160717480404958e+00 3.640000000000000000e+02
-2.298990642420909669e+00 -1.184859810724005147e+00 3.640000000000000000e+02
-2.671392355391814633e+00 1.794410960323951088e-01 3.640000000000000000e+02
-3.043794068362719152e+00 1.543742002788795364e+00 3.640000000000000000e+02
-3.416195781333624559e+00 2.908042909545195176e+00 3.640000000000000000e+02
-3.788597494304529079e+00 4.272343816301595432e+00 3.640000000000000000e+02
-4.160999207275434486e+00 5.636644723057996131e+00 3.640000000000000000e+02
-4.533400920246339005e+00 7.000945629814395943e+00 3.640000000000000000e+02
-1.554187216479100631e+00 -3.913461624236804770e+00 3.650000000000000000e+02
-1.926588929450004706e+00 -2.549160717480404958e+00 3.650000000000000000e+02
-2.298990642420909669e+00 -1.184859810724005147e+00 3.650000000000000000e+02
-2.671392355391814633e+00 1.794410960323951088e-01 3.650000000000000000e+02
-3.043794068362719152e+00 1.543742002788795364e+00 3.650000000000000000e+02
-3.416195781333624559e+00 2.908042909545195176e+00 3.650000000000000000e+02
-3.788597494304529079e+00 4.272343816301595432e+00 3.650000000000000000e+02
-4.160999207275434486e+00 5.636644723057996131e+00 3.650000000000000000e+02
-4.533400920246339005e+00 7.000945629814395943e+00 3.650000000000000000e+02
-1.554187216479100631e+00 -3.913461624236804770e+00 3.660000000000000000e+02
-1.926588929450004706e+00 -2.549160717480404958e+00 3.660000000000000000e+02
-2.298990642420909669e+00 -1.184859810724005147e+00 3.660000000000000000e+02
-2.671392355391814633e+00 1.794410960323951088e-01 3.660000000000000000e+02
-3.043794068362719152e+00 1.543742002788795364e+00 3.660000000000000000e+02
-3.416195781333624559e+00 2.908042909545195176e+00 3.660000000000000000e+02
-3.788597494304529079e+00 4.272343816301595432e+00 3.660000000000000000e+02
-4.160999207275434486e+00 5.636644723057996131e+00 3.660000000000000000e+02
-4.533400920246339005e+00 7.000945629814395943e+00 3.660000000000000000e+02
-1.554187216479100631e+00 -3.913461624236804770e+00 3.670000000000000000e+02
-1.926588929450004706e+00 -2.549160717480404958e+00 3.670000000000000000e+02
-2.298990642420909669e+00 -1.184859810724005147e+00 3.670000000000000000e+02
-2.671392355391814633e+00 1.794410960323951088e-01 3.670000000000000000e+02
-3.043794068362719152e+00 1.543742002788795364e+00 3.670000000000000000e+02
-3.416195781333624559e+00 2.908042909545195176e+00 3.670000000000000000e+02
-3.788597494304529079e+00 4.272343816301595432e+00 3.670000000000000000e+02
-4.160999207275434486e+00 5.636644723057996131e+00 3.670000000000000000e+02
-4.533400920246339005e+00 7.000945629814395943e+00 3.670000000000000000e+02
-1.554187216479100631e+00 -3.913461624236804770e+00 3.680000000000000000e+02
-1.926588929450004706e+00 -2.549160717480404958e+00 3.680000000000000000e+02
-2.298990642420909669e+00 -1.184859810724005147e+00 3.680000000000000000e+02
-2.671392355391814633e+00 1.794410960323951088e-01 3.680000000000000000e+02
-3.043794068362719152e+00 1.543742002788795364e+00 3.680000000000000000e+02
-3.416195781333624559e+00 2.908042909545195176e+00 3.680000000000000000e+02
-3.788597494304529079e+00 4.272343816301595432e+00 3.680000000000000000e+02
-4.160999207275434486e+00 5.636644723057996131e+00 3.680000000000000000e+02
-4.533400920246339005e+00 7.000945629814395943e+00 3.680000000000000000e+02
-1.554187216479100631e+00 -3.913461624236804770e+00 3.690000000000000000e+02
-1.926588929450004706e+00 -2.549160717480404958e+00 3.690000000000000000e+02
-2.298990642420909669e+00 -1.184859810724005147e+00 3.690000000000000000e+02
-2.671392355391814633e+00 1.794410960323951088e-01 3.690000000000000000e+02
-3.043794068362719152e+00 1.543742002788795364e+00 3.690000000000000000e+02
-3.416195781333624559e+00 2.908042909545195176e+00 3.690000000000000000e+02
-3.788597494304529079e+00 4.272343816301595432e+00 3.690000000000000000e+02
-4.160999207275434486e+00 5.636644723057996131e+00 3.690000000000000000e+02
-4.533400920246339005e+00 7.000945629814395943e+00 3.690000000000000000e+02
-1.554187216479100631e+00 -3.913461624236804770e+00 3.700000000000000000e+02
-1.926588929450004706e+00 -2.549160717480404958e+00 3.700000000000000000e+02
-2.298990642420909669e+00 -1.184859810724005147e+00 3.700000000000000000e+02
-2.671392355391814633e+00 1.794410960323951088e-01 3.700000000000000000e+02
-3.043794068362719152e+00 1.543742002788795364e+00 3.700000000000000000e+02
-3.416195781333624559e+00 2.908042909545195176e+00 3.700000000000000000e+02
-3.788597494304529079e+00 4.272343816301595432e+00 3.700000000000000000e+02
-4.160999207275434486e+00 5.636644723057996131e+00 3.700000000000000000e+02
-4.533400920246339005e+00 7.000945629814395943e+00 3.700000000000000000e+02
-1.554187216479100631e+00 -3.913461624236804770e+00 3.710000000000000000e+02
-1.926588929450004706e+00 -2.549160717480404958e+00 3.710000000000000000e+02
-2.298990642420909669e+00 -1.184859810724005147e+00 3.710000000000000000e+02
-2.671392355391814633e+00 1.794410960323951088e-01 3.710000000000000000e+02
-3.043794068362719152e+00 1.543742002788795364e+00 3.710000000000000000e+02
-3.416195781333624559e+00 2.908042909545195176e+00 3.710000000000000000e+02
-3.788597494304529079e+00 4.272343816301595432e+00 3.710000000000000000e+02
-4.160999207275434486e+00 5.636644723057996131e+00 3.710000000000000000e+02
-1.554187216479100631e+00 -3.913461624236804770e+00 3.720000000000000000e+02
-1.926588929450004706e+00 -2.549160717480404958e+00 3.720000000000000000e+02
-2.298990642420909669e+00 -1.184859810724005147e+00 3.720000000000000000e+02
-2.671392355391814633e+00 1.794410960323951088e-01 3.720000000000000000e+02
-3.043794068362719152e+00 1.543742002788795364e+00 3.720000000000000000e+02
-3.416195781333624559e+00 2.908042909545195176e+00 3.720000000000000000e+02
-3.788597494304529079e+00 4.272343816301595432e+00 3.720000000000000000e+02
-4.160999207275434486e+00 5.636644723057996131e+00 3.720000000000000000e+02
-2.050136813371848277e+00 -4.781812934100456935e+00 3.730000000000000000e+02
-2.422538526342752352e+00 -3.417512027344057568e+00 3.730000000000000000e+02
-2.794940239313657315e+00 -2.053211120587657756e+00 3.730000000000000000e+02
-3.167341952284562279e+00 -6.889102138312573897e-01 3.730000000000000000e+02
-3.539743665255467242e+00 6.753906929251427549e-01 3.730000000000000000e+02
-3.912145378226371761e+00 2.039691599681543011e+00 3.730000000000000000e+02
-4.284547091197277169e+00 3.403992506437942822e+00 3.730000000000000000e+02
-4.656948804168181688e+00 4.768293413194343522e+00 3.730000000000000000e+02
-5.029350517139086207e+00 6.132594319950743333e+00 3.730000000000000000e+02
-5.401752230109991615e+00 7.496895226707144033e+00 3.730000000000000000e+02
-2.050136813371848277e+00 -4.781812934100456935e+00 3.740000000000000000e+02
-2.422538526342752352e+00 -3.417512027344057568e+00 3.740000000000000000e+02
-2.794940239313657315e+00 -2.053211120587657756e+00 3.740000000000000000e+02
-3.167341952284562279e+00 -6.889102138312573897e-01 3.740000000000000000e+02
-3.539743665255467242e+00 6.753906929251427549e-01 3.740000000000000000e+02
-3.912145378226371761e+00 2.039691599681543011e+00 3.740000000000000000e+02
-4.284547091197277169e+00 3.403992506437942822e+00 3.740000000000000000e+02
-4.656948804168181688e+00 4.768293413194343522e+00 3.740000000000000000e+02
-5.029350517139086207e+00 6.132594319950743333e+00 3.740000000000000000e+02
-5.401752230109991615e+00 7.496895226707144033e+00 3.740000000000000000e+02
-2.050136813371848277e+00 -4.781812934100456935e+00 3.750000000000000000e+02
-2.422538526342752352e+00 -3.417512027344057568e+00 3.750000000000000000e+02
-2.794940239313657315e+00 -2.053211120587657756e+00 3.750000000000000000e+02
-3.167341952284562279e+00 -6.889102138312573897e-01 3.750000000000000000e+02
-3.539743665255467242e+00 6.753906929251427549e-01 3.750000000000000000e+02
-3.912145378226371761e+00 2.039691599681543011e+00 3.750000000000000000e+02
-4.284547091197277169e+00 3.403992506437942822e+00 3.750000000000000000e+02
-4.656948804168181688e+00 4.768293413194343522e+00 3.750000000000000000e+02
-5.029350517139086207e+00 6.132594319950743333e+00 3.750000000000000000e+02
-5.401752230109991615e+00 7.496895226707144033e+00 3.750000000000000000e+02
-1.554187216479100631e+00 -3.913461624236804770e+00 3.760000000000000000e+02
-1.926588929450004706e+00 -2.549160717480404958e+00 3.760000000000000000e+02
-2.298990642420909669e+00 -1.184859810724005147e+00 3.760000000000000000e+02
-2.671392355391814633e+00 1.794410960323951088e-01 3.760000000000000000e+02
-3.043794068362719152e+00 1.543742002788795364e+00 3.760000000000000000e+02
-3.416195781333624559e+00 2.908042909545195176e+00 3.760000000000000000e+02
-3.788597494304529079e+00 4.272343816301595432e+00 3.760000000000000000e+02
-4.160999207275434486e+00 5.636644723057996131e+00 3.760000000000000000e+02
-4.533400920246339005e+00 7.000945629814395943e+00 3.760000000000000000e+02
-2.050136813371848277e+00 -4.781812934100456935e+00 3.770000000000000000e+02
-2.422538526342752352e+00 -3.417512027344057568e+00 3.770000000000000000e+02
-2.794940239313657315e+00 -2.053211120587657756e+00 3.770000000000000000e+02
-3.167341952284562279e+00 -6.889102138312573897e-01 3.770000000000000000e+02
-3.539743665255467242e+00 6.753906929251427549e-01 3.770000000000000000e+02
-3.912145378226371761e+00 2.039691599681543011e+00 3.770000000000000000e+02
-4.284547091197277169e+00 3.403992506437942822e+00 3.770000000000000000e+02
-4.656948804168181688e+00 4.768293413194343522e+00 3.770000000000000000e+02
-5.029350517139086207e+00 6.132594319950743333e+00 3.770000000000000000e+02
-5.401752230109991615e+00 7.496895226707144033e+00 3.770000000000000000e+02
-1.554187216479100631e+00 -3.913461624236804770e+00 3.780000000000000000e+02
-1.926588929450004706e+00 -2.549160717480404958e+00 3.780000000000000000e+02
-2.298990642420909669e+00 -1.184859810724005147e+00 3.780000000000000000e+02
-2.671392355391814633e+00 1.794410960323951088e-01 3.780000000000000000e+02
-3.043794068362719152e+00 1.543742002788795364e+00 3.780000000000000000e+02
-3.416195781333624559e+00 2.908042909545195176e+00 3.780000000000000000e+02
-3.788597494304529079e+00 4.272343816301595432e+00 3.780000000000000000e+02
-4.160999207275434486e+00 5.636644723057996131e+00 3.780000000000000000e+02
-2.050136813371848277e+00 -4.781812934100456935e+00 3.790000000000000000e+02
-2.422538526342752352e+00 -3.417512027344057568e+00 3.790000000000000000e+02
-2.794940239313657315e+00 -2.053211120587657756e+00 3.790000000000000000e+02
-3.167341952284562279e+00 -6.889102138312573897e-01 3.790000000000000000e+02
-3.539743665255467242e+00 6.753906929251427549e-01 3.790000000000000000e+02
-3.912145378226371761e+00 2.039691599681543011e+00 3.790000000000000000e+02
-4.284547091197277169e+00 3.403992506437942822e+00 3.790000000000000000e+02
-4.656948804168181688e+00 4.768293413194343522e+00 3.790000000000000000e+02
-5.029350517139086207e+00 6.132594319950743333e+00 3.790000000000000000e+02
-1.554187216479100631e+00 -3.913461624236804770e+00 3.800000000000000000e+02
-1.926588929450004706e+00 -2.549160717480404958e+00 3.800000000000000000e+02
-2.298990642420909669e+00 -1.184859810724005147e+00 3.800000000000000000e+02
