7.862800834692020402e+00 7.128912802496350309e+01 1.620000000000000000e+02
6.459129378537385335e+00 7.146148359689759388e+01 1.620000000000000000e+02
5.055457922382750269e+00 7.163383916883167046e+01 1.620000000000000000e+02
3.651786466228115202e+00 7.180619474076576125e+01 1.620000000000000000e+02
2.248115010073480136e+00 7.197855031269985204e+01 1.620000000000000000e+02
8.444435539188450690e-01 7.215090588463394283e+01 1.620000000000000000e+02
1.207381520315592560e+01 7.077206130916124494e+01 1.630000000000000000e+02
1.067014374700129054e+01 7.094441688109532151e+01 1.630000000000000000e+02
9.266472290846655468e+00 7.111677245302941230e+01 1.630000000000000000e+02
7.862800834692020402e+00 7.128912802496350309e+01 1.630000000000000000e+02
6.459129378537385335e+00 7.146148359689759388e+01 1.630000000000000000e+02
5.055457922382750269e+00 7.163383916883167046e+01 1.630000000000000000e+02
3.651786466228115202e+00 7.180619474076576125e+01 1.630000000000000000e+02
2.248115010073480136e+00 7.197855031269985204e+01 1.630000000000000000e+02
8.444435539188450690e-01 7.215090588463394283e+01 1.630000000000000000e+02
1.207381520315592560e+01 7.077206130916124494e+01 1.640000000000000000e+02
1.067014374700129054e+01 7.094441688109532151e+01 1.640000000000000000e+02
9.266472290846655468e+00 7.111677245302941230e+01 1.640000000000000000e+02
7.862800834692020402e+00 7.128912802496350309e+01 1.640000000000000000e+02
6.459129378537385335e+00 7.146148359689759388e+01 1.640000000000000000e+02
5.055457922382750269e+00 7.163383916883167046e+01 1.640000000000000000e+02
3.651786466228115202e+00 7.180619474076576125e+01 1.640000000000000000e+02
2.248115010073480136e+00 7.197855031269985204e+01 1.640000000000000000e+02
8.444435539188450690e-01 7.215090588463394283e+01 1.640000000000000000e+02
-5.592279022357899976e-01 7.232326145656801941e+01 1.640000000000000000e+02
1.145815726104565258e+01 7.156007482320559632e+01 1.650000000000000000e+02
1.005448580489101573e+01 7.173243039513968711e+01 1.650000000000000000e+02
8.650814348736382442e+00 7.190478596707377790e+01 1.650000000000000000e+02
7.247142892581746487e+00 7.207714153900786869e+01 1.650000000000000000e+02
5.843471436427111421e+00 7.224949711094194527e+01 1.650000000000000000e+02
4.439799980272476354e+00 7.242185268287603606e+01 1.650000000000000000e+02
3.036128524117841287e+00 7.259420825481012685e+01 1.650000000000000000e+02
1.632457067963206221e+00 7.276656382674421764e+01 1.650000000000000000e+02
2.287856118085711543e-01 7.293891939867829421e+01 1.650000000000000000e+02
1.145815726104565258e+01 7.156007482320559632e+01 1.660000000000000000e+02
1.005448580489101573e+01 7.173243039513968711e+01 1.660000000000000000e+02
8.650814348736382442e+00 7.190478596707377790e+01 1.660000000000000000e+02
7.247142892581746487e+00 7.207714153900786869e+01 1.660000000000000000e+02
5.843471436427111421e+00 7.224949711094194527e+01 1.660000000000000000e+02
4.439799980272476354e+00 7.242185268287603606e+01 1.660000000000000000e+02
3.036128524117841287e+00 7.259420825481012685e+01 1.660000000000000000e+02
1.632457067963206221e+00 7.276656382674421764e+01 1.660000000000000000e+02
2.287856118085711543e-01 7.293891939867829421e+01 1.660000000000000000e+02
1.145815726104565258e+01 7.156007482320559632e+01 1.670000000000000000e+02
1.005448580489101573e+01 7.173243039513968711e+01 1.670000000000000000e+02
8.650814348736382442e+00 7.190478596707377790e+01 1.670000000000000000e+02
7.247142892581746487e+00 7.207714153900786869e+01 1.670000000000000000e+02
5.843471436427111421e+00 7.224949711094194527e+01 1.670000000000000000e+02
4.439799980272476354e+00 7.242185268287603606e+01 1.670000000000000000e+02
3.036128524117841287e+00 7.259420825481012685e+01 1.670000000000000000e+02
1.632457067963206221e+00 7.276656382674421764e+01 1.670000000000000000e+02
2.287856118085711543e-01 7.293891939867829421e+01 1.670000000000000000e+02
1.145815726104565258e+01 7.156007482320559632e+01 1.680000000000000000e+02
1.005448580489101573e+01 7.173243039513968711e+01 1.680000000000000000e+02
8.650814348736382442e+00 7.190478596707377790e+01 1.680000000000000000e+02
7.247142892581746487e+00 7.207714153900786869e+01 1.680000000000000000e+02
5.843471436427111421e+00 7.224949711094194527e+01 1.680000000000000000e+02
4.439799980272476354e+00 7.242185268287603606e+01 1.680000000000000000e+02
3.036128524117841287e+00 7.259420825481012685e+01 1.680000000000000000e+02
1.632457067963206221e+00 7.276656382674421764e+01 1.680000000000000000e+02
2.287856118085711543e-01 7.293891939867829421e+01 1.680000000000000000e+02
1.145815726104565258e+01 7.156007482320559632e+01 1.690000000000000000e+02
1.005448580489101573e+01 7.173243039513968711e+01 1.690000000000000000e+02
8.650814348736382442e+00 7.190478596707377790e+01 1.690000000000000000e+02
7.247142892581746487e+00 7.207714153900786869e+01 1.690000000000000000e+02
5.843471436427111421e+00 7.224949711094194527e+01 1.690000000000000000e+02
4.439799980272476354e+00 7.242185268287603606e+01 1.690000000000000000e+02
3.036128524117841287e+00 7.259420825481012685e+01 1.690000000000000000e+02
1.632457067963206221e+00 7.276656382674421764e+01 1.690000000000000000e+02
2.287856118085711543e-01 7.293891939867829421e+01 1.690000000000000000e+02
1.145815726104565258e+01 7.156007482320559632e+01 1.700000000000000000e+02
1.005448580489101573e+01 7.173243039513968711e+01 1.700000000000000000e+02
8.650814348736382442e+00 7.190478596707377790e+01 1.700000000000000000e+02
7.247142892581746487e+00 7.207714153900786869e+01 1.700000000000000000e+02
5.843471436427111421e+00 7.224949711094194527e+01 1.700000000000000000e+02
4.439799980272476354e+00 7.242185268287603606e+01 1.700000000000000000e+02
3.036128524117841287e+00 7.259420825481012685e+01 1.700000000000000000e+02
1.632457067963206221e+00 7.276656382674421764e+01 1.700000000000000000e+02
2.287856118085711543e-01 7.293891939867829421e+01 1.700000000000000000e+02
1.145815726104565258e+01 7.156007482320559632e+01 1.710000000000000000e+02
1.005448580489101573e+01 7.173243039513968711e+01 1.710000000000000000e+02
8.650814348736382442e+00 7.190478596707377790e+01 1.710000000000000000e+02
7.247142892581746487e+00 7.207714153900786869e+01 1.710000000000000000e+02
5.843471436427111421e+00 7.224949711094194527e+01 1.710000000000000000e+02
4.439799980272476354e+00 7.242185268287603606e+01 1.710000000000000000e+02
3.036128524117841287e+00 7.259420825481012685e+01 1.710000000000000000e+02
1.632457067963206221e+00 7.276656382674421764e+01 1.710000000000000000e+02
2.287856118085711543e-01 7.293891939867829421e+01 1.710000000000000000e+02
-1.174885844346064800e+00 7.311127497061238500e+01 1.710000000000000000e+02
1.145815726104565258e+01 7.156007482320559632e+01 1.720000000000000000e+02
1.005448580489101573e+01 7.173243039513968711e+01 1.720000000000000000e+02
8.650814348736382442e+00 7.190478596707377790e+01 1.720000000000000000e+02
7.247142892581746487e+00 7.207714153900786869e+01 1.720000000000000000e+02
5.843471436427111421e+00 7.224949711094194527e+01 1.720000000000000000e+02
4.439799980272476354e+00 7.242185268287603606e+01 1.720000000000000000e+02
3.036128524117841287e+00 7.259420825481012685e+01 1.720000000000000000e+02
1.632457067963206221e+00 7.276656382674421764e+01 1.720000000000000000e+02
2.287856118085711543e-01 7.293891939867829421e+01 1.720000000000000000e+02
-1.174885844346064800e+00 7.311127497061238500e+01 1.720000000000000000e+02
1.145815726104565258e+01 7.156007482320559632e+01 1.730000000000000000e+02
1.005448580489101573e+01 7.173243039513968711e+01 1.730000000000000000e+02
8.650814348736382442e+00 7.190478596707377790e+01 1.730000000000000000e+02
7.247142892581746487e+00 7.207714153900786869e+01 1.730000000000000000e+02
5.843471436427111421e+00 7.224949711094194527e+01 1.730000000000000000e+02
4.439799980272476354e+00 7.242185268287603606e+01 1.730000000000000000e+02
3.036128524117841287e+00 7.259420825481012685e+01 1.730000000000000000e+02
1.632457067963206221e+00 7.276656382674421764e+01 1.730000000000000000e+02
2.287856118085711543e-01 7.293891939867829421e+01 1.730000000000000000e+02
1.145815726104565258e+01 7.156007482320559632e+01 1.740000000000000000e+02
1.005448580489101573e+01 7.173243039513968711e+01 1.740000000000000000e+02
8.650814348736382442e+00 7.190478596707377790e+01 1.740000000000000000e+02
7.247142892581746487e+00 7.207714153900786869e+01 1.740000000000000000e+02
5.843471436427111421e+00 7.224949711094194527e+01 1.740000000000000000e+02
4.439799980272476354e+00 7.242185268287603606e+01 1.740000000000000000e+02
3.036128524117841287e+00 7.259420825481012685e+01 1.740000000000000000e+02
1.632457067963206221e+00 7.276656382674421764e+01 1.740000000000000000e+02
2.287856118085711543e-01 7.293891939867829421e+01 1.740000000000000000e+02
1.145815726104565258e+01 7.156007482320559632e+01 1.750000000000000000e+02
1.005448580489101573e+01 7.173243039513968711e+01 1.750000000000000000e+02
8.650814348736382442e+00 7.190478596707377790e+01 1.750000000000000000e+02
7.247142892581746487e+00 7.207714153900786869e+01 1.750000000000000000e+02
5.843471436427111421e+00 7.224949711094194527e+01 1.750000000000000000e+02
4.439799980272476354e+00 7.242185268287603606e+01 1.750000000000000000e+02
3.036128524117841287e+00 7.259420825481012685e+01 1.750000000000000000e+02
1.632457067963206221e+00 7.276656382674421764e+01 1.750000000000000000e+02
2.287856118085711543e-01 7.293891939867829421e+01 1.750000000000000000e+02
1.145815726104565258e+01 7.156007482320559632e+01 1.760000000000000000e+02
1.005448580489101573e+01 7.173243039513968711e+01 1.760000000000000000e+02
8.650814348736382442e+00 7.190478596707377790e+01 1.760000000000000000e+02
7.247142892581746487e+00 7.207714153900786869e+01 1.760000000000000000e+02
5.843471436427111421e+00 7.224949711094194527e+01 1.760000000000000000e+02
4.439799980272476354e+00 7.242185268287603606e+01 1.760000000000000000e+02
3.036128524117841287e+00 7.259420825481012685e+01 1.760000000000000000e+02
1.632457067963206221e+00 7.276656382674421764e+01 1.760000000000000000e+02
2.287856118085711543e-01 7.293891939867829421e+01 1.760000000000000000e+02
1.145815726104565258e+01 7.156007482320559632e+01 1.770000000000000000e+02
1.005448580489101573e+01 7.173243039513968711e+01 1.770000000000000000e+02
8.650814348736382442e+00 7.190478596707377790e+01 1.770000000000000000e+02
7.247142892581746487e+00 7.207714153900786869e+01 1.770000000000000000e+02
5.843471436427111421e+00 7.224949711094194527e+01 1.770000000000000000e+02
4.439799980272476354e+00 7.242185268287603606e+01 1.770000000000000000e+02
3.036128524117841287e+00 7.259420825481012685e+01 1.770000000000000000e+02
1.632457067963206221e+00 7.276656382674421764e+01 1.770000000000000000e+02
2.287856118085711543e-01 7.293891939867829421e+01 1.770000000000000000e+02
1.145815726104565258e+01 7.156007482320559632e+01 1.780000000000000000e+02
1.005448580489101573e+01 7.173243039513968711e+01 1.780000000000000000e+02
8.650814348736382442e+00 7.190478596707377790e+01 1.780000000000000000e+02
7.247142892581746487e+00 7.207714153900786869e+01 1.780000000000000000e+02
5.843471436427111421e+00 7.224949711094194527e+01 1.780000000000000000e+02
4.439799980272476354e+00 7.242185268287603606e+01 1.780000000000000000e+02
3.036128524117841287e+00 7.259420825481012685e+01 1.780000000000000000e+02
1.632457067963206221e+00 7.276656382674421764e+01 1.780000000000000000e+02
2.287856118085711543e-01 7.293891939867829421e+01 1.780000000000000000e+02
1.145815726104565258e+01 7.156007482320559632e+01 1.790000000000000000e+02
1.005448580489101573e+01 7.173243039513968711e+01 1.790000000000000000e+02
8.650814348736382442e+00 7.190478596707377790e+01 1.790000000000000000e+02
7.247142892581746487e+00 7.207714153900786869e+01 1.790000000000000000e+02
5.843471436427111421e+00 7.224949711094194527e+01 1.790000000000000000e+02
4.439799980272476354e+00 7.242185268287603606e+01 1.790000000000000000e+02
3.036128524117841287e+00 7.259420825481012685e+01 1.790000000000000000e+02
1.632457067963206221e+00 7.276656382674421764e+01 1.790000000000000000e+02
2.287856118085711543e-01 7.293891939867829421e+01 1.790000000000000000e+02
1.145815726104565258e+01 7.156007482320559632e+01 1.800000000000000000e+02
1.005448580489101573e+01 7.173243039513968711e+01 1.800000000000000000e+02
8.650814348736382442e+00 7.190478596707377790e+01 1.800000000000000000e+02
7.247142892581746487e+00 7.207714153900786869e+01 1.800000000000000000e+02
5.843471436427111421e+00 7.224949711094194527e+01 1.800000000000000000e+02
4.439799980272476354e+00 7.242185268287603606e+01 1.800000000000000000e+02
3.036128524117841287e+00 7.259420825481012685e+01 1.800000000000000000e+02
1.632457067963206221e+00 7.276656382674421764e+01 1.800000000000000000e+02
2.287856118085711543e-01 7.293891939867829421e+01 1.800000000000000000e+02
1.145815726104565258e+01 7.156007482320559632e+01 1.810000000000000000e+02
1.005448580489101573e+01 7.173243039513968711e+01 1.810000000000000000e+02
8.650814348736382442e+00 7.190478596707377790e+01 1.810000000000000000e+02
7.247142892581746487e+00 7.207714153900786869e+01 1.810000000000000000e+02
5.843471436427111421e+00 7.224949711094194527e+01 1.810000000000000000e+02
4.439799980272476354e+00 7.242185268287603606e+01 1.810000000000000000e+02
3.036128524117841287e+00 7.259420825481012685e+01 1.810000000000000000e+02
1.632457067963206221e+00 7.276656382674421764e+01 1.810000000000000000e+02
2.287856118085711543e-01 7.293891939867829421e+01 1.810000000000000000e+02
1.145815726104565258e+01 7.156007482320559632e+01 1.820000000000000000e+02
1.005448580489101573e+01 7.173243039513968711e+01 1.820000000000000000e+02
8.650814348736382442e+00 7.190478596707377790e+01 1.820000000000000000e+02
7.247142892581746487e+00 7.207714153900786869e+01 1.820000000000000000e+02
5.843471436427111421e+00 7.224949711094194527e+01 1.820000000000000000e+02
4.439799980272476354e+00 7.242185268287603606e+01 1.820000000000000000e+02
3.036128524117841287e+00 7.259420825481012685e+01 1.820000000000000000e+02
1.632457067963206221e+00 7.276656382674421764e+01 1.820000000000000000e+02
2.287856118085711543e-01 7.293891939867829421e+01 1.820000000000000000e+02
1.145815726104565258e+01 7.156007482320559632e+01 1.830000000000000000e+02
1.005448580489101573e+01 7.173243039513968711e+01 1.830000000000000000e+02
8.650814348736382442e+00 7.190478596707377790e+01 1.830000000000000000e+02
7.247142892581746487e+00 7.207714153900786869e+01 1.830000000000000000e+02
5.843471436427111421e+00 7.224949711094194527e+01 1.830000000000000000e+02
4.439799980272476354e+00 7.242185268287603606e+01 1.830000000000000000e+02
3.036128524117841287e+00 7.259420825481012685e+01 1.830000000000000000e+02
1.632457067963206221e+00 7.276656382674421764e+01 1.830000000000000000e+02
2.287856118085711543e-01 7.293891939867829421e+01 1.830000000000000000e+02
1.145815726104565258e+01 7.156007482320559632e+01 1.840000000000000000e+02
1.005448580489101573e+01 7.173243039513968711e+01 1.840000000000000000e+02
8.650814348736382442e+00 7.190478596707377790e+01 1.840000000000000000e+02
7.247142892581746487e+00 7.207714153900786869e+01 1.840000000000000000e+02
5.843471436427111421e+00 7.224949711094194527e+01 1.840000000000000000e+02
4.439799980272476354e+00 7.242185268287603606e+01 1.840000000000000000e+02
3.036128524117841287e+00 7.259420825481012685e+01 1.840000000000000000e+02
1.632457067963206221e+00 7.276656382674421764e+01 1.840000000000000000e+02
2.287856118085711543e-01 7.293891939867829421e+01 1.840000000000000000e+02
1.145815726104565258e+01 7.156007482320559632e+01 1.850000000000000000e+02
1.005448580489101573e+01 7.173243039513968711e+01 1.850000000000000000e+02
8.650814348736382442e+00 7.190478596707377790e+01 1.850000000000000000e+02
7.247142892581746487e+00 7.207714153900786869e+01 1.850000000000000000e+02
5.843471436427111421e+00 7.224949711094194527e+01 1.850000000000000000e+02
4.439799980272476354e+00 7.242185268287603606e+01 1.850000000000000000e+02
3.036128524117841287e+00 7.259420825481012685e+01 1.850000000000000000e+02
1.632457067963206221e+00 7.276656382674421764e+01 1.850000000000000000e+02
2.287856118085711543e-01 7.293891939867829421e+01 1.850000000000000000e+02
1.145815726104565258e+01 7.156007482320559632e+01 1.860000000000000000e+02
1.005448580489101573e+01 7.173243039513968711e+01 1.860000000000000000e+02
8.650814348736382442e+00 7.190478596707377790e+01 1.860000000000000000e+02
7.247142892581746487e+00 7.207714153900786869e+01 1.860000000000000000e+02
5.843471436427111421e+00 7.224949711094194527e+01 1.860000000000000000e+02
4.439799980272476354e+00 7.242185268287603606e+01 1.860000000000000000e+02
3.036128524117841287e+00 7.259420825481012685e+01 1.860000000000000000e+02
1.632457067963206221e+00 7.276656382674421764e+01 1.860000000000000000e+02
2.287856118085711543e-01 7.293891939867829421e+01 1.860000000000000000e+02
1.145815726104565258e+01 7.156007482320559632e+01 1.870000000000000000e+02
1.005448580489101573e+01 7.173243039513968711e+01 1.870000000000000000e+02
8.650814348736382442e+00 7.190478596707377790e+01 1.870000000000000000e+02
7.247142892581746487e+00 7.207714153900786869e+01 1.870000000000000000e+02
5.843471436427111421e+00 7.224949711094194527e+01 1.870000000000000000e+02
4.439799980272476354e+00 7.242185268287603606e+01 1.870000000000000000e+02
3.036128524117841287e+00 7.259420825481012685e+01 1.870000000000000000e+02
1.632457067963206221e+00 7.276656382674421764e+01 1.870000000000000000e+02
2.287856118085711543e-01 7.293891939867829421e+01 1.870000000000000000e+02
1.145815726104565258e+01 7.156007482320559632e+01 1.880000000000000000e+02
1.005448580489101573e+01 7.173243039513968711e+01 1.880000000000000000e+02
8.650814348736382442e+00 7.190478596707377790e+01 1.880000000000000000e+02
7.247142892581746487e+00 7.207714153900786869e+01 1.880000000000000000e+02
5.843471436427111421e+00 7.224949711094194527e+01 1.880000000000000000e+02
4.439799980272476354e+00 7.242185268287603606e+01 1.880000000000000000e+02
3.036128524117841287e+00 7.259420825481012685e+01 1.880000000000000000e+02
1.632457067963206221e+00 7.276656382674421764e+01 1.880000000000000000e+02
2.287856118085711543e-01 7.293891939867829421e+01 1.880000000000000000e+02
1.145815726104565258e+01 7.156007482320559632e+01 1.890000000000000000e+02
1.005448580489101573e+01 7.173243039513968711e+01 1.890000000000000000e+02
8.650814348736382442e+00 7.190478596707377790e+01 1.890000000000000000e+02
7.247142892581746487e+00 7.207714153900786869e+01 1.890000000000000000e+02
5.843471436427111421e+00 7.224949711094194527e+01 1.890000000000000000e+02
4.439799980272476354e+00 7.242185268287603606e+01 1.890000000000000000e+02
3.036128524117841287e+00 7.259420825481012685e+01 1.890000000000000000e+02
1.632457067963206221e+00 7.276656382674421764e+01 1.890000000000000000e+02
2.287856118085711543e-01 7.293891939867829421e+01 1.890000000000000000e+02
1.145815726104565258e+01 7.156007482320559632e+01 1.900000000000000000e+02
1.005448580489101573e+01 7.173243039513968711e+01 1.900000000000000000e+02
8.650814348736382442e+00 7.190478596707377790e+01 1.900000000000000000e+02
7.247142892581746487e+00 7.207714153900786869e+01 1.900000000000000000e+02
5.843471436427111421e+00 7.224949711094194527e+01 1.900000000000000000e+02
4.439799980272476354e+00 7.242185268287603606e+01 1.900000000000000000e+02
3.036128524117841287e+00 7.259420825481012685e+01 1.900000000000000000e+02
1.632457067963206221e+00 7.276656382674421764e+01 1.900000000000000000e+02
2.287856118085711543e-01 7.293891939867829421e+01 1.900000000000000000e+02
1.145815726104565258e+01 7.156007482320559632e+01 1.910000000000000000e+02
1.005448580489101573e+01 7.173243039513968711e+01 1.910000000000000000e+02
8.650814348736382442e+00 7.190478596707377790e+01 1.910000000000000000e+02
7.247142892581746487e+00 7.207714153900786869e+01 1.910000000000000000e+02
5.843471436427111421e+00 7.224949711094194527e+01 1.910000000000000000e+02
4.439799980272476354e+00 7.242185268287603606e+01 1.910000000000000000e+02
3.036128524117841287e+00 7.259420825481012685e+01 1.910000000000000000e+02
1.632457067963206221e+00 7.276656382674421764e+01 1.910000000000000000e+02
2.287856118085711543e-01 7.293891939867829421e+01 1.910000000000000000e+02
1.145815726104565258e+01 7.156007482320559632e+01 1.920000000000000000e+02
1.005448580489101573e+01 7.173243039513968711e+01 1.920000000000000000e+02
8.650814348736382442e+00 7.190478596707377790e+01 1.920000000000000000e+02
7.247142892581746487e+00 7.207714153900786869e+01 1.920000000000000000e+02
5.843471436427111421e+00 7.224949711094194527e+01 1.920000000000000000e+02
4.439799980272476354e+00 7.242185268287603606e+01 1.920000000000000000e+02
3.036128524117841287e+00 7.259420825481012685e+01 1.920000000000000000e+02
1.632457067963206221e+00 7.276656382674421764e+01 1.920000000000000000e+02
2.287856118085711543e-01 7.293891939867829421e+01 1.920000000000000000e+02
1.145815726104565258e+01 7.156007482320559632e+01 1.930000000000000000e+02
1.005448580489101573e+01 7.173243039513968711e+01 1.930000000000000000e+02
8.650814348736382442e+00 7.190478596707377790e+01 1.930000000000000000e+02
7.247142892581746487e+00 7.207714153900786869e+01 1.930000000000000000e+02
5.843471436427111421e+00 7.224949711094194527e+01 1.930000000000000000e+02
4.439799980272476354e+00 7.242185268287603606e+01 1.930000000000000000e+02
3.036128524117841287e+00 7.259420825481012685e+01 1.930000000000000000e+02
1.632457067963206221e+00 7.276656382674421764e+01 1.930000000000000000e+02
2.287856118085711543e-01 7.293891939867829421e+01 1.930000000000000000e+02
1.145815726104565258e+01 7.156007482320559632e+01 1.940000000000000000e+02
1.005448580489101573e+01 7.173243039513968711e+01 1.940000000000000000e+02
8.650814348736382442e+00 7.190478596707377790e+01 1.940000000000000000e+02
7.247142892581746487e+00 7.207714153900786869e+01 1.940000000000000000e+02
5.843471436427111421e+00 7.224949711094194527e+01 1.940000000000000000e+02
4.439799980272476354e+00 7.242185268287603606e+01 1.940000000000000000e+02
3.036128524117841287e+00 7.259420825481012685e+01 1.940000000000000000e+02
1.632457067963206221e+00 7.276656382674421764e+01 1.940000000000000000e+02
2.287856118085711543e-01 7.293891939867829421e+01 1.940000000000000000e+02
1.145815726104565258e+01 7.156007482320559632e+01 1.950000000000000000e+02
1.005448580489101573e+01 7.173243039513968711e+01 1.950000000000000000e+02
8.650814348736382442e+00 7.190478596707377790e+01 1.950000000000000000e+02
7.247142892581746487e+00 7.207714153900786869e+01 1.950000000000000000e+02
5.843471436427111421e+00 7.224949711094194527e+01 1.950000000000000000e+02
4.439799980272476354e+00 7.242185268287603606e+01 1.950000000000000000e+02
3.036128524117841287e+00 7.259420825481012685e+01 1.950000000000000000e+02
1.632457067963206221e+00 7.276656382674421764e+01 1.950000000000000000e+02
2.287856118085711543e-01 7.293891939867829421e+01 1.950000000000000000e+02
1.145815726104565258e+01 7.156007482320559632e+01 1.960000000000000000e+02
1.005448580489101573e+01 7.173243039513968711e+01 1.960000000000000000e+02
8.650814348736382442e+00 7.190478596707377790e+01 1.960000000000000000e+02
7.247142892581746487e+00 7.207714153900786869e+01 1.960000000000000000e+02
5.843471436427111421e+00 7.224949711094194527e+01 1.960000000000000000e+02
4.439799980272476354e+00 7.242185268287603606e+01 1.960000000000000000e+02
3.036128524117841287e+00 7.259420825481012685e+01 1.960000000000000000e+02
1.632457067963206221e+00 7.276656382674421764e+01 1.960000000000000000e+02
2.287856118085711543e-01 7.293891939867829421e+01 1.960000000000000000e+02
1.145815726104565258e+01 7.156007482320559632e+01 1.970000000000000000e+02
1.005448580489101573e+01 7.173243039513968711e+01 1.970000000000000000e+02
8.650814348736382442e+00 7.190478596707377790e+01 1.970000000000000000e+02
7.247142892581746487e+00 7.207714153900786869e+01 1.970000000000000000e+02
5.843471436427111421e+00 7.224949711094194527e+01 1.970000000000000000e+02
4.439799980272476354e+00 7.242185268287603606e+01 1.970000000000000000e+02
3.036128524117841287e+00 7.259420825481012685e+01 1.970000000000000000e+02
1.632457067963206221e+00 7.276656382674421764e+01 1.970000000000000000e+02
2.287856118085711543e-01 7.293891939867829421e+01 1.970000000000000000e+02
1.145815726104565258e+01 7.156007482320559632e+01 1.980000000000000000e+02
1.005448580489101573e+01 7.173243039513968711e+01 1.980000000000000000e+02
8.650814348736382442e+00 7.190478596707377790e+01 1.980000000000000000e+02
7.247142892581746487e+00 7.207714153900786869e+01 1.980000000000000000e+02
5.843471436427111421e+00 7.224949711094194527e+01 1.980000000000000000e+02
4.439799980272476354e+00 7.242185268287603606e+01 1.980000000000000000e+02
3.036128524117841287e+00 7.259420825481012685e+01 1.980000000000000000e+02
1.632457067963206221e+00 7.276656382674421764e+01 1.980000000000000000e+02
2.287856118085711543e-01 7.293891939867829421e+01 1.980000000000000000e+02
1.145815726104565258e+01 7.156007482320559632e+01 1.990000000000000000e+02
1.005448580489101573e+01 7.173243039513968711e+01 1.990000000000000000e+02
8.650814348736382442e+00 7.190478596707377790e+01 1.990000000000000000e+02
7.247142892581746487e+00 7.207714153900786869e+01 1.990000000000000000e+02
5.843471436427111421e+00 7.224949711094194527e+01 1.990000000000000000e+02
4.439799980272476354e+00 7.242185268287603606e+01 1.990000000000000000e+02
3.036128524117841287e+00 7.259420825481012685e+01 1.990000000000000000e+02
1.632457067963206221e+00 7.276656382674421764e+01 1.990000000000000000e+02
2.287856118085711543e-01 7.293891939867829421e+01 1.990000000000000000e+02
1.145815726104565258e+01 7.156007482320559632e+01 2.000000000000000000e+02
1.005448580489101573e+01 7.173243039513968711e+01 2.000000000000000000e+02
8.650814348736382442e+00 7.190478596707377790e+01 2.000000000000000000e+02
7.247142892581746487e+00 7.207714153900786869e+01 2.000000000000000000e+02
5.843471436427111421e+00 7.224949711094194527e+01 2.000000000000000000e+02
4.439799980272476354e+00 7.242185268287603606e+01 2.000000000000000000e+02
3.036128524117841287e+00 7.259420825481012685e+01 2.000000000000000000e+02
1.632457067963206221e+00 7.276656382674421764e+01 2.000000000000000000e+02
2.287856118085711543e-01 7.293891939867829421e+01 2.000000000000000000e+02
1.145815726104565258e+01 7.156007482320559632e+01 2.010000000000000000e+02
1.005448580489101573e+01 7.173243039513968711e+01 2.010000000000000000e+02
8.650814348736382442e+00 7.190478596707377790e+01 2.010000000000000000e+02
7.247142892581746487e+00 7.207714153900786869e+01 2.010000000000000000e+02
5.843471436427111421e+00 7.224949711094194527e+01 2.010000000000000000e+02
4.439799980272476354e+00 7.242185268287603606e+01 2.010000000000000000e+02
3.036128524117841287e+00 7.259420825481012685e+01 2.010000000000000000e+02
1.632457067963206221e+00 7.276656382674421764e+01 2.010000000000000000e+02
2.287856118085711543e-01 7.293891939867829421e+01 2.010000000000000000e+02
1.145815726104565258e+01 7.156007482320559632e+01 2.020000000000000000e+02
1.005448580489101573e+01 7.173243039513968711e+01 2.020000000000000000e+02
8.650814348736382442e+00 7.190478596707377790e+01 2.020000000000000000e+02
7.247142892581746487e+00 7.207714153900786869e+01 2.020000000000000000e+02
5.843471436427111421e+00 7.224949711094194527e+01 2.020000000000000000e+02
4.439799980272476354e+00 7.242185268287603606e+01 2.020000000000000000e+02
3.036128524117841287e+00 7.259420825481012685e+01 2.020000000000000000e+02
1.632457067963206221e+00 7.276656382674421764e+01 2.020000000000000000e+02
2.287856118085711543e-01 7.293891939867829421e+01 2.020000000000000000e+02
1.145815726104565258e+01 7.156007482320559632e+01 2.030000000000000000e+02
1.005448580489101573e+01 7.173243039513968711e+01 2.030000000000000000e+02
8.650814348736382442e+00 7.190478596707377790e+01 2.030000000000000000e+02
7.247142892581746487e+00 7.207714153900786869e+01 2.030000000000000000e+02
5.843471436427111421e+00 7.224949711094194527e+01 2.030000000000000000e+02
4.439799980272476354e+00 7.242185268287603606e+01 2.030000000000000000e+02
3.036128524117841287e+00 7.259420825481012685e+01 2.030000000000000000e+02
1.632457067963206221e+00 7.276656382674421764e+01 2.030000000000000000e+02
2.287856118085711543e-01 7.293891939867829421e+01 2.030000000000000000e+02
1.145815726104565258e+01 7.156007482320559632e+01 2.040000000000000000e+02
1.005448580489101573e+01 7.173243039513968711e+01 2.040000000000000000e+02
8.650814348736382442e+00 7.190478596707377790e+01 2.040000000000000000e+02
7.247142892581746487e+00 7.207714153900786869e+01 2.040000000000000000e+02
5.843471436427111421e+00 7.224949711094194527e+01 2.040000000000000000e+02
4.439799980272476354e+00 7.242185268287603606e+01 2.040000000000000000e+02
3.036128524117841287e+00 7.259420825481012685e+01 2.040000000000000000e+02
1.632457067963206221e+00 7.276656382674421764e+01 2.040000000000000000e+02
2.287856118085711543e-01 7.293891939867829421e+01 2.040000000000000000e+02
1.145815726104565258e+01 7.156007482320559632e+01 2.050000000000000000e+02
1.005448580489101573e+01 7.173243039513968711e+01 2.050000000000000000e+02
8.650814348736382442e+00 7.190478596707377790e+01 2.050000000000000000e+02
7.247142892581746487e+00 7.207714153900786869e+01 2.050000000000000000e+02
5.843471436427111421e+00 7.224949711094194527e+01 2.050000000000000000e+02
4.439799980272476354e+00 7.242185268287603606e+01 2.050000000000000000e+02
3.036128524117841287e+00 7.259420825481012685e+01 2.050000000000000000e+02
1.632457067963206221e+00 7.276656382674421764e+01 2.050000000000000000e+02
2.287856118085711543e-01 7.293891939867829421e+01 2.050000000000000000e+02
1.145815726104565258e+01 7.156007482320559632e+01 2.060000000000000000e+02
1.005448580489101573e+01 7.173243039513968711e+01 2.060000000000000000e+02
8.650814348736382442e+00 7.190478596707377790e+01 2.060000000000000000e+02
7.247142892581746487e+00 7.207714153900786869e+01 2.060000000000000000e+02
5.843471436427111421e+00 7.224949711094194527e+01 2.060000000000000000e+02
4.439799980272476354e+00 7.242185268287603606e+01 2.060000000000000000e+02
3.036128524117841287e+00 7.259420825481012685e+01 2.060000000000000000e+02
1.632457067963206221e+00 7.276656382674421764e+01 2.060000000000000000e+02
2.287856118085711543e-01 7.293891939867829421e+01 2.060000000000000000e+02
1.145815726104565258e+01 7.156007482320559632e+01 2.070000000000000000e+02
1.005448580489101573e+01 7.173243039513968711e+01 2.070000000000000000e+02
8.650814348736382442e+00 7.190478596707377790e+01 2.070000000000000000e+02
7.247142892581746487e+00 7.207714153900786869e+01 2.070000000000000000e+02
5.843471436427111421e+00 7.224949711094194527e+01 2.070000000000000000e+02
4.439799980272476354e+00 7.242185268287603606e+01 2.070000000000000000e+02
3.036128524117841287e+00 7.259420825481012685e+01 2.070000000000000000e+02
1.632457067963206221e+00 7.276656382674421764e+01 2.070000000000000000e+02
2.287856118085711543e-01 7.293891939867829421e+01 2.070000000000000000e+02
1.145815726104565258e+01 7.156007482320559632e+01 2.080000000000000000e+02
1.005448580489101573e+01 7.173243039513968711e+01 2.080000000000000000e+02
8.650814348736382442e+00 7.190478596707377790e+01 2.080000000000000000e+02
7.247142892581746487e+00 7.207714153900786869e+01 2.080000000000000000e+02
5.843471436427111421e+00 7.224949711094194527e+01 2.080000000000000000e+02
4.439799980272476354e+00 7.242185268287603606e+01 2.080000000000000000e+02
3.036128524117841287e+00 7.259420825481012685e+01 2.080000000000000000e+02
1.632457067963206221e+00 7.276656382674421764e+01 2.080000000000000000e+02
2.287856118085711543e-01 7.293891939867829421e+01 2.080000000000000000e+02
1.145815726104565258e+01 7.156007482320559632e+01 2.090000000000000000e+02
1.005448580489101573e+01 7.173243039513968711e+01 2.090000000000000000e+02
8.650814348736382442e+00 7.190478596707377790e+01 2.090000000000000000e+02
7.247142892581746487e+00 7.207714153900786869e+01 2.090000000000000000e+02
5.843471436427111421e+00 7.224949711094194527e+01 2.090000000000000000e+02
4.439799980272476354e+00 7.242185268287603606e+01 2.090000000000000000e+02
3.036128524117841287e+00 7.259420825481012685e+01 2.090000000000000000e+02
1.632457067963206221e+00 7.276656382674421764e+01 2.090000000000000000e+02
2.287856118085711543e-01 7.293891939867829421e+01 2.090000000000000000e+02
1.145815726104565258e+01 7.156007482320559632e+01 2.100000000000000000e+02
1.005448580489101573e+01 7.173243039513968711e+01 2.100000000000000000e+02
8.650814348736382442e+00 7.190478596707377790e+01 2.100000000000000000e+02
7.247142892581746487e+00 7.207714153900786869e+01 2.100000000000000000e+02
5.843471436427111421e+00 7.224949711094194527e+01 2.100000000000000000e+02
4.439799980272476354e+00 7.242185268287603606e+01 2.100000000000000000e+02
3.036128524117841287e+00 7.259420825481012685e+01 2.100000000000000000e+02
1.632457067963206221e+00 7.276656382674421764e+01 2.100000000000000000e+02
2.287856118085711543e-01 7.293891939867829421e+01 2.100000000000000000e+02
1.145815726104565258e+01 7.156007482320559632e+01 2.110000000000000000e+02
1.005448580489101573e+01 7.173243039513968711e+01 2.110000000000000000e+02
8.650814348736382442e+00 7.190478596707377790e+01 2.110000000000000000e+02
7.247142892581746487e+00 7.207714153900786869e+01 2.110000000000000000e+02
5.843471436427111421e+00 7.224949711094194527e+01 2.110000000000000000e+02
4.439799980272476354e+00 7.242185268287603606e+01 2.110000000000000000e+02
3.036128524117841287e+00 7.259420825481012685e+01 2.110000000000000000e+02
1.632457067963206221e+00 7.276656382674421764e+01 2.110000000000000000e+02
2.287856118085711543e-01 7.293891939867829421e+01 2.110000000000000000e+02
1.145815726104565258e+01 7.156007482320559632e+01 2.120000000000000000e+02
1.005448580489101573e+01 7.173243039513968711e+01 2.120000000000000000e+02
8.650814348736382442e+00 7.190478596707377790e+01 2.120000000000000000e+02
7.247142892581746487e+00 7.207714153900786869e+01 2.120000000000000000e+02
5.843471436427111421e+00 7.224949711094194527e+01 2.120000000000000000e+02
4.439799980272476354e+00 7.242185268287603606e+01 2.120000000000000000e+02
3.036128524117841287e+00 7.259420825481012685e+01 2.120000000000000000e+02
1.632457067963206221e+00 7.276656382674421764e+01 2.120000000000000000e+02
2.287856118085711543e-01 7.293891939867829421e+01 2.120000000000000000e+02
1.145815726104565258e+01 7.156007482320559632e+01 2.130000000000000000e+02
1.005448580489101573e+01 7.173243039513968711e+01 2.130000000000000000e+02
8.650814348736382442e+00 7.190478596707377790e+01 2.130000000000000000e+02
7.247142892581746487e+00 7.207714153900786869e+01 2.130000000000000000e+02
5.843471436427111421e+00 7.224949711094194527e+01 2.130000000000000000e+02
4.439799980272476354e+00 7.242185268287603606e+01 2.130000000000000000e+02
3.036128524117841287e+00 7.259420825481012685e+01 2.130000000000000000e+02
1.632457067963206221e+00 7.276656382674421764e+01 2.130000000000000000e+02
2.287856118085711543e-01 7.293891939867829421e+01 2.130000000000000000e+02
-1.174885844346064800e+00 7.311127497061238500e+01 2.130000000000000000e+02
1.145815726104565258e+01 7.156007482320559632e+01 2.140000000000000000e+02
1.005448580489101573e+01 7.173243039513968711e+01 2.140000000000000000e+02
8.650814348736382442e+00 7.190478596707377790e+01 2.140000000000000000e+02
7.247142892581746487e+00 7.207714153900786869e+01 2.140000000000000000e+02
5.843471436427111421e+00 7.224949711094194527e+01 2.140000000000000000e+02
4.439799980272476354e+00 7.242185268287603606e+01 2.140000000000000000e+02
3.036128524117841287e+00 7.259420825481012685e+01 2.140000000000000000e+02
1.632457067963206221e+00 7.276656382674421764e+01 2.140000000000000000e+02
2.287856118085711543e-01 7.293891939867829421e+01 2.140000000000000000e+02
-1.174885844346064800e+00 7.311127497061238500e+01 2.140000000000000000e+02
1.145815726104565258e+01 7.156007482320559632e+01 2.150000000000000000e+02
1.005448580489101573e+01 7.173243039513968711e+01 2.150000000000000000e+02
8.650814348736382442e+00 7.190478596707377790e+01 2.150000000000000000e+02
7.247142892581746487e+00 7.207714153900786869e+01 2.150000000000000000e+02
5.843471436427111421e+00 7.224949711094194527e+01 2.150000000000000000e+02
4.439799980272476354e+00 7.242185268287603606e+01 2.150000000000000000e+02
3.036128524117841287e+00 7.259420825481012685e+01 2.150000000000000000e+02
1.632457067963206221e+00 7.276656382674421764e+01 2.150000000000000000e+02
2.287856118085711543e-01 7.293891939867829421e+01 2.150000000000000000e+02
-1.174885844346064800e+00 7.311127497061238500e+01 2.150000000000000000e+02
1.084249931893537777e+01 7.234808833724996191e+01 2.160000000000000000e+02
9.438827862780742706e+00 7.252044390918405270e+01 2.160000000000000000e+02
8.035156406626107639e+00 7.269279948111812928e+01 2.160000000000000000e+02
6.631484950471472573e+00 7.286515505305222007e+01 2.160000000000000000e+02
5.227813494316837506e+00 7.303751062498631086e+01 2.160000000000000000e+02
3.824142038162202439e+00 7.320986619692040165e+01 2.160000000000000000e+02
2.420470582007567373e+00 7.338222176885449244e+01 2.160000000000000000e+02
1.016799125852932306e+00 7.355457734078856902e+01 2.160000000000000000e+02
-3.868723303017027604e-01 7.372693291272265981e+01 2.160000000000000000e+02
1.084249931893537777e+01 7.234808833724996191e+01 2.170000000000000000e+02
9.438827862780742706e+00 7.252044390918405270e+01 2.170000000000000000e+02
8.035156406626107639e+00 7.269279948111812928e+01 2.170000000000000000e+02
6.631484950471472573e+00 7.286515505305222007e+01 2.170000000000000000e+02
5.227813494316837506e+00 7.303751062498631086e+01 2.170000000000000000e+02
3.824142038162202439e+00 7.320986619692040165e+01 2.170000000000000000e+02
2.420470582007567373e+00 7.338222176885449244e+01 2.170000000000000000e+02
1.016799125852932306e+00 7.355457734078856902e+01 2.170000000000000000e+02
-3.868723303017027604e-01 7.372693291272265981e+01 2.170000000000000000e+02
1.145815726104565258e+01 7.156007482320559632e+01 2.180000000000000000e+02
1.005448580489101573e+01 7.173243039513968711e+01 2.180000000000000000e+02
8.650814348736382442e+00 7.190478596707377790e+01 2.180000000000000000e+02
7.247142892581746487e+00 7.207714153900786869e+01 2.180000000000000000e+02
5.843471436427111421e+00 7.224949711094194527e+01 2.180000000000000000e+02
4.439799980272476354e+00 7.242185268287603606e+01 2.180000000000000000e+02
3.036128524117841287e+00 7.259420825481012685e+01 2.180000000000000000e+02
1.632457067963206221e+00 7.276656382674421764e+01 2.180000000000000000e+02
2.287856118085711543e-01 7.293891939867829421e+01 2.180000000000000000e+02
-1.174885844346064800e+00 7.311127497061238500e+01 2.180000000000000000e+02
1.145815726104565258e+01 7.156007482320559632e+01 2.190000000000000000e+02
1.005448580489101573e+01 7.173243039513968711e+01 2.190000000000000000e+02
8.650814348736382442e+00 7.190478596707377790e+01 2.190000000000000000e+02
7.247142892581746487e+00 7.207714153900786869e+01 2.190000000000000000e+02
5.843471436427111421e+00 7.224949711094194527e+01 2.190000000000000000e+02
4.439799980272476354e+00 7.242185268287603606e+01 2.190000000000000000e+02
3.036128524117841287e+00 7.259420825481012685e+01 2.190000000000000000e+02
1.632457067963206221e+00 7.276656382674421764e+01 2.190000000000000000e+02
2.287856118085711543e-01 7.293891939867829421e+01 2.190000000000000000e+02
-1.174885844346064800e+00 7.311127497061238500e+01 2.190000000000000000e+02
1.084249931893537777e+01 7.234808833724996191e+01 2.200000000000000000e+02
9.438827862780742706e+00 7.252044390918405270e+01 2.200000000000000000e+02
8.035156406626107639e+00 7.269279948111812928e+01 2.200000000000000000e+02
6.631484950471472573e+00 7.286515505305222007e+01 2.200000000000000000e+02
5.227813494316837506e+00 7.303751062498631086e+01 2.200000000000000000e+02
3.824142038162202439e+00 7.320986619692040165e+01 2.200000000000000000e+02
2.420470582007567373e+00 7.338222176885449244e+01 2.200000000000000000e+02
1.016799125852932306e+00 7.355457734078856902e+01 2.200000000000000000e+02
-3.868723303017027604e-01 7.372693291272265981e+01 2.200000000000000000e+02
1.084249931893537777e+01 7.234808833724996191e+01 2.210000000000000000e+02
9.438827862780742706e+00 7.252044390918405270e+01 2.210000000000000000e+02
8.035156406626107639e+00 7.269279948111812928e+01 2.210000000000000000e+02
6.631484950471472573e+00 7.286515505305222007e+01 2.210000000000000000e+02
5.227813494316837506e+00 7.303751062498631086e+01 2.210000000000000000e+02
3.824142038162202439e+00 7.320986619692040165e+01 2.210000000000000000e+02
2.420470582007567373e+00 7.338222176885449244e+01 2.210000000000000000e+02
1.016799125852932306e+00 7.355457734078856902e+01 2.210000000000000000e+02
-3.868723303017027604e-01 7.372693291272265981e+01 2.210000000000000000e+02
1.084249931893537777e+01 7.234808833724996191e+01 2.220000000000000000e+02
9.438827862780742706e+00 7.252044390918405270e+01 2.220000000000000000e+02
8.035156406626107639e+00 7.269279948111812928e+01 2.220000000000000000e+02
6.631484950471472573e+00 7.286515505305222007e+01 2.220000000000000000e+02
5.227813494316837506e+00 7.303751062498631086e+01 2.220000000000000000e+02
3.824142038162202439e+00 7.320986619692040165e+01 2.220000000000000000e+02
2.420470582007567373e+00 7.338222176885449244e+01 2.220000000000000000e+02
1.016799125852932306e+00 7.355457734078856902e+01 2.220000000000000000e+02
-3.868723303017027604e-01 7.372693291272265981e+01 2.220000000000000000e+02
1.084249931893537777e+01 7.234808833724996191e+01 2.230000000000000000e+02
9.438827862780742706e+00 7.252044390918405270e+01 2.230000000000000000e+02
8.035156406626107639e+00 7.269279948111812928e+01 2.230000000000000000e+02
6.631484950471472573e+00 7.286515505305222007e+01 2.230000000000000000e+02
5.227813494316837506e+00 7.303751062498631086e+01 2.230000000000000000e+02
3.824142038162202439e+00 7.320986619692040165e+01 2.230000000000000000e+02
2.420470582007567373e+00 7.338222176885449244e+01 2.230000000000000000e+02
1.016799125852932306e+00 7.355457734078856902e+01 2.230000000000000000e+02
-3.868723303017027604e-01 7.372693291272265981e+01 2.230000000000000000e+02
1.699907874003811514e+01 6.446795319680634861e+01 2.240000000000000000e+02
1.559540728388348008e+01 6.464030876874043940e+01 2.240000000000000000e+02
1.419173582772884679e+01 6.481266434067453019e+01 2.240000000000000000e+02
1.278806437157421172e+01 6.498501991260860677e+01 2.240000000000000000e+02
1.138439291541957488e+01 6.515737548454269756e+01 2.240000000000000000e+02
2.962364178491764921e+00 6.619150891614722809e+01 2.240000000000000000e+02
1.558692722337130299e+00 6.636386448808130467e+01 2.240000000000000000e+02
1.550212661824952320e-01 6.653622006001539546e+01 2.240000000000000000e+02
-1.248650189972139835e+00 6.670857563194948625e+01 2.240000000000000000e+02
-2.652321646126774901e+00 6.688093120388357704e+01 2.240000000000000000e+02
-4.055993102281410856e+00 6.705328677581766783e+01 2.240000000000000000e+02
-5.459664558436044146e+00 6.722564234775174441e+01 2.240000000000000000e+02
-6.863336014590680989e+00 6.739799791968583520e+01 2.240000000000000000e+02
-8.267007470745314279e+00 6.757035349161992599e+01 2.240000000000000000e+02
1.823039462425866475e+01 6.289192616871762453e+01 2.250000000000000000e+02
1.682672316810402791e+01 6.306428174065170822e+01 2.250000000000000000e+02
1.542305171194939284e+01 6.323663731258579901e+01 2.250000000000000000e+02
1.401938025579475955e+01 6.340899288451988980e+01 2.250000000000000000e+02
1.261570879964012448e+01 6.358134845645397348e+01 2.250000000000000000e+02
1.121203734348548764e+01 6.375370402838806427e+01 2.250000000000000000e+02
9.808365887330852573e+00 6.392605960032214796e+01 2.250000000000000000e+02
8.404694431176217506e+00 6.409841517225623875e+01 2.250000000000000000e+02
1.386337150403042617e+00 6.496019303192667849e+01 2.250000000000000000e+02
-1.733430575159200515e-02 6.513254860386076928e+01 2.250000000000000000e+02
-1.421005761906227072e+00 6.530490417579484586e+01 2.250000000000000000e+02
-2.824677218060863026e+00 6.547725974772893665e+01 2.250000000000000000e+02
-4.228348674215496317e+00 6.564961531966302744e+01 2.250000000000000000e+02
-5.632020130370133160e+00 6.582197089159711823e+01 2.250000000000000000e+02
-7.035691586524766450e+00 6.599432646353119480e+01 2.250000000000000000e+02
-8.439363042679403293e+00 6.616668203546528559e+01 2.250000000000000000e+02
1.823039462425866475e+01 6.289192616871762453e+01 2.260000000000000000e+02
1.682672316810402791e+01 6.306428174065170822e+01 2.260000000000000000e+02
1.542305171194939284e+01 6.323663731258579901e+01 2.260000000000000000e+02
1.401938025579475955e+01 6.340899288451988980e+01 2.260000000000000000e+02
1.261570879964012448e+01 6.358134845645397348e+01 2.260000000000000000e+02
1.121203734348548764e+01 6.375370402838806427e+01 2.260000000000000000e+02
9.808365887330852573e+00 6.392605960032214796e+01 2.260000000000000000e+02
8.404694431176217506e+00 6.409841517225623875e+01 2.260000000000000000e+02
7.001022975021582440e+00 6.427077074419032954e+01 2.260000000000000000e+02
-1.733430575159200515e-02 6.513254860386076928e+01 2.260000000000000000e+02
-1.421005761906227072e+00 6.530490417579484586e+01 2.260000000000000000e+02
-2.824677218060863026e+00 6.547725974772893665e+01 2.260000000000000000e+02
-4.228348674215496317e+00 6.564961531966302744e+01 2.260000000000000000e+02
-5.632020130370133160e+00 6.582197089159711823e+01 2.260000000000000000e+02
-7.035691586524766450e+00 6.599432646353119480e+01 2.260000000000000000e+02
1.823039462425866475e+01 6.289192616871762453e+01 2.270000000000000000e+02
1.682672316810402791e+01 6.306428174065170822e+01 2.270000000000000000e+02
1.542305171194939284e+01 6.323663731258579901e+01 2.270000000000000000e+02
1.401938025579475955e+01 6.340899288451988980e+01 2.270000000000000000e+02
1.261570879964012448e+01 6.358134845645397348e+01 2.270000000000000000e+02
1.121203734348548764e+01 6.375370402838806427e+01 2.270000000000000000e+02
9.808365887330852573e+00 6.392605960032214796e+01 2.270000000000000000e+02
8.404694431176217506e+00 6.409841517225623875e+01 2.270000000000000000e+02
7.001022975021582440e+00 6.427077074419032954e+01 2.270000000000000000e+02
-1.733430575159200515e-02 6.513254860386076928e+01 2.270000000000000000e+02
-1.421005761906227072e+00 6.530490417579484586e+01 2.270000000000000000e+02
-2.824677218060863026e+00 6.547725974772893665e+01 2.270000000000000000e+02
-4.228348674215496317e+00 6.564961531966302744e+01 2.270000000000000000e+02
-5.632020130370133160e+00 6.582197089159711823e+01 2.270000000000000000e+02
1.823039462425866475e+01 6.289192616871762453e+01 2.280000000000000000e+02
1.682672316810402791e+01 6.306428174065170822e+01 2.280000000000000000e+02
1.542305171194939284e+01 6.323663731258579901e+01 2.280000000000000000e+02
1.401938025579475955e+01 6.340899288451988980e+01 2.280000000000000000e+02
1.261570879964012448e+01 6.358134845645397348e+01 2.280000000000000000e+02
1.121203734348548764e+01 6.375370402838806427e+01 2.280000000000000000e+02
9.808365887330852573e+00 6.392605960032214796e+01 2.280000000000000000e+02
8.404694431176217506e+00 6.409841517225623875e+01 2.280000000000000000e+02
7.001022975021582440e+00 6.427077074419032954e+01 2.280000000000000000e+02
1.823039462425866475e+01 6.289192616871762453e+01 2.290000000000000000e+02
1.682672316810402791e+01 6.306428174065170822e+01 2.290000000000000000e+02
1.542305171194939284e+01 6.323663731258579901e+01 2.290000000000000000e+02
1.401938025579475955e+01 6.340899288451988980e+01 2.290000000000000000e+02
1.261570879964012448e+01 6.358134845645397348e+01 2.290000000000000000e+02
1.121203734348548764e+01 6.375370402838806427e+01 2.290000000000000000e+02
9.808365887330852573e+00 6.392605960032214796e+01 2.290000000000000000e+02
8.404694431176217506e+00 6.409841517225623875e+01 2.290000000000000000e+02
