-1.650740778411686094e+00 1.694344394643151119e+00 3.220000000000000000e+02
-3.459271202984131044e-01 1.148944250161084479e+00 3.220000000000000000e+02
9.588865378148597740e-01 6.035441056790180614e-01 3.220000000000000000e+02
2.263700195928132430e+00 5.814396119695153242e-02 3.220000000000000000e+02
3.568513854041405864e+00 -4.872561832851152186e-01 3.220000000000000000e+02
4.873327512154678409e+00 -1.032656327767181859e+00 3.220000000000000000e+02
-6.490288654049173545e+00 2.950838071273747865e+00 3.230000000000000000e+02
-5.185474995935901887e+00 2.405437926791681669e+00 3.230000000000000000e+02
-3.880661337822628454e+00 1.860037782309614585e+00 3.230000000000000000e+02
-2.575847679709355909e+00 1.314637637827547945e+00 3.230000000000000000e+02
-1.271034021596082919e+00 7.692374933454815267e-01 3.230000000000000000e+02
3.377963651718995930e-02 2.238373488634149144e-01 3.230000000000000000e+02
1.338593294630462616e+00 -3.215627956186516423e-01 3.230000000000000000e+02
2.643406952743735605e+00 -8.669629401007181713e-01 3.230000000000000000e+02
3.948220610857008595e+00 -1.412363084582785033e+00 3.230000000000000000e+02
5.253034268970282028e+00 -1.957763229064851451e+00 3.230000000000000000e+02
-6.490288654049173545e+00 2.950838071273747865e+00 3.240000000000000000e+02
-5.185474995935901887e+00 2.405437926791681669e+00 3.240000000000000000e+02
-3.880661337822628454e+00 1.860037782309614585e+00 3.240000000000000000e+02
-2.575847679709355909e+00 1.314637637827547945e+00 3.240000000000000000e+02
-1.271034021596082919e+00 7.692374933454815267e-01 3.240000000000000000e+02
3.377963651718995930e-02 2.238373488634149144e-01 3.240000000000000000e+02
1.338593294630462616e+00 -3.215627956186516423e-01 3.240000000000000000e+02
2.643406952743735605e+00 -8.669629401007181713e-01 3.240000000000000000e+02
3.948220610857008595e+00 -1.412363084582785033e+00 3.240000000000000000e+02
5.253034268970282028e+00 -1.957763229064851451e+00 3.240000000000000000e+02
-6.490288654049173545e+00 2.950838071273747865e+00 3.250000000000000000e+02
-5.185474995935901887e+00 2.405437926791681669e+00 3.250000000000000000e+02
-3.880661337822628454e+00 1.860037782309614585e+00 3.250000000000000000e+02
-2.575847679709355909e+00 1.314637637827547945e+00 3.250000000000000000e+02
-1.271034021596082919e+00 7.692374933454815267e-01 3.250000000000000000e+02
3.377963651718995930e-02 2.238373488634149144e-01 3.250000000000000000e+02
1.338593294630462616e+00 -3.215627956186516423e-01 3.250000000000000000e+02
2.643406952743735605e+00 -8.669629401007181713e-01 3.250000000000000000e+02
3.948220610857008595e+00 -1.412363084582785033e+00 3.250000000000000000e+02
5.253034268970282028e+00 -1.957763229064851451e+00 3.250000000000000000e+02
-6.869995410864777163e+00 3.875944972571417679e+00 3.260000000000000000e+02
-5.565181752751504618e+00 3.330544828089351483e+00 3.260000000000000000e+02
-4.260368094638231184e+00 2.785144683607284399e+00 3.260000000000000000e+02
-2.955554436524958639e+00 2.239744539125217759e+00 3.260000000000000000e+02
-1.650740778411686094e+00 1.694344394643151119e+00 3.260000000000000000e+02
-3.459271202984131044e-01 1.148944250161084479e+00 3.260000000000000000e+02
9.588865378148597740e-01 6.035441056790180614e-01 3.260000000000000000e+02
2.263700195928132430e+00 5.814396119695153242e-02 3.260000000000000000e+02
3.568513854041405864e+00 -4.872561832851152186e-01 3.260000000000000000e+02
4.873327512154678409e+00 -1.032656327767181859e+00 3.260000000000000000e+02
6.178141170267950955e+00 -1.578056472249248277e+00 3.260000000000000000e+02
-6.869995410864777163e+00 3.875944972571417679e+00 3.270000000000000000e+02
-5.565181752751504618e+00 3.330544828089351483e+00 3.270000000000000000e+02
-4.260368094638231184e+00 2.785144683607284399e+00 3.270000000000000000e+02
-2.955554436524958639e+00 2.239744539125217759e+00 3.270000000000000000e+02
-1.650740778411686094e+00 1.694344394643151119e+00 3.270000000000000000e+02
-3.459271202984131044e-01 1.148944250161084479e+00 3.270000000000000000e+02
9.588865378148597740e-01 6.035441056790180614e-01 3.270000000000000000e+02
2.263700195928132430e+00 5.814396119695153242e-02 3.270000000000000000e+02
3.568513854041405864e+00 -4.872561832851152186e-01 3.270000000000000000e+02
4.873327512154678409e+00 -1.032656327767181859e+00 3.270000000000000000e+02
6.178141170267950955e+00 -1.578056472249248277e+00 3.270000000000000000e+02
-6.490288654049173545e+00 2.950838071273747865e+00 3.280000000000000000e+02
-5.185474995935901887e+00 2.405437926791681669e+00 3.280000000000000000e+02
-3.880661337822628454e+00 1.860037782309614585e+00 3.280000000000000000e+02
-2.575847679709355909e+00 1.314637637827547945e+00 3.280000000000000000e+02
-1.271034021596082919e+00 7.692374933454815267e-01 3.280000000000000000e+02
3.377963651718995930e-02 2.238373488634149144e-01 3.280000000000000000e+02
1.338593294630462616e+00 -3.215627956186516423e-01 3.280000000000000000e+02
2.643406952743735605e+00 -8.669629401007181713e-01 3.280000000000000000e+02
3.948220610857008595e+00 -1.412363084582785033e+00 3.280000000000000000e+02
5.253034268970282028e+00 -1.957763229064851451e+00 3.280000000000000000e+02
-6.490288654049173545e+00 2.950838071273747865e+00 3.290000000000000000e+02
-5.185474995935901887e+00 2.405437926791681669e+00 3.290000000000000000e+02
-3.880661337822628454e+00 1.860037782309614585e+00 3.290000000000000000e+02
-2.575847679709355909e+00 1.314637637827547945e+00 3.290000000000000000e+02
-1.271034021596082919e+00 7.692374933454815267e-01 3.290000000000000000e+02
3.377963651718995930e-02 2.238373488634149144e-01 3.290000000000000000e+02
1.338593294630462616e+00 -3.215627956186516423e-01 3.290000000000000000e+02
2.643406952743735605e+00 -8.669629401007181713e-01 3.290000000000000000e+02
3.948220610857008595e+00 -1.412363084582785033e+00 3.290000000000000000e+02
5.253034268970282028e+00 -1.957763229064851451e+00 3.290000000000000000e+02
-6.490288654049173545e+00 2.950838071273747865e+00 3.300000000000000000e+02
-5.185474995935901887e+00 2.405437926791681669e+00 3.300000000000000000e+02
-3.880661337822628454e+00 1.860037782309614585e+00 3.300000000000000000e+02
-2.575847679709355909e+00 1.314637637827547945e+00 3.300000000000000000e+02
-1.271034021596082919e+00 7.692374933454815267e-01 3.300000000000000000e+02
3.377963651718995930e-02 2.238373488634149144e-01 3.300000000000000000e+02
1.338593294630462616e+00 -3.215627956186516423e-01 3.300000000000000000e+02
2.643406952743735605e+00 -8.669629401007181713e-01 3.300000000000000000e+02
3.948220610857008595e+00 -1.412363084582785033e+00 3.300000000000000000e+02
5.253034268970282028e+00 -1.957763229064851451e+00 3.300000000000000000e+02
-6.490288654049173545e+00 2.950838071273747865e+00 3.310000000000000000e+02
-5.185474995935901887e+00 2.405437926791681669e+00 3.310000000000000000e+02
-3.880661337822628454e+00 1.860037782309614585e+00 3.310000000000000000e+02
-2.575847679709355909e+00 1.314637637827547945e+00 3.310000000000000000e+02
-1.271034021596082919e+00 7.692374933454815267e-01 3.310000000000000000e+02
3.377963651718995930e-02 2.238373488634149144e-01 3.310000000000000000e+02
1.338593294630462616e+00 -3.215627956186516423e-01 3.310000000000000000e+02
2.643406952743735605e+00 -8.669629401007181713e-01 3.310000000000000000e+02
3.948220610857008595e+00 -1.412363084582785033e+00 3.310000000000000000e+02
5.253034268970282028e+00 -1.957763229064851451e+00 3.310000000000000000e+02
-6.490288654049173545e+00 2.950838071273747865e+00 3.320000000000000000e+02
-5.185474995935901887e+00 2.405437926791681669e+00 3.320000000000000000e+02
-3.880661337822628454e+00 1.860037782309614585e+00 3.320000000000000000e+02
-2.575847679709355909e+00 1.314637637827547945e+00 3.320000000000000000e+02
-1.271034021596082919e+00 7.692374933454815267e-01 3.320000000000000000e+02
3.377963651718995930e-02 2.238373488634149144e-01 3.320000000000000000e+02
1.338593294630462616e+00 -3.215627956186516423e-01 3.320000000000000000e+02
2.643406952743735605e+00 -8.669629401007181713e-01 3.320000000000000000e+02
3.948220610857008595e+00 -1.412363084582785033e+00 3.320000000000000000e+02
5.253034268970282028e+00 -1.957763229064851451e+00 3.320000000000000000e+02
-6.490288654049173545e+00 2.950838071273747865e+00 3.330000000000000000e+02
-5.185474995935901887e+00 2.405437926791681669e+00 3.330000000000000000e+02
-3.880661337822628454e+00 1.860037782309614585e+00 3.330000000000000000e+02
-2.575847679709355909e+00 1.314637637827547945e+00 3.330000000000000000e+02
-1.271034021596082919e+00 7.692374933454815267e-01 3.330000000000000000e+02
3.377963651718995930e-02 2.238373488634149144e-01 3.330000000000000000e+02
1.338593294630462616e+00 -3.215627956186516423e-01 3.330000000000000000e+02
2.643406952743735605e+00 -8.669629401007181713e-01 3.330000000000000000e+02
3.948220610857008595e+00 -1.412363084582785033e+00 3.330000000000000000e+02
5.253034268970282028e+00 -1.957763229064851451e+00 3.330000000000000000e+02
-6.490288654049173545e+00 2.950838071273747865e+00 3.340000000000000000e+02
-5.185474995935901887e+00 2.405437926791681669e+00 3.340000000000000000e+02
-3.880661337822628454e+00 1.860037782309614585e+00 3.340000000000000000e+02
-2.575847679709355909e+00 1.314637637827547945e+00 3.340000000000000000e+02
-1.271034021596082919e+00 7.692374933454815267e-01 3.340000000000000000e+02
3.377963651718995930e-02 2.238373488634149144e-01 3.340000000000000000e+02
1.338593294630462616e+00 -3.215627956186516423e-01 3.340000000000000000e+02
2.643406952743735605e+00 -8.669629401007181713e-01 3.340000000000000000e+02
3.948220610857008595e+00 -1.412363084582785033e+00 3.340000000000000000e+02
5.253034268970282028e+00 -1.957763229064851451e+00 3.340000000000000000e+02
-6.490288654049173545e+00 2.950838071273747865e+00 3.350000000000000000e+02
-5.185474995935901887e+00 2.405437926791681669e+00 3.350000000000000000e+02
-3.880661337822628454e+00 1.860037782309614585e+00 3.350000000000000000e+02
-2.575847679709355909e+00 1.314637637827547945e+00 3.350000000000000000e+02
-1.271034021596082919e+00 7.692374933454815267e-01 3.350000000000000000e+02
3.377963651718995930e-02 2.238373488634149144e-01 3.350000000000000000e+02
1.338593294630462616e+00 -3.215627956186516423e-01 3.350000000000000000e+02
2.643406952743735605e+00 -8.669629401007181713e-01 3.350000000000000000e+02
3.948220610857008595e+00 -1.412363084582785033e+00 3.350000000000000000e+02
5.253034268970282028e+00 -1.957763229064851451e+00 3.350000000000000000e+02
-6.490288654049173545e+00 2.950838071273747865e+00 3.360000000000000000e+02
-5.185474995935901887e+00 2.405437926791681669e+00 3.360000000000000000e+02
-3.880661337822628454e+00 1.860037782309614585e+00 3.360000000000000000e+02
-2.575847679709355909e+00 1.314637637827547945e+00 3.360000000000000000e+02
-1.271034021596082919e+00 7.692374933454815267e-01 3.360000000000000000e+02
3.377963651718995930e-02 2.238373488634149144e-01 3.360000000000000000e+02
1.338593294630462616e+00 -3.215627956186516423e-01 3.360000000000000000e+02
2.643406952743735605e+00 -8.669629401007181713e-01 3.360000000000000000e+02
3.948220610857008595e+00 -1.412363084582785033e+00 3.360000000000000000e+02
5.253034268970282028e+00 -1.957763229064851451e+00 3.360000000000000000e+02
-6.110581897233570814e+00 2.025731169976078050e+00 3.370000000000000000e+02
-4.805768239120298269e+00 1.480331025494011632e+00 3.370000000000000000e+02
-3.500954581007025723e+00 9.349308810119448809e-01 3.370000000000000000e+02
-2.196140922893752290e+00 3.895307365298784630e-01 3.370000000000000000e+02
-8.913272647804797444e-01 -1.558694079521881770e-01 3.370000000000000000e+02
4.134863933327931340e-01 -7.012695524342548170e-01 3.370000000000000000e+02
1.718300051446065790e+00 -1.246669696916321346e+00 3.370000000000000000e+02
3.023113709559338780e+00 -1.792069841398387986e+00 3.370000000000000000e+02
4.327927367672611325e+00 -2.337469985880454182e+00 3.370000000000000000e+02
-6.110581897233570814e+00 2.025731169976078050e+00 3.380000000000000000e+02
-4.805768239120298269e+00 1.480331025494011632e+00 3.380000000000000000e+02
-3.500954581007025723e+00 9.349308810119448809e-01 3.380000000000000000e+02
-2.196140922893752290e+00 3.895307365298784630e-01 3.380000000000000000e+02
-8.913272647804797444e-01 -1.558694079521881770e-01 3.380000000000000000e+02
4.134863933327931340e-01 -7.012695524342548170e-01 3.380000000000000000e+02
1.718300051446065790e+00 -1.246669696916321346e+00 3.380000000000000000e+02
3.023113709559338780e+00 -1.792069841398387986e+00 3.380000000000000000e+02
4.327927367672611325e+00 -2.337469985880454182e+00 3.380000000000000000e+02
5.632741025785884759e+00 -2.882870130362521266e+00 3.380000000000000000e+02
-6.490288654049173545e+00 2.950838071273747865e+00 3.390000000000000000e+02
-5.185474995935901887e+00 2.405437926791681669e+00 3.390000000000000000e+02
-3.880661337822628454e+00 1.860037782309614585e+00 3.390000000000000000e+02
-2.575847679709355909e+00 1.314637637827547945e+00 3.390000000000000000e+02
-1.271034021596082919e+00 7.692374933454815267e-01 3.390000000000000000e+02
3.377963651718995930e-02 2.238373488634149144e-01 3.390000000000000000e+02
1.338593294630462616e+00 -3.215627956186516423e-01 3.390000000000000000e+02
2.643406952743735605e+00 -8.669629401007181713e-01 3.390000000000000000e+02
3.948220610857008595e+00 -1.412363084582785033e+00 3.390000000000000000e+02
5.253034268970282028e+00 -1.957763229064851451e+00 3.390000000000000000e+02
6.557847927083554573e+00 -2.503163373546918091e+00 3.390000000000000000e+02
-6.490288654049173545e+00 2.950838071273747865e+00 3.400000000000000000e+02
-5.185474995935901887e+00 2.405437926791681669e+00 3.400000000000000000e+02
-3.880661337822628454e+00 1.860037782309614585e+00 3.400000000000000000e+02
-2.575847679709355909e+00 1.314637637827547945e+00 3.400000000000000000e+02
-1.271034021596082919e+00 7.692374933454815267e-01 3.400000000000000000e+02
3.377963651718995930e-02 2.238373488634149144e-01 3.400000000000000000e+02
1.338593294630462616e+00 -3.215627956186516423e-01 3.400000000000000000e+02
2.643406952743735605e+00 -8.669629401007181713e-01 3.400000000000000000e+02
3.948220610857008595e+00 -1.412363084582785033e+00 3.400000000000000000e+02
5.253034268970282028e+00 -1.957763229064851451e+00 3.400000000000000000e+02
6.557847927083554573e+00 -2.503163373546918091e+00 3.400000000000000000e+02
-6.490288654049173545e+00 2.950838071273747865e+00 3.410000000000000000e+02
-5.185474995935901887e+00 2.405437926791681669e+00 3.410000000000000000e+02
-3.880661337822628454e+00 1.860037782309614585e+00 3.410000000000000000e+02
-2.575847679709355909e+00 1.314637637827547945e+00 3.410000000000000000e+02
-1.271034021596082919e+00 7.692374933454815267e-01 3.410000000000000000e+02
3.377963651718995930e-02 2.238373488634149144e-01 3.410000000000000000e+02
1.338593294630462616e+00 -3.215627956186516423e-01 3.410000000000000000e+02
2.643406952743735605e+00 -8.669629401007181713e-01 3.410000000000000000e+02
3.948220610857008595e+00 -1.412363084582785033e+00 3.410000000000000000e+02
5.253034268970282028e+00 -1.957763229064851451e+00 3.410000000000000000e+02
6.557847927083554573e+00 -2.503163373546918091e+00 3.410000000000000000e+02
-6.110581897233570814e+00 2.025731169976078050e+00 3.420000000000000000e+02
-4.805768239120298269e+00 1.480331025494011632e+00 3.420000000000000000e+02
-3.500954581007025723e+00 9.349308810119448809e-01 3.420000000000000000e+02
-2.196140922893752290e+00 3.895307365298784630e-01 3.420000000000000000e+02
-8.913272647804797444e-01 -1.558694079521881770e-01 3.420000000000000000e+02
4.134863933327931340e-01 -7.012695524342548170e-01 3.420000000000000000e+02
1.718300051446065790e+00 -1.246669696916321346e+00 3.420000000000000000e+02
3.023113709559338780e+00 -1.792069841398387986e+00 3.420000000000000000e+02
4.327927367672611325e+00 -2.337469985880454182e+00 3.420000000000000000e+02
-6.110581897233570814e+00 2.025731169976078050e+00 3.430000000000000000e+02
-4.805768239120298269e+00 1.480331025494011632e+00 3.430000000000000000e+02
-3.500954581007025723e+00 9.349308810119448809e-01 3.430000000000000000e+02
-2.196140922893752290e+00 3.895307365298784630e-01 3.430000000000000000e+02
-8.913272647804797444e-01 -1.558694079521881770e-01 3.430000000000000000e+02
4.134863933327931340e-01 -7.012695524342548170e-01 3.430000000000000000e+02
1.718300051446065790e+00 -1.246669696916321346e+00 3.430000000000000000e+02
3.023113709559338780e+00 -1.792069841398387986e+00 3.430000000000000000e+02
4.327927367672611325e+00 -2.337469985880454182e+00 3.430000000000000000e+02
-6.110581897233570814e+00 2.025731169976078050e+00 3.440000000000000000e+02
-4.805768239120298269e+00 1.480331025494011632e+00 3.440000000000000000e+02
-3.500954581007025723e+00 9.349308810119448809e-01 3.440000000000000000e+02
-2.196140922893752290e+00 3.895307365298784630e-01 3.440000000000000000e+02
-8.913272647804797444e-01 -1.558694079521881770e-01 3.440000000000000000e+02
4.134863933327931340e-01 -7.012695524342548170e-01 3.440000000000000000e+02
1.718300051446065790e+00 -1.246669696916321346e+00 3.440000000000000000e+02
3.023113709559338780e+00 -1.792069841398387986e+00 3.440000000000000000e+02
4.327927367672611325e+00 -2.337469985880454182e+00 3.440000000000000000e+02
-6.110581897233570814e+00 2.025731169976078050e+00 3.450000000000000000e+02
-4.805768239120298269e+00 1.480331025494011632e+00 3.450000000000000000e+02
-3.500954581007025723e+00 9.349308810119448809e-01 3.450000000000000000e+02
-2.196140922893752290e+00 3.895307365298784630e-01 3.450000000000000000e+02
-8.913272647804797444e-01 -1.558694079521881770e-01 3.450000000000000000e+02
4.134863933327931340e-01 -7.012695524342548170e-01 3.450000000000000000e+02
1.718300051446065790e+00 -1.246669696916321346e+00 3.450000000000000000e+02
3.023113709559338780e+00 -1.792069841398387986e+00 3.450000000000000000e+02
4.327927367672611325e+00 -2.337469985880454182e+00 3.450000000000000000e+02
5.632741025785884759e+00 -2.882870130362521266e+00 3.450000000000000000e+02
-6.110581897233570814e+00 2.025731169976078050e+00 3.460000000000000000e+02
-4.805768239120298269e+00 1.480331025494011632e+00 3.460000000000000000e+02
-3.500954581007025723e+00 9.349308810119448809e-01 3.460000000000000000e+02
-2.196140922893752290e+00 3.895307365298784630e-01 3.460000000000000000e+02
-8.913272647804797444e-01 -1.558694079521881770e-01 3.460000000000000000e+02
4.134863933327931340e-01 -7.012695524342548170e-01 3.460000000000000000e+02
1.718300051446065790e+00 -1.246669696916321346e+00 3.460000000000000000e+02
3.023113709559338780e+00 -1.792069841398387986e+00 3.460000000000000000e+02
4.327927367672611325e+00 -2.337469985880454182e+00 3.460000000000000000e+02
5.632741025785884759e+00 -2.882870130362521266e+00 3.460000000000000000e+02
-6.110581897233570814e+00 2.025731169976078050e+00 3.470000000000000000e+02
-4.805768239120298269e+00 1.480331025494011632e+00 3.470000000000000000e+02
-3.500954581007025723e+00 9.349308810119448809e-01 3.470000000000000000e+02
-2.196140922893752290e+00 3.895307365298784630e-01 3.470000000000000000e+02
-8.913272647804797444e-01 -1.558694079521881770e-01 3.470000000000000000e+02
4.134863933327931340e-01 -7.012695524342548170e-01 3.470000000000000000e+02
1.718300051446065790e+00 -1.246669696916321346e+00 3.470000000000000000e+02
3.023113709559338780e+00 -1.792069841398387986e+00 3.470000000000000000e+02
4.327927367672611325e+00 -2.337469985880454182e+00 3.470000000000000000e+02
5.632741025785884759e+00 -2.882870130362521266e+00 3.470000000000000000e+02
-6.110581897233570814e+00 2.025731169976078050e+00 3.480000000000000000e+02
-4.805768239120298269e+00 1.480331025494011632e+00 3.480000000000000000e+02
-3.500954581007025723e+00 9.349308810119448809e-01 3.480000000000000000e+02
-2.196140922893752290e+00 3.895307365298784630e-01 3.480000000000000000e+02
-8.913272647804797444e-01 -1.558694079521881770e-01 3.480000000000000000e+02
4.134863933327931340e-01 -7.012695524342548170e-01 3.480000000000000000e+02
1.718300051446065790e+00 -1.246669696916321346e+00 3.480000000000000000e+02
3.023113709559338780e+00 -1.792069841398387986e+00 3.480000000000000000e+02
4.327927367672611325e+00 -2.337469985880454182e+00 3.480000000000000000e+02
5.632741025785884759e+00 -2.882870130362521266e+00 3.480000000000000000e+02
-6.110581897233570814e+00 2.025731169976078050e+00 3.490000000000000000e+02
-4.805768239120298269e+00 1.480331025494011632e+00 3.490000000000000000e+02
-3.500954581007025723e+00 9.349308810119448809e-01 3.490000000000000000e+02
-2.196140922893752290e+00 3.895307365298784630e-01 3.490000000000000000e+02
-8.913272647804797444e-01 -1.558694079521881770e-01 3.490000000000000000e+02
4.134863933327931340e-01 -7.012695524342548170e-01 3.490000000000000000e+02
1.718300051446065790e+00 -1.246669696916321346e+00 3.490000000000000000e+02
3.023113709559338780e+00 -1.792069841398387986e+00 3.490000000000000000e+02
4.327927367672611325e+00 -2.337469985880454182e+00 3.490000000000000000e+02
5.632741025785884759e+00 -2.882870130362521266e+00 3.490000000000000000e+02
-6.110581897233570814e+00 2.025731169976078050e+00 3.500000000000000000e+02
-4.805768239120298269e+00 1.480331025494011632e+00 3.500000000000000000e+02
-3.500954581007025723e+00 9.349308810119448809e-01 3.500000000000000000e+02
-2.196140922893752290e+00 3.895307365298784630e-01 3.500000000000000000e+02
-8.913272647804797444e-01 -1.558694079521881770e-01 3.500000000000000000e+02
4.134863933327931340e-01 -7.012695524342548170e-01 3.500000000000000000e+02
1.718300051446065790e+00 -1.246669696916321346e+00 3.500000000000000000e+02
3.023113709559338780e+00 -1.792069841398387986e+00 3.500000000000000000e+02
4.327927367672611325e+00 -2.337469985880454182e+00 3.500000000000000000e+02
5.632741025785884759e+00 -2.882870130362521266e+00 3.500000000000000000e+02
-6.110581897233570814e+00 2.025731169976078050e+00 3.510000000000000000e+02
-4.805768239120298269e+00 1.480331025494011632e+00 3.510000000000000000e+02
-3.500954581007025723e+00 9.349308810119448809e-01 3.510000000000000000e+02
-2.196140922893752290e+00 3.895307365298784630e-01 3.510000000000000000e+02
-8.913272647804797444e-01 -1.558694079521881770e-01 3.510000000000000000e+02
4.134863933327931340e-01 -7.012695524342548170e-01 3.510000000000000000e+02
1.718300051446065790e+00 -1.246669696916321346e+00 3.510000000000000000e+02
3.023113709559338780e+00 -1.792069841398387986e+00 3.510000000000000000e+02
4.327927367672611325e+00 -2.337469985880454182e+00 3.510000000000000000e+02
5.632741025785884759e+00 -2.882870130362521266e+00 3.510000000000000000e+02
-6.110581897233570814e+00 2.025731169976078050e+00 3.520000000000000000e+02
-4.805768239120298269e+00 1.480331025494011632e+00 3.520000000000000000e+02
-3.500954581007025723e+00 9.349308810119448809e-01 3.520000000000000000e+02
-2.196140922893752290e+00 3.895307365298784630e-01 3.520000000000000000e+02
-8.913272647804797444e-01 -1.558694079521881770e-01 3.520000000000000000e+02
4.134863933327931340e-01 -7.012695524342548170e-01 3.520000000000000000e+02
1.718300051446065790e+00 -1.246669696916321346e+00 3.520000000000000000e+02
3.023113709559338780e+00 -1.792069841398387986e+00 3.520000000000000000e+02
4.327927367672611325e+00 -2.337469985880454182e+00 3.520000000000000000e+02
5.632741025785884759e+00 -2.882870130362521266e+00 3.520000000000000000e+02
-6.110581897233570814e+00 2.025731169976078050e+00 3.530000000000000000e+02
-4.805768239120298269e+00 1.480331025494011632e+00 3.530000000000000000e+02
-3.500954581007025723e+00 9.349308810119448809e-01 3.530000000000000000e+02
-2.196140922893752290e+00 3.895307365298784630e-01 3.530000000000000000e+02
-8.913272647804797444e-01 -1.558694079521881770e-01 3.530000000000000000e+02
4.134863933327931340e-01 -7.012695524342548170e-01 3.530000000000000000e+02
1.718300051446065790e+00 -1.246669696916321346e+00 3.530000000000000000e+02
3.023113709559338780e+00 -1.792069841398387986e+00 3.530000000000000000e+02
4.327927367672611325e+00 -2.337469985880454182e+00 3.530000000000000000e+02
5.632741025785884759e+00 -2.882870130362521266e+00 3.530000000000000000e+02
-6.110581897233570814e+00 2.025731169976078050e+00 3.540000000000000000e+02
-4.805768239120298269e+00 1.480331025494011632e+00 3.540000000000000000e+02
-3.500954581007025723e+00 9.349308810119448809e-01 3.540000000000000000e+02
-2.196140922893752290e+00 3.895307365298784630e-01 3.540000000000000000e+02
-8.913272647804797444e-01 -1.558694079521881770e-01 3.540000000000000000e+02
4.134863933327931340e-01 -7.012695524342548170e-01 3.540000000000000000e+02
1.718300051446065790e+00 -1.246669696916321346e+00 3.540000000000000000e+02
3.023113709559338780e+00 -1.792069841398387986e+00 3.540000000000000000e+02
4.327927367672611325e+00 -2.337469985880454182e+00 3.540000000000000000e+02
5.632741025785884759e+00 -2.882870130362521266e+00 3.540000000000000000e+02
-6.110581897233570814e+00 2.025731169976078050e+00 3.550000000000000000e+02
-4.805768239120298269e+00 1.480331025494011632e+00 3.550000000000000000e+02
-3.500954581007025723e+00 9.349308810119448809e-01 3.550000000000000000e+02
-2.196140922893752290e+00 3.895307365298784630e-01 3.550000000000000000e+02
-8.913272647804797444e-01 -1.558694079521881770e-01 3.550000000000000000e+02
4.134863933327931340e-01 -7.012695524342548170e-01 3.550000000000000000e+02
1.718300051446065790e+00 -1.246669696916321346e+00 3.550000000000000000e+02
3.023113709559338780e+00 -1.792069841398387986e+00 3.550000000000000000e+02
4.327927367672611325e+00 -2.337469985880454182e+00 3.550000000000000000e+02
5.632741025785884759e+00 -2.882870130362521266e+00 3.550000000000000000e+02
-6.110581897233570814e+00 2.025731169976078050e+00 3.560000000000000000e+02
-4.805768239120298269e+00 1.480331025494011632e+00 3.560000000000000000e+02
-3.500954581007025723e+00 9.349308810119448809e-01 3.560000000000000000e+02
-2.196140922893752290e+00 3.895307365298784630e-01 3.560000000000000000e+02
-8.913272647804797444e-01 -1.558694079521881770e-01 3.560000000000000000e+02
4.134863933327931340e-01 -7.012695524342548170e-01 3.560000000000000000e+02
1.718300051446065790e+00 -1.246669696916321346e+00 3.560000000000000000e+02
3.023113709559338780e+00 -1.792069841398387986e+00 3.560000000000000000e+02
4.327927367672611325e+00 -2.337469985880454182e+00 3.560000000000000000e+02
5.632741025785884759e+00 -2.882870130362521266e+00 3.560000000000000000e+02
-6.110581897233570814e+00 2.025731169976078050e+00 3.570000000000000000e+02
-4.805768239120298269e+00 1.480331025494011632e+00 3.570000000000000000e+02
-3.500954581007025723e+00 9.349308810119448809e-01 3.570000000000000000e+02
-2.196140922893752290e+00 3.895307365298784630e-01 3.570000000000000000e+02
-8.913272647804797444e-01 -1.558694079521881770e-01 3.570000000000000000e+02
4.134863933327931340e-01 -7.012695524342548170e-01 3.570000000000000000e+02
1.718300051446065790e+00 -1.246669696916321346e+00 3.570000000000000000e+02
3.023113709559338780e+00 -1.792069841398387986e+00 3.570000000000000000e+02
4.327927367672611325e+00 -2.337469985880454182e+00 3.570000000000000000e+02
5.632741025785884759e+00 -2.882870130362521266e+00 3.570000000000000000e+02
-6.110581897233570814e+00 2.025731169976078050e+00 3.580000000000000000e+02
-4.805768239120298269e+00 1.480331025494011632e+00 3.580000000000000000e+02
-3.500954581007025723e+00 9.349308810119448809e-01 3.580000000000000000e+02
-2.196140922893752290e+00 3.895307365298784630e-01 3.580000000000000000e+02
-8.913272647804797444e-01 -1.558694079521881770e-01 3.580000000000000000e+02
4.134863933327931340e-01 -7.012695524342548170e-01 3.580000000000000000e+02
1.718300051446065790e+00 -1.246669696916321346e+00 3.580000000000000000e+02
3.023113709559338780e+00 -1.792069841398387986e+00 3.580000000000000000e+02
4.327927367672611325e+00 -2.337469985880454182e+00 3.580000000000000000e+02
5.632741025785884759e+00 -2.882870130362521266e+00 3.580000000000000000e+02
-6.110581897233570814e+00 2.025731169976078050e+00 3.590000000000000000e+02
-4.805768239120298269e+00 1.480331025494011632e+00 3.590000000000000000e+02
-3.500954581007025723e+00 9.349308810119448809e-01 3.590000000000000000e+02
-2.196140922893752290e+00 3.895307365298784630e-01 3.590000000000000000e+02
-8.913272647804797444e-01 -1.558694079521881770e-01 3.590000000000000000e+02
4.134863933327931340e-01 -7.012695524342548170e-01 3.590000000000000000e+02
1.718300051446065790e+00 -1.246669696916321346e+00 3.590000000000000000e+02
3.023113709559338780e+00 -1.792069841398387986e+00 3.590000000000000000e+02
4.327927367672611325e+00 -2.337469985880454182e+00 3.590000000000000000e+02
5.632741025785884759e+00 -2.882870130362521266e+00 3.590000000000000000e+02
-6.110581897233570814e+00 2.025731169976078050e+00 3.600000000000000000e+02
-4.805768239120298269e+00 1.480331025494011632e+00 3.600000000000000000e+02
-3.500954581007025723e+00 9.349308810119448809e-01 3.600000000000000000e+02
-2.196140922893752290e+00 3.895307365298784630e-01 3.600000000000000000e+02
-8.913272647804797444e-01 -1.558694079521881770e-01 3.600000000000000000e+02
4.134863933327931340e-01 -7.012695524342548170e-01 3.600000000000000000e+02
1.718300051446065790e+00 -1.246669696916321346e+00 3.600000000000000000e+02
3.023113709559338780e+00 -1.792069841398387986e+00 3.600000000000000000e+02
4.327927367672611325e+00 -2.337469985880454182e+00 3.600000000000000000e+02
5.632741025785884759e+00 -2.882870130362521266e+00 3.600000000000000000e+02
-6.110581897233570814e+00 2.025731169976078050e+00 3.610000000000000000e+02
-4.805768239120298269e+00 1.480331025494011632e+00 3.610000000000000000e+02
-3.500954581007025723e+00 9.349308810119448809e-01 3.610000000000000000e+02
-2.196140922893752290e+00 3.895307365298784630e-01 3.610000000000000000e+02
-8.913272647804797444e-01 -1.558694079521881770e-01 3.610000000000000000e+02
4.134863933327931340e-01 -7.012695524342548170e-01 3.610000000000000000e+02
1.718300051446065790e+00 -1.246669696916321346e+00 3.610000000000000000e+02
3.023113709559338780e+00 -1.792069841398387986e+00 3.610000000000000000e+02
4.327927367672611325e+00 -2.337469985880454182e+00 3.610000000000000000e+02
5.632741025785884759e+00 -2.882870130362521266e+00 3.610000000000000000e+02
-6.110581897233570814e+00 2.025731169976078050e+00 3.620000000000000000e+02
-4.805768239120298269e+00 1.480331025494011632e+00 3.620000000000000000e+02
-3.500954581007025723e+00 9.349308810119448809e-01 3.620000000000000000e+02
-2.196140922893752290e+00 3.895307365298784630e-01 3.620000000000000000e+02
-8.913272647804797444e-01 -1.558694079521881770e-01 3.620000000000000000e+02
4.134863933327931340e-01 -7.012695524342548170e-01 3.620000000000000000e+02
1.718300051446065790e+00 -1.246669696916321346e+00 3.620000000000000000e+02
3.023113709559338780e+00 -1.792069841398387986e+00 3.620000000000000000e+02
4.327927367672611325e+00 -2.337469985880454182e+00 3.620000000000000000e+02
5.632741025785884759e+00 -2.882870130362521266e+00 3.620000000000000000e+02
-6.110581897233570814e+00 2.025731169976078050e+00 3.630000000000000000e+02
-4.805768239120298269e+00 1.480331025494011632e+00 3.630000000000000000e+02
-3.500954581007025723e+00 9.349308810119448809e-01 3.630000000000000000e+02
-2.196140922893752290e+00 3.895307365298784630e-01 3.630000000000000000e+02
-8.913272647804797444e-01 -1.558694079521881770e-01 3.630000000000000000e+02
4.134863933327931340e-01 -7.012695524342548170e-01 3.630000000000000000e+02
1.718300051446065790e+00 -1.246669696916321346e+00 3.630000000000000000e+02
3.023113709559338780e+00 -1.792069841398387986e+00 3.630000000000000000e+02
4.327927367672611325e+00 -2.337469985880454182e+00 3.630000000000000000e+02
5.632741025785884759e+00 -2.882870130362521266e+00 3.630000000000000000e+02
-6.110581897233570814e+00 2.025731169976078050e+00 3.640000000000000000e+02
-4.805768239120298269e+00 1.480331025494011632e+00 3.640000000000000000e+02
-3.500954581007025723e+00 9.349308810119448809e-01 3.640000000000000000e+02
-2.196140922893752290e+00 3.895307365298784630e-01 3.640000000000000000e+02
-8.913272647804797444e-01 -1.558694079521881770e-01 3.640000000000000000e+02
4.134863933327931340e-01 -7.012695524342548170e-01 3.640000000000000000e+02
1.718300051446065790e+00 -1.246669696916321346e+00 3.640000000000000000e+02
3.023113709559338780e+00 -1.792069841398387986e+00 3.640000000000000000e+02
4.327927367672611325e+00 -2.337469985880454182e+00 3.640000000000000000e+02
5.632741025785884759e+00 -2.882870130362521266e+00 3.640000000000000000e+02
-6.110581897233570814e+00 2.025731169976078050e+00 3.650000000000000000e+02
-4.805768239120298269e+00 1.480331025494011632e+00 3.650000000000000000e+02
-3.500954581007025723e+00 9.349308810119448809e-01 3.650000000000000000e+02
-2.196140922893752290e+00 3.895307365298784630e-01 3.650000000000000000e+02
-8.913272647804797444e-01 -1.558694079521881770e-01 3.650000000000000000e+02
4.134863933327931340e-01 -7.012695524342548170e-01 3.650000000000000000e+02
1.718300051446065790e+00 -1.246669696916321346e+00 3.650000000000000000e+02
3.023113709559338780e+00 -1.792069841398387986e+00 3.650000000000000000e+02
4.327927367672611325e+00 -2.337469985880454182e+00 3.650000000000000000e+02
5.632741025785884759e+00 -2.882870130362521266e+00 3.650000000000000000e+02
-5.730875140417968083e+00 1.100624268678408457e+00 3.660000000000000000e+02
-4.426061482304695538e+00 5.552241241963418172e-01 3.660000000000000000e+02
-3.121247824191422104e+00 9.823979714275288266e-03 3.660000000000000000e+02
-1.816434166078149115e+00 -5.355761647677912407e-01 3.660000000000000000e+02
-5.116205079648765697e-01 -1.080976309249857881e+00 3.660000000000000000e+02
7.931931501483960867e-01 -1.626376453731924521e+00 3.660000000000000000e+02
2.098006808261668965e+00 -2.171776598213991161e+00 3.660000000000000000e+02
3.402820466374941955e+00 -2.717176742696057357e+00 3.660000000000000000e+02
4.707634124488214944e+00 -3.262576887178123997e+00 3.660000000000000000e+02
-6.110581897233570814e+00 2.025731169976078050e+00 3.670000000000000000e+02
-4.805768239120298269e+00 1.480331025494011632e+00 3.670000000000000000e+02
-3.500954581007025723e+00 9.349308810119448809e-01 3.670000000000000000e+02
-2.196140922893752290e+00 3.895307365298784630e-01 3.670000000000000000e+02
-8.913272647804797444e-01 -1.558694079521881770e-01 3.670000000000000000e+02
4.134863933327931340e-01 -7.012695524342548170e-01 3.670000000000000000e+02
1.718300051446065790e+00 -1.246669696916321346e+00 3.670000000000000000e+02
3.023113709559338780e+00 -1.792069841398387986e+00 3.670000000000000000e+02
4.327927367672611325e+00 -2.337469985880454182e+00 3.670000000000000000e+02
5.632741025785884759e+00 -2.882870130362521266e+00 3.670000000000000000e+02
-6.110581897233570814e+00 2.025731169976078050e+00 3.680000000000000000e+02
-4.805768239120298269e+00 1.480331025494011632e+00 3.680000000000000000e+02
-3.500954581007025723e+00 9.349308810119448809e-01 3.680000000000000000e+02
-2.196140922893752290e+00 3.895307365298784630e-01 3.680000000000000000e+02
-8.913272647804797444e-01 -1.558694079521881770e-01 3.680000000000000000e+02
4.134863933327931340e-01 -7.012695524342548170e-01 3.680000000000000000e+02
1.718300051446065790e+00 -1.246669696916321346e+00 3.680000000000000000e+02
3.023113709559338780e+00 -1.792069841398387986e+00 3.680000000000000000e+02
4.327927367672611325e+00 -2.337469985880454182e+00 3.680000000000000000e+02
5.632741025785884759e+00 -2.882870130362521266e+00 3.680000000000000000e+02
-6.110581897233570814e+00 2.025731169976078050e+00 3.690000000000000000e+02
-4.805768239120298269e+00 1.480331025494011632e+00 3.690000000000000000e+02
-3.500954581007025723e+00 9.349308810119448809e-01 3.690000000000000000e+02
-2.196140922893752290e+00 3.895307365298784630e-01 3.690000000000000000e+02
-8.913272647804797444e-01 -1.558694079521881770e-01 3.690000000000000000e+02
4.134863933327931340e-01 -7.012695524342548170e-01 3.690000000000000000e+02
1.718300051446065790e+00 -1.246669696916321346e+00 3.690000000000000000e+02
3.023113709559338780e+00 -1.792069841398387986e+00 3.690000000000000000e+02
4.327927367672611325e+00 -2.337469985880454182e+00 3.690000000000000000e+02
5.632741025785884759e+00 -2.882870130362521266e+00 3.690000000000000000e+02
-6.110581897233570814e+00 2.025731169976078050e+00 3.700000000000000000e+02
-4.805768239120298269e+00 1.480331025494011632e+00 3.700000000000000000e+02
-3.500954581007025723e+00 9.349308810119448809e-01 3.700000000000000000e+02
-2.196140922893752290e+00 3.895307365298784630e-01 3.700000000000000000e+02
-8.913272647804797444e-01 -1.558694079521881770e-01 3.700000000000000000e+02
4.134863933327931340e-01 -7.012695524342548170e-01 3.700000000000000000e+02
1.718300051446065790e+00 -1.246669696916321346e+00 3.700000000000000000e+02
3.023113709559338780e+00 -1.792069841398387986e+00 3.700000000000000000e+02
4.327927367672611325e+00 -2.337469985880454182e+00 3.700000000000000000e+02
5.632741025785884759e+00 -2.882870130362521266e+00 3.700000000000000000e+02
-6.110581897233570814e+00 2.025731169976078050e+00 3.710000000000000000e+02
-4.805768239120298269e+00 1.480331025494011632e+00 3.710000000000000000e+02
-3.500954581007025723e+00 9.349308810119448809e-01 3.710000000000000000e+02
-2.196140922893752290e+00 3.895307365298784630e-01 3.710000000000000000e+02
-8.913272647804797444e-01 -1.558694079521881770e-01 3.710000000000000000e+02
4.134863933327931340e-01 -7.012695524342548170e-01 3.710000000000000000e+02
1.718300051446065790e+00 -1.246669696916321346e+00 3.710000000000000000e+02
3.023113709559338780e+00 -1.792069841398387986e+00 3.710000000000000000e+02
4.327927367672611325e+00 -2.337469985880454182e+00 3.710000000000000000e+02
5.632741025785884759e+00 -2.882870130362521266e+00 3.710000000000000000e+02
-6.110581897233570814e+00 2.025731169976078050e+00 3.720000000000000000e+02
-4.805768239120298269e+00 1.480331025494011632e+00 3.720000000000000000e+02
-3.500954581007025723e+00 9.349308810119448809e-01 3.720000000000000000e+02
-2.196140922893752290e+00 3.895307365298784630e-01 3.720000000000000000e+02
-8.913272647804797444e-01 -1.558694079521881770e-01 3.720000000000000000e+02
4.134863933327931340e-01 -7.012695524342548170e-01 3.720000000000000000e+02
1.718300051446065790e+00 -1.246669696916321346e+00 3.720000000000000000e+02
3.023113709559338780e+00 -1.792069841398387986e+00 3.720000000000000000e+02
4.327927367672611325e+00 -2.337469985880454182e+00 3.720000000000000000e+02
5.632741025785884759e+00 -2.882870130362521266e+00 3.720000000000000000e+02
-6.110581897233570814e+00 2.025731169976078050e+00 3.730000000000000000e+02
-4.805768239120298269e+00 1.480331025494011632e+00 3.730000000000000000e+02
-3.500954581007025723e+00 9.349308810119448809e-01 3.730000000000000000e+02
-2.196140922893752290e+00 3.895307365298784630e-01 3.730000000000000000e+02
-8.913272647804797444e-01 -1.558694079521881770e-01 3.730000000000000000e+02
4.134863933327931340e-01 -7.012695524342548170e-01 3.730000000000000000e+02
1.718300051446065790e+00 -1.246669696916321346e+00 3.730000000000000000e+02
3.023113709559338780e+00 -1.792069841398387986e+00 3.730000000000000000e+02
4.327927367672611325e+00 -2.337469985880454182e+00 3.730000000000000000e+02
5.632741025785884759e+00 -2.882870130362521266e+00 3.730000000000000000e+02
-6.110581897233570814e+00 2.025731169976078050e+00 3.740000000000000000e+02
-4.805768239120298269e+00 1.480331025494011632e+00 3.740000000000000000e+02
-3.500954581007025723e+00 9.349308810119448809e-01 3.740000000000000000e+02
-2.196140922893752290e+00 3.895307365298784630e-01 3.740000000000000000e+02
-8.913272647804797444e-01 -1.558694079521881770e-01 3.740000000000000000e+02
4.134863933327931340e-01 -7.012695524342548170e-01 3.740000000000000000e+02
1.718300051446065790e+00 -1.246669696916321346e+00 3.740000000000000000e+02
3.023113709559338780e+00 -1.792069841398387986e+00 3.740000000000000000e+02
4.327927367672611325e+00 -2.337469985880454182e+00 3.740000000000000000e+02
5.632741025785884759e+00 -2.882870130362521266e+00 3.740000000000000000e+02
-6.110581897233570814e+00 2.025731169976078050e+00 3.750000000000000000e+02
-4.805768239120298269e+00 1.480331025494011632e+00 3.750000000000000000e+02
-3.500954581007025723e+00 9.349308810119448809e-01 3.750000000000000000e+02
-2.196140922893752290e+00 3.895307365298784630e-01 3.750000000000000000e+02
-8.913272647804797444e-01 -1.558694079521881770e-01 3.750000000000000000e+02
4.134863933327931340e-01 -7.012695524342548170e-01 3.750000000000000000e+02
1.718300051446065790e+00 -1.246669696916321346e+00 3.750000000000000000e+02
3.023113709559338780e+00 -1.792069841398387986e+00 3.750000000000000000e+02
4.327927367672611325e+00 -2.337469985880454182e+00 3.750000000000000000e+02
5.632741025785884759e+00 -2.882870130362521266e+00 3.750000000000000000e+02
-6.110581897233570814e+00 2.025731169976078050e+00 3.760000000000000000e+02
-4.805768239120298269e+00 1.480331025494011632e+00 3.760000000000000000e+02
-3.500954581007025723e+00 9.349308810119448809e-01 3.760000000000000000e+02
-2.196140922893752290e+00 3.895307365298784630e-01 3.760000000000000000e+02
-8.913272647804797444e-01 -1.558694079521881770e-01 3.760000000000000000e+02
4.134863933327931340e-01 -7.012695524342548170e-01 3.760000000000000000e+02
1.718300051446065790e+00 -1.246669696916321346e+00 3.760000000000000000e+02
3.023113709559338780e+00 -1.792069841398387986e+00 3.760000000000000000e+02
4.327927367672611325e+00 -2.337469985880454182e+00 3.760000000000000000e+02
5.632741025785884759e+00 -2.882870130362521266e+00 3.760000000000000000e+02
-6.110581897233570814e+00 2.025731169976078050e+00 3.770000000000000000e+02
-4.805768239120298269e+00 1.480331025494011632e+00 3.770000000000000000e+02
-3.500954581007025723e+00 9.349308810119448809e-01 3.770000000000000000e+02
-2.196140922893752290e+00 3.895307365298784630e-01 3.770000000000000000e+02
-8.913272647804797444e-01 -1.558694079521881770e-01 3.770000000000000000e+02
4.134863933327931340e-01 -7.012695524342548170e-01 3.770000000000000000e+02
1.718300051446065790e+00 -1.246669696916321346e+00 3.770000000000000000e+02
3.023113709559338780e+00 -1.792069841398387986e+00 3.770000000000000000e+02
4.327927367672611325e+00 -2.337469985880454182e+00 3.770000000000000000e+02
5.632741025785884759e+00 -2.882870130362521266e+00 3.770000000000000000e+02
-6.110581897233570814e+00 2.025731169976078050e+00 3.780000000000000000e+02
-4.805768239120298269e+00 1.480331025494011632e+00 3.780000000000000000e+02
-3.500954581007025723e+00 9.349308810119448809e-01 3.780000000000000000e+02
-2.196140922893752290e+00 3.895307365298784630e-01 3.780000000000000000e+02
-8.913272647804797444e-01 -1.558694079521881770e-01 3.780000000000000000e+02
4.134863933327931340e-01 -7.012695524342548170e-01 3.780000000000000000e+02
1.718300051446065790e+00 -1.246669696916321346e+00 3.780000000000000000e+02
3.023113709559338780e+00 -1.792069841398387986e+00 3.780000000000000000e+02
4.327927367672611325e+00 -2.337469985880454182e+00 3.780000000000000000e+02
5.632741025785884759e+00 -2.882870130362521266e+00 3.780000000000000000e+02
-6.110581897233570814e+00 2.025731169976078050e+00 3.790000000000000000e+02
-4.805768239120298269e+00 1.480331025494011632e+00 3.790000000000000000e+02
-3.500954581007025723e+00 9.349308810119448809e-01 3.790000000000000000e+02
-2.196140922893752290e+00 3.895307365298784630e-01 3.790000000000000000e+02
-8.913272647804797444e-01 -1.558694079521881770e-01 3.790000000000000000e+02
4.134863933327931340e-01 -7.012695524342548170e-01 3.790000000000000000e+02
1.718300051446065790e+00 -1.246669696916321346e+00 3.790000000000000000e+02
3.023113709559338780e+00 -1.792069841398387986e+00 3.790000000000000000e+02
4.327927367672611325e+00 -2.337469985880454182e+00 3.790000000000000000e+02
5.632741025785884759e+00 -2.882870130362521266e+00 3.790000000000000000e+02
-6.110581897233570814e+00 2.025731169976078050e+00 3.800000000000000000e+02
-4.805768239120298269e+00 1.480331025494011632e+00 3.800000000000000000e+02
-3.500954581007025723e+00 9.349308810119448809e-01 3.800000000000000000e+02
-2.196140922893752290e+00 3.895307365298784630e-01 3.800000000000000000e+02
-8.913272647804797444e-01 -1.558694079521881770e-01 3.800000000000000000e+02
4.134863933327931340e-01 -7.012695524342548170e-01 3.800000000000000000e+02
1.718300051446065790e+00 -1.246669696916321346e+00 3.800000000000000000e+02
3.023113709559338780e+00 -1.792069841398387986e+00 3.800000000000000000e+02
4.327927367672611325e+00 -2.337469985880454182e+00 3.800000000000000000e+02
5.632741025785884759e+00 -2.882870130362521266e+00 3.800000000000000000e+02
-6.110581897233570814e+00 2.025731169976078050e+00 3.810000000000000000e+02
-4.805768239120298269e+00 1.480331025494011632e+00 3.810000000000000000e+02
-3.500954581007025723e+00 9.349308810119448809e-01 3.810000000000000000e+02
-2.196140922893752290e+00 3.895307365298784630e-01 3.810000000000000000e+02
-8.913272647804797444e-01 -1.558694079521881770e-01 3.810000000000000000e+02
4.134863933327931340e-01 -7.012695524342548170e-01 3.810000000000000000e+02
1.718300051446065790e+00 -1.246669696916321346e+00 3.810000000000000000e+02
3.023113709559338780e+00 -1.792069841398387986e+00 3.810000000000000000e+02
4.327927367672611325e+00 -2.337469985880454182e+00 3.810000000000000000e+02
5.632741025785884759e+00 -2.882870130362521266e+00 3.810000000000000000e+02
-6.110581897233570814e+00 2.025731169976078050e+00 3.820000000000000000e+02
-4.805768239120298269e+00 1.480331025494011632e+00 3.820000000000000000e+02
-3.500954581007025723e+00 9.349308810119448809e-01 3.820000000000000000e+02
-2.196140922893752290e+00 3.895307365298784630e-01 3.820000000000000000e+02
-8.913272647804797444e-01 -1.558694079521881770e-01 3.820000000000000000e+02
4.134863933327931340e-01 -7.012695524342548170e-01 3.820000000000000000e+02
1.718300051446065790e+00 -1.246669696916321346e+00 3.820000000000000000e+02
3.023113709559338780e+00 -1.792069841398387986e+00 3.820000000000000000e+02
4.327927367672611325e+00 -2.337469985880454182e+00 3.820000000000000000e+02
5.632741025785884759e+00 -2.882870130362521266e+00 3.820000000000000000e+02
-6.110581897233570814e+00 2.025731169976078050e+00 3.830000000000000000e+02
-4.805768239120298269e+00 1.480331025494011632e+00 3.830000000000000000e+02
-3.500954581007025723e+00 9.349308810119448809e-01 3.830000000000000000e+02
-2.196140922893752290e+00 3.895307365298784630e-01 3.830000000000000000e+02
-8.913272647804797444e-01 -1.558694079521881770e-01 3.830000000000000000e+02
4.134863933327931340e-01 -7.012695524342548170e-01 3.830000000000000000e+02
1.718300051446065790e+00 -1.246669696916321346e+00 3.830000000000000000e+02
3.023113709559338780e+00 -1.792069841398387986e+00 3.830000000000000000e+02
4.327927367672611325e+00 -2.337469985880454182e+00 3.830000000000000000e+02
5.632741025785884759e+00 -2.882870130362521266e+00 3.830000000000000000e+02
-5.730875140417968083e+00 1.100624268678408457e+00 3.840000000000000000e+02
-4.426061482304695538e+00 5.552241241963418172e-01 3.840000000000000000e+02
-3.121247824191422104e+00 9.823979714275288266e-03 3.840000000000000000e+02
-1.816434166078149115e+00 -5.355761647677912407e-01 3.840000000000000000e+02
-5.116205079648765697e-01 -1.080976309249857881e+00 3.840000000000000000e+02
7.931931501483960867e-01 -1.626376453731924521e+00 3.840000000000000000e+02
2.098006808261668965e+00 -2.171776598213991161e+00 3.840000000000000000e+02
3.402820466374941955e+00 -2.717176742696057357e+00 3.840000000000000000e+02
4.707634124488214944e+00 -3.262576887178123997e+00 3.840000000000000000e+02
-6.110581897233570814e+00 2.025731169976078050e+00 3.850000000000000000e+02
-4.805768239120298269e+00 1.480331025494011632e+00 3.850000000000000000e+02
-3.500954581007025723e+00 9.349308810119448809e-01 3.850000000000000000e+02
-2.196140922893752290e+00 3.895307365298784630e-01 3.850000000000000000e+02
-8.913272647804797444e-01 -1.558694079521881770e-01 3.850000000000000000e+02
4.134863933327931340e-01 -7.012695524342548170e-01 3.850000000000000000e+02
