4.943466077448919194e+00 -1.010001191758196626e+01 3.130000000000000000e+02
4.920174877831155591e+00 -8.685990163852427060e+00 3.130000000000000000e+02
4.896883678213391988e+00 -7.271968410122886084e+00 3.130000000000000000e+02
4.873592478595627497e+00 -5.857946656393345997e+00 3.130000000000000000e+02
4.850301278977863895e+00 -4.443924902663805021e+00 3.130000000000000000e+02
4.827010079360099404e+00 -3.029903148934264934e+00 3.130000000000000000e+02
4.803718879742335801e+00 -1.615881395204724846e+00 3.130000000000000000e+02
4.780427680124571310e+00 -2.018596414751838708e-01 3.130000000000000000e+02
4.990048476684448175e+00 -1.292805542504104821e+01 3.140000000000000000e+02
4.966757277066683685e+00 -1.151403367131150901e+01 3.140000000000000000e+02
4.943466077448919194e+00 -1.010001191758196626e+01 3.140000000000000000e+02
4.920174877831155591e+00 -8.685990163852427060e+00 3.140000000000000000e+02
4.896883678213391988e+00 -7.271968410122886084e+00 3.140000000000000000e+02
4.873592478595627497e+00 -5.857946656393345997e+00 3.140000000000000000e+02
4.850301278977863895e+00 -4.443924902663805021e+00 3.140000000000000000e+02
4.827010079360099404e+00 -3.029903148934264934e+00 3.140000000000000000e+02
4.803718879742335801e+00 -1.615881395204724846e+00 3.140000000000000000e+02
4.990048476684448175e+00 -1.292805542504104821e+01 3.150000000000000000e+02
4.966757277066683685e+00 -1.151403367131150901e+01 3.150000000000000000e+02
4.943466077448919194e+00 -1.010001191758196626e+01 3.150000000000000000e+02
4.920174877831155591e+00 -8.685990163852427060e+00 3.150000000000000000e+02
4.896883678213391988e+00 -7.271968410122886084e+00 3.150000000000000000e+02
4.873592478595627497e+00 -5.857946656393345997e+00 3.150000000000000000e+02
4.850301278977863895e+00 -4.443924902663805021e+00 3.150000000000000000e+02
4.827010079360099404e+00 -3.029903148934264934e+00 3.150000000000000000e+02
4.803718879742335801e+00 -1.615881395204724846e+00 3.150000000000000000e+02
4.780427680124571310e+00 -2.018596414751838708e-01 3.150000000000000000e+02
4.294683199628559933e+00 -1.364671190171470094e+01 3.160000000000000000e+02
4.271392000010795442e+00 -1.223269014798515997e+01 3.160000000000000000e+02
4.248100800393030951e+00 -1.081866839425562077e+01 3.160000000000000000e+02
4.224809600775267349e+00 -9.404646640526078016e+00 3.160000000000000000e+02
4.201518401157503746e+00 -7.990624886796538817e+00 3.160000000000000000e+02
4.178227201539739255e+00 -6.576603133066997842e+00 3.160000000000000000e+02
4.154936001921974764e+00 -5.162581379337457754e+00 3.160000000000000000e+02
4.131644802304211161e+00 -3.748559625607916779e+00 3.160000000000000000e+02
4.108353602686447559e+00 -2.334537871878376691e+00 3.160000000000000000e+02
4.085062403068683068e+00 -9.205161181488366040e-01 3.160000000000000000e+02
4.061771203450918577e+00 4.935056355807043715e-01 3.160000000000000000e+02
4.294683199628559933e+00 -1.364671190171470094e+01 3.170000000000000000e+02
4.271392000010795442e+00 -1.223269014798515997e+01 3.170000000000000000e+02
4.248100800393030951e+00 -1.081866839425562077e+01 3.170000000000000000e+02
4.224809600775267349e+00 -9.404646640526078016e+00 3.170000000000000000e+02
4.201518401157503746e+00 -7.990624886796538817e+00 3.170000000000000000e+02
4.178227201539739255e+00 -6.576603133066997842e+00 3.170000000000000000e+02
4.154936001921974764e+00 -5.162581379337457754e+00 3.170000000000000000e+02
4.131644802304211161e+00 -3.748559625607916779e+00 3.170000000000000000e+02
4.108353602686447559e+00 -2.334537871878376691e+00 3.170000000000000000e+02
4.085062403068683068e+00 -9.205161181488366040e-01 3.170000000000000000e+02
4.061771203450918577e+00 4.935056355807043715e-01 3.170000000000000000e+02
4.990048476684448175e+00 -1.292805542504104821e+01 3.180000000000000000e+02
4.966757277066683685e+00 -1.151403367131150901e+01 3.180000000000000000e+02
4.943466077448919194e+00 -1.010001191758196626e+01 3.180000000000000000e+02
4.920174877831155591e+00 -8.685990163852427060e+00 3.180000000000000000e+02
4.896883678213391988e+00 -7.271968410122886084e+00 3.180000000000000000e+02
4.873592478595627497e+00 -5.857946656393345997e+00 3.180000000000000000e+02
4.850301278977863895e+00 -4.443924902663805021e+00 3.180000000000000000e+02
4.827010079360099404e+00 -3.029903148934264934e+00 3.180000000000000000e+02
4.803718879742335801e+00 -1.615881395204724846e+00 3.180000000000000000e+02
4.780427680124571310e+00 -2.018596414751838708e-01 3.180000000000000000e+02
4.990048476684448175e+00 -1.292805542504104821e+01 3.190000000000000000e+02
4.966757277066683685e+00 -1.151403367131150901e+01 3.190000000000000000e+02
4.943466077448919194e+00 -1.010001191758196626e+01 3.190000000000000000e+02
4.920174877831155591e+00 -8.685990163852427060e+00 3.190000000000000000e+02
4.896883678213391988e+00 -7.271968410122886084e+00 3.190000000000000000e+02
4.873592478595627497e+00 -5.857946656393345997e+00 3.190000000000000000e+02
4.850301278977863895e+00 -4.443924902663805021e+00 3.190000000000000000e+02
4.827010079360099404e+00 -3.029903148934264934e+00 3.190000000000000000e+02
4.803718879742335801e+00 -1.615881395204724846e+00 3.190000000000000000e+02
4.990048476684448175e+00 -1.292805542504104821e+01 3.200000000000000000e+02
4.966757277066683685e+00 -1.151403367131150901e+01 3.200000000000000000e+02
4.943466077448919194e+00 -1.010001191758196626e+01 3.200000000000000000e+02
4.920174877831155591e+00 -8.685990163852427060e+00 3.200000000000000000e+02
4.896883678213391988e+00 -7.271968410122886084e+00 3.200000000000000000e+02
4.873592478595627497e+00 -5.857946656393345997e+00 3.200000000000000000e+02
4.850301278977863895e+00 -4.443924902663805021e+00 3.200000000000000000e+02
4.827010079360099404e+00 -3.029903148934264934e+00 3.200000000000000000e+02
4.803718879742335801e+00 -1.615881395204724846e+00 3.200000000000000000e+02
4.780427680124571310e+00 -2.018596414751838708e-01 3.200000000000000000e+02
4.990048476684448175e+00 -1.292805542504104821e+01 3.210000000000000000e+02
4.966757277066683685e+00 -1.151403367131150901e+01 3.210000000000000000e+02
4.943466077448919194e+00 -1.010001191758196626e+01 3.210000000000000000e+02
4.920174877831155591e+00 -8.685990163852427060e+00 3.210000000000000000e+02
4.896883678213391988e+00 -7.271968410122886084e+00 3.210000000000000000e+02
4.873592478595627497e+00 -5.857946656393345997e+00 3.210000000000000000e+02
4.850301278977863895e+00 -4.443924902663805021e+00 3.210000000000000000e+02
4.827010079360099404e+00 -3.029903148934264934e+00 3.210000000000000000e+02
4.803718879742335801e+00 -1.615881395204724846e+00 3.210000000000000000e+02
4.780427680124571310e+00 -2.018596414751838708e-01 3.210000000000000000e+02
4.990048476684448175e+00 -1.292805542504104821e+01 3.220000000000000000e+02
4.966757277066683685e+00 -1.151403367131150901e+01 3.220000000000000000e+02
4.943466077448919194e+00 -1.010001191758196626e+01 3.220000000000000000e+02
4.920174877831155591e+00 -8.685990163852427060e+00 3.220000000000000000e+02
4.896883678213391988e+00 -7.271968410122886084e+00 3.220000000000000000e+02
4.873592478595627497e+00 -5.857946656393345997e+00 3.220000000000000000e+02
4.850301278977863895e+00 -4.443924902663805021e+00 3.220000000000000000e+02
4.827010079360099404e+00 -3.029903148934264934e+00 3.220000000000000000e+02
4.803718879742335801e+00 -1.615881395204724846e+00 3.220000000000000000e+02
4.780427680124571310e+00 -2.018596414751838708e-01 3.220000000000000000e+02
5.685413753740336418e+00 -1.220939894836739725e+01 3.230000000000000000e+02
5.662122554122571927e+00 -1.079537719463785450e+01 3.230000000000000000e+02
5.638831354504807436e+00 -9.381355440908315302e+00 3.230000000000000000e+02
5.615540154887043833e+00 -7.967333687178774326e+00 3.230000000000000000e+02
5.592248955269280231e+00 -6.553311933449234239e+00 3.230000000000000000e+02
5.568957755651515740e+00 -5.139290179719693263e+00 3.230000000000000000e+02
5.545666556033752137e+00 -3.725268425990153176e+00 3.230000000000000000e+02
5.522375356415987646e+00 -2.311246672260613089e+00 3.230000000000000000e+02
5.499084156798224043e+00 -8.972249185310721131e-01 3.230000000000000000e+02
5.685413753740336418e+00 -1.220939894836739725e+01 3.240000000000000000e+02
5.662122554122571927e+00 -1.079537719463785450e+01 3.240000000000000000e+02
5.638831354504807436e+00 -9.381355440908315302e+00 3.240000000000000000e+02
5.615540154887043833e+00 -7.967333687178774326e+00 3.240000000000000000e+02
5.592248955269280231e+00 -6.553311933449234239e+00 3.240000000000000000e+02
5.568957755651515740e+00 -5.139290179719693263e+00 3.240000000000000000e+02
5.545666556033752137e+00 -3.725268425990153176e+00 3.240000000000000000e+02
5.522375356415987646e+00 -2.311246672260613089e+00 3.240000000000000000e+02
5.499084156798224043e+00 -8.972249185310721131e-01 3.240000000000000000e+02
5.685413753740336418e+00 -1.220939894836739725e+01 3.250000000000000000e+02
5.662122554122571927e+00 -1.079537719463785450e+01 3.250000000000000000e+02
5.638831354504807436e+00 -9.381355440908315302e+00 3.250000000000000000e+02
5.615540154887043833e+00 -7.967333687178774326e+00 3.250000000000000000e+02
5.592248955269280231e+00 -6.553311933449234239e+00 3.250000000000000000e+02
5.568957755651515740e+00 -5.139290179719693263e+00 3.250000000000000000e+02
5.545666556033752137e+00 -3.725268425990153176e+00 3.250000000000000000e+02
5.522375356415987646e+00 -2.311246672260613089e+00 3.250000000000000000e+02
5.499084156798224043e+00 -8.972249185310721131e-01 3.250000000000000000e+02
5.685413753740336418e+00 -1.220939894836739725e+01 3.260000000000000000e+02
5.662122554122571927e+00 -1.079537719463785450e+01 3.260000000000000000e+02
5.638831354504807436e+00 -9.381355440908315302e+00 3.260000000000000000e+02
5.615540154887043833e+00 -7.967333687178774326e+00 3.260000000000000000e+02
5.592248955269280231e+00 -6.553311933449234239e+00 3.260000000000000000e+02
5.568957755651515740e+00 -5.139290179719693263e+00 3.260000000000000000e+02
5.545666556033752137e+00 -3.725268425990153176e+00 3.260000000000000000e+02
5.522375356415987646e+00 -2.311246672260613089e+00 3.260000000000000000e+02
5.499084156798224043e+00 -8.972249185310721131e-01 3.260000000000000000e+02
5.685413753740336418e+00 -1.220939894836739725e+01 3.270000000000000000e+02
5.662122554122571927e+00 -1.079537719463785450e+01 3.270000000000000000e+02
5.638831354504807436e+00 -9.381355440908315302e+00 3.270000000000000000e+02
5.615540154887043833e+00 -7.967333687178774326e+00 3.270000000000000000e+02
5.592248955269280231e+00 -6.553311933449234239e+00 3.270000000000000000e+02
5.568957755651515740e+00 -5.139290179719693263e+00 3.270000000000000000e+02
5.545666556033752137e+00 -3.725268425990153176e+00 3.270000000000000000e+02
5.522375356415987646e+00 -2.311246672260613089e+00 3.270000000000000000e+02
5.499084156798224043e+00 -8.972249185310721131e-01 3.270000000000000000e+02
5.685413753740336418e+00 -1.220939894836739725e+01 3.280000000000000000e+02
5.662122554122571927e+00 -1.079537719463785450e+01 3.280000000000000000e+02
5.638831354504807436e+00 -9.381355440908315302e+00 3.280000000000000000e+02
5.615540154887043833e+00 -7.967333687178774326e+00 3.280000000000000000e+02
5.592248955269280231e+00 -6.553311933449234239e+00 3.280000000000000000e+02
5.568957755651515740e+00 -5.139290179719693263e+00 3.280000000000000000e+02
5.545666556033752137e+00 -3.725268425990153176e+00 3.280000000000000000e+02
5.522375356415987646e+00 -2.311246672260613089e+00 3.280000000000000000e+02
5.499084156798224043e+00 -8.972249185310721131e-01 3.280000000000000000e+02
5.685413753740336418e+00 -1.220939894836739725e+01 3.290000000000000000e+02
5.662122554122571927e+00 -1.079537719463785450e+01 3.290000000000000000e+02
5.638831354504807436e+00 -9.381355440908315302e+00 3.290000000000000000e+02
5.615540154887043833e+00 -7.967333687178774326e+00 3.290000000000000000e+02
5.592248955269280231e+00 -6.553311933449234239e+00 3.290000000000000000e+02
5.568957755651515740e+00 -5.139290179719693263e+00 3.290000000000000000e+02
5.545666556033752137e+00 -3.725268425990153176e+00 3.290000000000000000e+02
5.522375356415987646e+00 -2.311246672260613089e+00 3.290000000000000000e+02
5.499084156798224043e+00 -8.972249185310721131e-01 3.290000000000000000e+02
5.475792957180459553e+00 5.167968351984688624e-01 3.290000000000000000e+02
4.990048476684448175e+00 -1.292805542504104821e+01 3.300000000000000000e+02
4.966757277066683685e+00 -1.151403367131150901e+01 3.300000000000000000e+02
4.943466077448919194e+00 -1.010001191758196626e+01 3.300000000000000000e+02
4.920174877831155591e+00 -8.685990163852427060e+00 3.300000000000000000e+02
4.896883678213391988e+00 -7.271968410122886084e+00 3.300000000000000000e+02
4.873592478595627497e+00 -5.857946656393345997e+00 3.300000000000000000e+02
4.850301278977863895e+00 -4.443924902663805021e+00 3.300000000000000000e+02
4.827010079360099404e+00 -3.029903148934264934e+00 3.300000000000000000e+02
4.803718879742335801e+00 -1.615881395204724846e+00 3.300000000000000000e+02
4.780427680124571310e+00 -2.018596414751838708e-01 3.300000000000000000e+02
4.990048476684448175e+00 -1.292805542504104821e+01 3.310000000000000000e+02
4.966757277066683685e+00 -1.151403367131150901e+01 3.310000000000000000e+02
4.943466077448919194e+00 -1.010001191758196626e+01 3.310000000000000000e+02
4.920174877831155591e+00 -8.685990163852427060e+00 3.310000000000000000e+02
4.896883678213391988e+00 -7.271968410122886084e+00 3.310000000000000000e+02
4.873592478595627497e+00 -5.857946656393345997e+00 3.310000000000000000e+02
4.850301278977863895e+00 -4.443924902663805021e+00 3.310000000000000000e+02
4.827010079360099404e+00 -3.029903148934264934e+00 3.310000000000000000e+02
4.803718879742335801e+00 -1.615881395204724846e+00 3.310000000000000000e+02
4.780427680124571310e+00 -2.018596414751838708e-01 3.310000000000000000e+02
4.990048476684448175e+00 -1.292805542504104821e+01 3.320000000000000000e+02
4.966757277066683685e+00 -1.151403367131150901e+01 3.320000000000000000e+02
4.943466077448919194e+00 -1.010001191758196626e+01 3.320000000000000000e+02
4.920174877831155591e+00 -8.685990163852427060e+00 3.320000000000000000e+02
4.896883678213391988e+00 -7.271968410122886084e+00 3.320000000000000000e+02
4.873592478595627497e+00 -5.857946656393345997e+00 3.320000000000000000e+02
4.850301278977863895e+00 -4.443924902663805021e+00 3.320000000000000000e+02
4.827010079360099404e+00 -3.029903148934264934e+00 3.320000000000000000e+02
4.803718879742335801e+00 -1.615881395204724846e+00 3.320000000000000000e+02
4.780427680124571310e+00 -2.018596414751838708e-01 3.320000000000000000e+02
4.757136480506806819e+00 1.212162112254357105e+00 3.320000000000000000e+02
4.990048476684448175e+00 -1.292805542504104821e+01 3.330000000000000000e+02
4.966757277066683685e+00 -1.151403367131150901e+01 3.330000000000000000e+02
4.943466077448919194e+00 -1.010001191758196626e+01 3.330000000000000000e+02
4.920174877831155591e+00 -8.685990163852427060e+00 3.330000000000000000e+02
4.896883678213391988e+00 -7.271968410122886084e+00 3.330000000000000000e+02
4.873592478595627497e+00 -5.857946656393345997e+00 3.330000000000000000e+02
4.850301278977863895e+00 -4.443924902663805021e+00 3.330000000000000000e+02
4.827010079360099404e+00 -3.029903148934264934e+00 3.330000000000000000e+02
4.803718879742335801e+00 -1.615881395204724846e+00 3.330000000000000000e+02
4.780427680124571310e+00 -2.018596414751838708e-01 3.330000000000000000e+02
4.757136480506806819e+00 1.212162112254357105e+00 3.330000000000000000e+02
5.685413753740336418e+00 -1.220939894836739725e+01 3.340000000000000000e+02
5.662122554122571927e+00 -1.079537719463785450e+01 3.340000000000000000e+02
5.638831354504807436e+00 -9.381355440908315302e+00 3.340000000000000000e+02
5.615540154887043833e+00 -7.967333687178774326e+00 3.340000000000000000e+02
5.592248955269280231e+00 -6.553311933449234239e+00 3.340000000000000000e+02
5.568957755651515740e+00 -5.139290179719693263e+00 3.340000000000000000e+02
5.545666556033752137e+00 -3.725268425990153176e+00 3.340000000000000000e+02
5.522375356415987646e+00 -2.311246672260613089e+00 3.340000000000000000e+02
5.499084156798224043e+00 -8.972249185310721131e-01 3.340000000000000000e+02
5.475792957180459553e+00 5.167968351984688624e-01 3.340000000000000000e+02
5.685413753740336418e+00 -1.220939894836739725e+01 3.350000000000000000e+02
5.662122554122571927e+00 -1.079537719463785450e+01 3.350000000000000000e+02
5.638831354504807436e+00 -9.381355440908315302e+00 3.350000000000000000e+02
5.615540154887043833e+00 -7.967333687178774326e+00 3.350000000000000000e+02
5.592248955269280231e+00 -6.553311933449234239e+00 3.350000000000000000e+02
5.568957755651515740e+00 -5.139290179719693263e+00 3.350000000000000000e+02
5.545666556033752137e+00 -3.725268425990153176e+00 3.350000000000000000e+02
5.522375356415987646e+00 -2.311246672260613089e+00 3.350000000000000000e+02
5.499084156798224043e+00 -8.972249185310721131e-01 3.350000000000000000e+02
5.475792957180459553e+00 5.167968351984688624e-01 3.350000000000000000e+02
4.990048476684448175e+00 -1.292805542504104821e+01 3.360000000000000000e+02
4.966757277066683685e+00 -1.151403367131150901e+01 3.360000000000000000e+02
4.943466077448919194e+00 -1.010001191758196626e+01 3.360000000000000000e+02
4.920174877831155591e+00 -8.685990163852427060e+00 3.360000000000000000e+02
4.896883678213391988e+00 -7.271968410122886084e+00 3.360000000000000000e+02
4.873592478595627497e+00 -5.857946656393345997e+00 3.360000000000000000e+02
4.850301278977863895e+00 -4.443924902663805021e+00 3.360000000000000000e+02
4.827010079360099404e+00 -3.029903148934264934e+00 3.360000000000000000e+02
4.803718879742335801e+00 -1.615881395204724846e+00 3.360000000000000000e+02
4.780427680124571310e+00 -2.018596414751838708e-01 3.360000000000000000e+02
4.757136480506806819e+00 1.212162112254357105e+00 3.360000000000000000e+02
5.685413753740336418e+00 -1.220939894836739725e+01 3.370000000000000000e+02
5.662122554122571927e+00 -1.079537719463785450e+01 3.370000000000000000e+02
5.638831354504807436e+00 -9.381355440908315302e+00 3.370000000000000000e+02
5.615540154887043833e+00 -7.967333687178774326e+00 3.370000000000000000e+02
5.592248955269280231e+00 -6.553311933449234239e+00 3.370000000000000000e+02
5.568957755651515740e+00 -5.139290179719693263e+00 3.370000000000000000e+02
5.545666556033752137e+00 -3.725268425990153176e+00 3.370000000000000000e+02
5.522375356415987646e+00 -2.311246672260613089e+00 3.370000000000000000e+02
5.499084156798224043e+00 -8.972249185310721131e-01 3.370000000000000000e+02
5.475792957180459553e+00 5.167968351984688624e-01 3.370000000000000000e+02
5.685413753740336418e+00 -1.220939894836739725e+01 3.380000000000000000e+02
5.662122554122571927e+00 -1.079537719463785450e+01 3.380000000000000000e+02
5.638831354504807436e+00 -9.381355440908315302e+00 3.380000000000000000e+02
5.615540154887043833e+00 -7.967333687178774326e+00 3.380000000000000000e+02
5.592248955269280231e+00 -6.553311933449234239e+00 3.380000000000000000e+02
5.568957755651515740e+00 -5.139290179719693263e+00 3.380000000000000000e+02
5.545666556033752137e+00 -3.725268425990153176e+00 3.380000000000000000e+02
5.522375356415987646e+00 -2.311246672260613089e+00 3.380000000000000000e+02
5.499084156798224043e+00 -8.972249185310721131e-01 3.380000000000000000e+02
5.475792957180459553e+00 5.167968351984688624e-01 3.380000000000000000e+02
5.685413753740336418e+00 -1.220939894836739725e+01 3.390000000000000000e+02
5.662122554122571927e+00 -1.079537719463785450e+01 3.390000000000000000e+02
5.638831354504807436e+00 -9.381355440908315302e+00 3.390000000000000000e+02
5.615540154887043833e+00 -7.967333687178774326e+00 3.390000000000000000e+02
5.592248955269280231e+00 -6.553311933449234239e+00 3.390000000000000000e+02
5.568957755651515740e+00 -5.139290179719693263e+00 3.390000000000000000e+02
5.545666556033752137e+00 -3.725268425990153176e+00 3.390000000000000000e+02
5.522375356415987646e+00 -2.311246672260613089e+00 3.390000000000000000e+02
5.499084156798224043e+00 -8.972249185310721131e-01 3.390000000000000000e+02
5.475792957180459553e+00 5.167968351984688624e-01 3.390000000000000000e+02
5.685413753740336418e+00 -1.220939894836739725e+01 3.400000000000000000e+02
5.662122554122571927e+00 -1.079537719463785450e+01 3.400000000000000000e+02
5.638831354504807436e+00 -9.381355440908315302e+00 3.400000000000000000e+02
5.615540154887043833e+00 -7.967333687178774326e+00 3.400000000000000000e+02
5.592248955269280231e+00 -6.553311933449234239e+00 3.400000000000000000e+02
5.568957755651515740e+00 -5.139290179719693263e+00 3.400000000000000000e+02
5.545666556033752137e+00 -3.725268425990153176e+00 3.400000000000000000e+02
5.522375356415987646e+00 -2.311246672260613089e+00 3.400000000000000000e+02
5.499084156798224043e+00 -8.972249185310721131e-01 3.400000000000000000e+02
5.475792957180459553e+00 5.167968351984688624e-01 3.400000000000000000e+02
5.685413753740336418e+00 -1.220939894836739725e+01 3.410000000000000000e+02
5.662122554122571927e+00 -1.079537719463785450e+01 3.410000000000000000e+02
5.638831354504807436e+00 -9.381355440908315302e+00 3.410000000000000000e+02
5.615540154887043833e+00 -7.967333687178774326e+00 3.410000000000000000e+02
5.592248955269280231e+00 -6.553311933449234239e+00 3.410000000000000000e+02
5.568957755651515740e+00 -5.139290179719693263e+00 3.410000000000000000e+02
5.545666556033752137e+00 -3.725268425990153176e+00 3.410000000000000000e+02
5.522375356415987646e+00 -2.311246672260613089e+00 3.410000000000000000e+02
5.499084156798224043e+00 -8.972249185310721131e-01 3.410000000000000000e+02
5.475792957180459553e+00 5.167968351984688624e-01 3.410000000000000000e+02
5.685413753740336418e+00 -1.220939894836739725e+01 3.420000000000000000e+02
5.662122554122571927e+00 -1.079537719463785450e+01 3.420000000000000000e+02
5.638831354504807436e+00 -9.381355440908315302e+00 3.420000000000000000e+02
5.615540154887043833e+00 -7.967333687178774326e+00 3.420000000000000000e+02
5.592248955269280231e+00 -6.553311933449234239e+00 3.420000000000000000e+02
5.568957755651515740e+00 -5.139290179719693263e+00 3.420000000000000000e+02
5.545666556033752137e+00 -3.725268425990153176e+00 3.420000000000000000e+02
5.522375356415987646e+00 -2.311246672260613089e+00 3.420000000000000000e+02
5.499084156798224043e+00 -8.972249185310721131e-01 3.420000000000000000e+02
5.475792957180459553e+00 5.167968351984688624e-01 3.420000000000000000e+02
5.685413753740336418e+00 -1.220939894836739725e+01 3.430000000000000000e+02
5.662122554122571927e+00 -1.079537719463785450e+01 3.430000000000000000e+02
5.638831354504807436e+00 -9.381355440908315302e+00 3.430000000000000000e+02
5.615540154887043833e+00 -7.967333687178774326e+00 3.430000000000000000e+02
5.592248955269280231e+00 -6.553311933449234239e+00 3.430000000000000000e+02
5.568957755651515740e+00 -5.139290179719693263e+00 3.430000000000000000e+02
5.545666556033752137e+00 -3.725268425990153176e+00 3.430000000000000000e+02
5.522375356415987646e+00 -2.311246672260613089e+00 3.430000000000000000e+02
5.499084156798224043e+00 -8.972249185310721131e-01 3.430000000000000000e+02
5.475792957180459553e+00 5.167968351984688624e-01 3.430000000000000000e+02
5.685413753740336418e+00 -1.220939894836739725e+01 3.440000000000000000e+02
5.662122554122571927e+00 -1.079537719463785450e+01 3.440000000000000000e+02
5.638831354504807436e+00 -9.381355440908315302e+00 3.440000000000000000e+02
5.615540154887043833e+00 -7.967333687178774326e+00 3.440000000000000000e+02
5.592248955269280231e+00 -6.553311933449234239e+00 3.440000000000000000e+02
5.568957755651515740e+00 -5.139290179719693263e+00 3.440000000000000000e+02
5.545666556033752137e+00 -3.725268425990153176e+00 3.440000000000000000e+02
5.522375356415987646e+00 -2.311246672260613089e+00 3.440000000000000000e+02
5.499084156798224043e+00 -8.972249185310721131e-01 3.440000000000000000e+02
5.475792957180459553e+00 5.167968351984688624e-01 3.440000000000000000e+02
5.685413753740336418e+00 -1.220939894836739725e+01 3.450000000000000000e+02
5.662122554122571927e+00 -1.079537719463785450e+01 3.450000000000000000e+02
5.638831354504807436e+00 -9.381355440908315302e+00 3.450000000000000000e+02
5.615540154887043833e+00 -7.967333687178774326e+00 3.450000000000000000e+02
5.592248955269280231e+00 -6.553311933449234239e+00 3.450000000000000000e+02
5.568957755651515740e+00 -5.139290179719693263e+00 3.450000000000000000e+02
5.545666556033752137e+00 -3.725268425990153176e+00 3.450000000000000000e+02
5.522375356415987646e+00 -2.311246672260613089e+00 3.450000000000000000e+02
5.499084156798224043e+00 -8.972249185310721131e-01 3.450000000000000000e+02
5.475792957180459553e+00 5.167968351984688624e-01 3.450000000000000000e+02
5.685413753740336418e+00 -1.220939894836739725e+01 3.460000000000000000e+02
5.662122554122571927e+00 -1.079537719463785450e+01 3.460000000000000000e+02
5.638831354504807436e+00 -9.381355440908315302e+00 3.460000000000000000e+02
5.615540154887043833e+00 -7.967333687178774326e+00 3.460000000000000000e+02
5.592248955269280231e+00 -6.553311933449234239e+00 3.460000000000000000e+02
5.568957755651515740e+00 -5.139290179719693263e+00 3.460000000000000000e+02
5.545666556033752137e+00 -3.725268425990153176e+00 3.460000000000000000e+02
5.522375356415987646e+00 -2.311246672260613089e+00 3.460000000000000000e+02
5.499084156798224043e+00 -8.972249185310721131e-01 3.460000000000000000e+02
5.475792957180459553e+00 5.167968351984688624e-01 3.460000000000000000e+02
5.685413753740336418e+00 -1.220939894836739725e+01 3.470000000000000000e+02
5.662122554122571927e+00 -1.079537719463785450e+01 3.470000000000000000e+02
5.638831354504807436e+00 -9.381355440908315302e+00 3.470000000000000000e+02
5.615540154887043833e+00 -7.967333687178774326e+00 3.470000000000000000e+02
5.592248955269280231e+00 -6.553311933449234239e+00 3.470000000000000000e+02
5.568957755651515740e+00 -5.139290179719693263e+00 3.470000000000000000e+02
5.545666556033752137e+00 -3.725268425990153176e+00 3.470000000000000000e+02
5.522375356415987646e+00 -2.311246672260613089e+00 3.470000000000000000e+02
5.499084156798224043e+00 -8.972249185310721131e-01 3.470000000000000000e+02
5.475792957180459553e+00 5.167968351984688624e-01 3.470000000000000000e+02
5.685413753740336418e+00 -1.220939894836739725e+01 3.480000000000000000e+02
5.662122554122571927e+00 -1.079537719463785450e+01 3.480000000000000000e+02
5.638831354504807436e+00 -9.381355440908315302e+00 3.480000000000000000e+02
5.615540154887043833e+00 -7.967333687178774326e+00 3.480000000000000000e+02
5.592248955269280231e+00 -6.553311933449234239e+00 3.480000000000000000e+02
5.568957755651515740e+00 -5.139290179719693263e+00 3.480000000000000000e+02
5.545666556033752137e+00 -3.725268425990153176e+00 3.480000000000000000e+02
5.522375356415987646e+00 -2.311246672260613089e+00 3.480000000000000000e+02
5.499084156798224043e+00 -8.972249185310721131e-01 3.480000000000000000e+02
5.475792957180459553e+00 5.167968351984688624e-01 3.480000000000000000e+02
5.685413753740336418e+00 -1.220939894836739725e+01 3.490000000000000000e+02
5.662122554122571927e+00 -1.079537719463785450e+01 3.490000000000000000e+02
5.638831354504807436e+00 -9.381355440908315302e+00 3.490000000000000000e+02
5.615540154887043833e+00 -7.967333687178774326e+00 3.490000000000000000e+02
5.592248955269280231e+00 -6.553311933449234239e+00 3.490000000000000000e+02
5.568957755651515740e+00 -5.139290179719693263e+00 3.490000000000000000e+02
5.545666556033752137e+00 -3.725268425990153176e+00 3.490000000000000000e+02
5.522375356415987646e+00 -2.311246672260613089e+00 3.490000000000000000e+02
5.499084156798224043e+00 -8.972249185310721131e-01 3.490000000000000000e+02
5.475792957180459553e+00 5.167968351984688624e-01 3.490000000000000000e+02
5.685413753740336418e+00 -1.220939894836739725e+01 3.500000000000000000e+02
5.662122554122571927e+00 -1.079537719463785450e+01 3.500000000000000000e+02
5.638831354504807436e+00 -9.381355440908315302e+00 3.500000000000000000e+02
5.615540154887043833e+00 -7.967333687178774326e+00 3.500000000000000000e+02
5.592248955269280231e+00 -6.553311933449234239e+00 3.500000000000000000e+02
5.568957755651515740e+00 -5.139290179719693263e+00 3.500000000000000000e+02
5.545666556033752137e+00 -3.725268425990153176e+00 3.500000000000000000e+02
5.522375356415987646e+00 -2.311246672260613089e+00 3.500000000000000000e+02
5.499084156798224043e+00 -8.972249185310721131e-01 3.500000000000000000e+02
5.475792957180459553e+00 5.167968351984688624e-01 3.500000000000000000e+02
5.685413753740336418e+00 -1.220939894836739725e+01 3.510000000000000000e+02
5.662122554122571927e+00 -1.079537719463785450e+01 3.510000000000000000e+02
5.638831354504807436e+00 -9.381355440908315302e+00 3.510000000000000000e+02
5.615540154887043833e+00 -7.967333687178774326e+00 3.510000000000000000e+02
5.592248955269280231e+00 -6.553311933449234239e+00 3.510000000000000000e+02
5.568957755651515740e+00 -5.139290179719693263e+00 3.510000000000000000e+02
5.545666556033752137e+00 -3.725268425990153176e+00 3.510000000000000000e+02
5.522375356415987646e+00 -2.311246672260613089e+00 3.510000000000000000e+02
5.499084156798224043e+00 -8.972249185310721131e-01 3.510000000000000000e+02
5.475792957180459553e+00 5.167968351984688624e-01 3.510000000000000000e+02
4.990048476684448175e+00 -1.292805542504104821e+01 3.520000000000000000e+02
4.966757277066683685e+00 -1.151403367131150901e+01 3.520000000000000000e+02
4.943466077448919194e+00 -1.010001191758196626e+01 3.520000000000000000e+02
4.920174877831155591e+00 -8.685990163852427060e+00 3.520000000000000000e+02
4.896883678213391988e+00 -7.271968410122886084e+00 3.520000000000000000e+02
4.873592478595627497e+00 -5.857946656393345997e+00 3.520000000000000000e+02
4.850301278977863895e+00 -4.443924902663805021e+00 3.520000000000000000e+02
4.827010079360099404e+00 -3.029903148934264934e+00 3.520000000000000000e+02
4.803718879742335801e+00 -1.615881395204724846e+00 3.520000000000000000e+02
4.780427680124571310e+00 -2.018596414751838708e-01 3.520000000000000000e+02
4.757136480506806819e+00 1.212162112254357105e+00 3.520000000000000000e+02
4.990048476684448175e+00 -1.292805542504104821e+01 3.530000000000000000e+02
4.966757277066683685e+00 -1.151403367131150901e+01 3.530000000000000000e+02
4.943466077448919194e+00 -1.010001191758196626e+01 3.530000000000000000e+02
4.920174877831155591e+00 -8.685990163852427060e+00 3.530000000000000000e+02
4.896883678213391988e+00 -7.271968410122886084e+00 3.530000000000000000e+02
4.873592478595627497e+00 -5.857946656393345997e+00 3.530000000000000000e+02
4.850301278977863895e+00 -4.443924902663805021e+00 3.530000000000000000e+02
4.827010079360099404e+00 -3.029903148934264934e+00 3.530000000000000000e+02
4.803718879742335801e+00 -1.615881395204724846e+00 3.530000000000000000e+02
4.780427680124571310e+00 -2.018596414751838708e-01 3.530000000000000000e+02
4.757136480506806819e+00 1.212162112254357105e+00 3.530000000000000000e+02
4.990048476684448175e+00 -1.292805542504104821e+01 3.540000000000000000e+02
4.966757277066683685e+00 -1.151403367131150901e+01 3.540000000000000000e+02
4.943466077448919194e+00 -1.010001191758196626e+01 3.540000000000000000e+02
4.920174877831155591e+00 -8.685990163852427060e+00 3.540000000000000000e+02
4.896883678213391988e+00 -7.271968410122886084e+00 3.540000000000000000e+02
4.873592478595627497e+00 -5.857946656393345997e+00 3.540000000000000000e+02
4.850301278977863895e+00 -4.443924902663805021e+00 3.540000000000000000e+02
4.827010079360099404e+00 -3.029903148934264934e+00 3.540000000000000000e+02
4.803718879742335801e+00 -1.615881395204724846e+00 3.540000000000000000e+02
4.780427680124571310e+00 -2.018596414751838708e-01 3.540000000000000000e+02
4.757136480506806819e+00 1.212162112254357105e+00 3.540000000000000000e+02
4.990048476684448175e+00 -1.292805542504104821e+01 3.550000000000000000e+02
4.966757277066683685e+00 -1.151403367131150901e+01 3.550000000000000000e+02
4.943466077448919194e+00 -1.010001191758196626e+01 3.550000000000000000e+02
4.920174877831155591e+00 -8.685990163852427060e+00 3.550000000000000000e+02
4.896883678213391988e+00 -7.271968410122886084e+00 3.550000000000000000e+02
4.873592478595627497e+00 -5.857946656393345997e+00 3.550000000000000000e+02
4.850301278977863895e+00 -4.443924902663805021e+00 3.550000000000000000e+02
4.827010079360099404e+00 -3.029903148934264934e+00 3.550000000000000000e+02
4.803718879742335801e+00 -1.615881395204724846e+00 3.550000000000000000e+02
4.780427680124571310e+00 -2.018596414751838708e-01 3.550000000000000000e+02
4.757136480506806819e+00 1.212162112254357105e+00 3.550000000000000000e+02
4.990048476684448175e+00 -1.292805542504104821e+01 3.560000000000000000e+02
4.966757277066683685e+00 -1.151403367131150901e+01 3.560000000000000000e+02
4.943466077448919194e+00 -1.010001191758196626e+01 3.560000000000000000e+02
4.920174877831155591e+00 -8.685990163852427060e+00 3.560000000000000000e+02
4.896883678213391988e+00 -7.271968410122886084e+00 3.560000000000000000e+02
4.873592478595627497e+00 -5.857946656393345997e+00 3.560000000000000000e+02
4.850301278977863895e+00 -4.443924902663805021e+00 3.560000000000000000e+02
4.827010079360099404e+00 -3.029903148934264934e+00 3.560000000000000000e+02
4.803718879742335801e+00 -1.615881395204724846e+00 3.560000000000000000e+02
4.780427680124571310e+00 -2.018596414751838708e-01 3.560000000000000000e+02
4.757136480506806819e+00 1.212162112254357105e+00 3.560000000000000000e+02
4.990048476684448175e+00 -1.292805542504104821e+01 3.570000000000000000e+02
4.966757277066683685e+00 -1.151403367131150901e+01 3.570000000000000000e+02
4.943466077448919194e+00 -1.010001191758196626e+01 3.570000000000000000e+02
4.920174877831155591e+00 -8.685990163852427060e+00 3.570000000000000000e+02
4.896883678213391988e+00 -7.271968410122886084e+00 3.570000000000000000e+02
4.873592478595627497e+00 -5.857946656393345997e+00 3.570000000000000000e+02
4.850301278977863895e+00 -4.443924902663805021e+00 3.570000000000000000e+02
4.827010079360099404e+00 -3.029903148934264934e+00 3.570000000000000000e+02
4.803718879742335801e+00 -1.615881395204724846e+00 3.570000000000000000e+02
4.780427680124571310e+00 -2.018596414751838708e-01 3.570000000000000000e+02
4.757136480506806819e+00 1.212162112254357105e+00 3.570000000000000000e+02
4.990048476684448175e+00 -1.292805542504104821e+01 3.580000000000000000e+02
4.966757277066683685e+00 -1.151403367131150901e+01 3.580000000000000000e+02
4.943466077448919194e+00 -1.010001191758196626e+01 3.580000000000000000e+02
4.920174877831155591e+00 -8.685990163852427060e+00 3.580000000000000000e+02
4.896883678213391988e+00 -7.271968410122886084e+00 3.580000000000000000e+02
4.873592478595627497e+00 -5.857946656393345997e+00 3.580000000000000000e+02
4.850301278977863895e+00 -4.443924902663805021e+00 3.580000000000000000e+02
4.827010079360099404e+00 -3.029903148934264934e+00 3.580000000000000000e+02
4.803718879742335801e+00 -1.615881395204724846e+00 3.580000000000000000e+02
4.780427680124571310e+00 -2.018596414751838708e-01 3.580000000000000000e+02
4.757136480506806819e+00 1.212162112254357105e+00 3.580000000000000000e+02
4.990048476684448175e+00 -1.292805542504104821e+01 3.590000000000000000e+02
4.966757277066683685e+00 -1.151403367131150901e+01 3.590000000000000000e+02
4.943466077448919194e+00 -1.010001191758196626e+01 3.590000000000000000e+02
4.920174877831155591e+00 -8.685990163852427060e+00 3.590000000000000000e+02
4.896883678213391988e+00 -7.271968410122886084e+00 3.590000000000000000e+02
4.873592478595627497e+00 -5.857946656393345997e+00 3.590000000000000000e+02
4.850301278977863895e+00 -4.443924902663805021e+00 3.590000000000000000e+02
4.827010079360099404e+00 -3.029903148934264934e+00 3.590000000000000000e+02
4.803718879742335801e+00 -1.615881395204724846e+00 3.590000000000000000e+02
4.780427680124571310e+00 -2.018596414751838708e-01 3.590000000000000000e+02
4.757136480506806819e+00 1.212162112254357105e+00 3.590000000000000000e+02
4.294683199628559933e+00 -1.364671190171470094e+01 3.600000000000000000e+02
4.271392000010795442e+00 -1.223269014798515997e+01 3.600000000000000000e+02
4.248100800393030951e+00 -1.081866839425562077e+01 3.600000000000000000e+02
4.224809600775267349e+00 -9.404646640526078016e+00 3.600000000000000000e+02
4.201518401157503746e+00 -7.990624886796538817e+00 3.600000000000000000e+02
4.178227201539739255e+00 -6.576603133066997842e+00 3.600000000000000000e+02
4.154936001921974764e+00 -5.162581379337457754e+00 3.600000000000000000e+02
4.131644802304211161e+00 -3.748559625607916779e+00 3.600000000000000000e+02
4.108353602686447559e+00 -2.334537871878376691e+00 3.600000000000000000e+02
4.085062403068683068e+00 -9.205161181488366040e-01 3.600000000000000000e+02
4.061771203450918577e+00 4.935056355807043715e-01 3.600000000000000000e+02
4.038480003833154974e+00 1.907527389310245347e+00 3.600000000000000000e+02
4.294683199628559933e+00 -1.364671190171470094e+01 3.610000000000000000e+02
4.271392000010795442e+00 -1.223269014798515997e+01 3.610000000000000000e+02
4.248100800393030951e+00 -1.081866839425562077e+01 3.610000000000000000e+02
4.224809600775267349e+00 -9.404646640526078016e+00 3.610000000000000000e+02
4.201518401157503746e+00 -7.990624886796538817e+00 3.610000000000000000e+02
4.178227201539739255e+00 -6.576603133066997842e+00 3.610000000000000000e+02
4.154936001921974764e+00 -5.162581379337457754e+00 3.610000000000000000e+02
4.131644802304211161e+00 -3.748559625607916779e+00 3.610000000000000000e+02
4.108353602686447559e+00 -2.334537871878376691e+00 3.610000000000000000e+02
4.085062403068683068e+00 -9.205161181488366040e-01 3.610000000000000000e+02
4.061771203450918577e+00 4.935056355807043715e-01 3.610000000000000000e+02
4.038480003833154974e+00 1.907527389310245347e+00 3.610000000000000000e+02
4.990048476684448175e+00 -1.292805542504104821e+01 3.620000000000000000e+02
4.966757277066683685e+00 -1.151403367131150901e+01 3.620000000000000000e+02
4.943466077448919194e+00 -1.010001191758196626e+01 3.620000000000000000e+02
4.920174877831155591e+00 -8.685990163852427060e+00 3.620000000000000000e+02
4.896883678213391988e+00 -7.271968410122886084e+00 3.620000000000000000e+02
4.873592478595627497e+00 -5.857946656393345997e+00 3.620000000000000000e+02
4.850301278977863895e+00 -4.443924902663805021e+00 3.620000000000000000e+02
4.827010079360099404e+00 -3.029903148934264934e+00 3.620000000000000000e+02
4.803718879742335801e+00 -1.615881395204724846e+00 3.620000000000000000e+02
4.780427680124571310e+00 -2.018596414751838708e-01 3.620000000000000000e+02
4.757136480506806819e+00 1.212162112254357105e+00 3.620000000000000000e+02
4.733845280889043217e+00 2.626183865983896304e+00 3.620000000000000000e+02
4.640680482417988806e+00 8.282270880902061094e+00 3.620000000000000000e+02
4.617389282800224315e+00 9.696292634631600293e+00 3.620000000000000000e+02
4.990048476684448175e+00 -1.292805542504104821e+01 3.630000000000000000e+02
4.966757277066683685e+00 -1.151403367131150901e+01 3.630000000000000000e+02
4.943466077448919194e+00 -1.010001191758196626e+01 3.630000000000000000e+02
4.920174877831155591e+00 -8.685990163852427060e+00 3.630000000000000000e+02
4.896883678213391988e+00 -7.271968410122886084e+00 3.630000000000000000e+02
4.873592478595627497e+00 -5.857946656393345997e+00 3.630000000000000000e+02
4.850301278977863895e+00 -4.443924902663805021e+00 3.630000000000000000e+02
4.827010079360099404e+00 -3.029903148934264934e+00 3.630000000000000000e+02
4.803718879742335801e+00 -1.615881395204724846e+00 3.630000000000000000e+02
4.780427680124571310e+00 -2.018596414751838708e-01 3.630000000000000000e+02
4.757136480506806819e+00 1.212162112254357105e+00 3.630000000000000000e+02
4.733845280889043217e+00 2.626183865983896304e+00 3.630000000000000000e+02
4.663971682035752409e+00 6.868249127172519231e+00 3.630000000000000000e+02
4.640680482417988806e+00 8.282270880902061094e+00 3.630000000000000000e+02
4.617389282800224315e+00 9.696292634631600293e+00 3.630000000000000000e+02
5.685413753740336418e+00 -1.220939894836739725e+01 3.640000000000000000e+02
5.662122554122571927e+00 -1.079537719463785450e+01 3.640000000000000000e+02
5.638831354504807436e+00 -9.381355440908315302e+00 3.640000000000000000e+02
5.615540154887043833e+00 -7.967333687178774326e+00 3.640000000000000000e+02
5.592248955269280231e+00 -6.553311933449234239e+00 3.640000000000000000e+02
5.568957755651515740e+00 -5.139290179719693263e+00 3.640000000000000000e+02
5.545666556033752137e+00 -3.725268425990153176e+00 3.640000000000000000e+02
5.522375356415987646e+00 -2.311246672260613089e+00 3.640000000000000000e+02
5.499084156798224043e+00 -8.972249185310721131e-01 3.640000000000000000e+02
5.475792957180459553e+00 5.167968351984688624e-01 3.640000000000000000e+02
5.359336959091640651e+00 7.586905603846171964e+00 3.640000000000000000e+02
5.336045759473876160e+00 9.000927357575712051e+00 3.640000000000000000e+02
4.990048476684448175e+00 -1.292805542504104821e+01 3.650000000000000000e+02
4.966757277066683685e+00 -1.151403367131150901e+01 3.650000000000000000e+02
4.943466077448919194e+00 -1.010001191758196626e+01 3.650000000000000000e+02
4.920174877831155591e+00 -8.685990163852427060e+00 3.650000000000000000e+02
4.896883678213391988e+00 -7.271968410122886084e+00 3.650000000000000000e+02
4.873592478595627497e+00 -5.857946656393345997e+00 3.650000000000000000e+02
4.850301278977863895e+00 -4.443924902663805021e+00 3.650000000000000000e+02
4.827010079360099404e+00 -3.029903148934264934e+00 3.650000000000000000e+02
4.803718879742335801e+00 -1.615881395204724846e+00 3.650000000000000000e+02
4.780427680124571310e+00 -2.018596414751838708e-01 3.650000000000000000e+02
4.757136480506806819e+00 1.212162112254357105e+00 3.650000000000000000e+02
4.990048476684448175e+00 -1.292805542504104821e+01 3.660000000000000000e+02
4.966757277066683685e+00 -1.151403367131150901e+01 3.660000000000000000e+02
4.943466077448919194e+00 -1.010001191758196626e+01 3.660000000000000000e+02
4.920174877831155591e+00 -8.685990163852427060e+00 3.660000000000000000e+02
4.896883678213391988e+00 -7.271968410122886084e+00 3.660000000000000000e+02
4.873592478595627497e+00 -5.857946656393345997e+00 3.660000000000000000e+02
4.850301278977863895e+00 -4.443924902663805021e+00 3.660000000000000000e+02
4.827010079360099404e+00 -3.029903148934264934e+00 3.660000000000000000e+02
4.803718879742335801e+00 -1.615881395204724846e+00 3.660000000000000000e+02
4.780427680124571310e+00 -2.018596414751838708e-01 3.660000000000000000e+02
4.757136480506806819e+00 1.212162112254357105e+00 3.660000000000000000e+02
4.990048476684448175e+00 -1.292805542504104821e+01 3.670000000000000000e+02
4.966757277066683685e+00 -1.151403367131150901e+01 3.670000000000000000e+02
4.943466077448919194e+00 -1.010001191758196626e+01 3.670000000000000000e+02
4.920174877831155591e+00 -8.685990163852427060e+00 3.670000000000000000e+02
4.896883678213391988e+00 -7.271968410122886084e+00 3.670000000000000000e+02
4.873592478595627497e+00 -5.857946656393345997e+00 3.670000000000000000e+02
4.850301278977863895e+00 -4.443924902663805021e+00 3.670000000000000000e+02
4.827010079360099404e+00 -3.029903148934264934e+00 3.670000000000000000e+02
4.803718879742335801e+00 -1.615881395204724846e+00 3.670000000000000000e+02
4.780427680124571310e+00 -2.018596414751838708e-01 3.670000000000000000e+02
4.757136480506806819e+00 1.212162112254357105e+00 3.670000000000000000e+02
5.685413753740336418e+00 -1.220939894836739725e+01 3.680000000000000000e+02
5.662122554122571927e+00 -1.079537719463785450e+01 3.680000000000000000e+02
5.638831354504807436e+00 -9.381355440908315302e+00 3.680000000000000000e+02
5.615540154887043833e+00 -7.967333687178774326e+00 3.680000000000000000e+02
5.592248955269280231e+00 -6.553311933449234239e+00 3.680000000000000000e+02
5.568957755651515740e+00 -5.139290179719693263e+00 3.680000000000000000e+02
5.545666556033752137e+00 -3.725268425990153176e+00 3.680000000000000000e+02
5.522375356415987646e+00 -2.311246672260613089e+00 3.680000000000000000e+02
5.499084156798224043e+00 -8.972249185310721131e-01 3.680000000000000000e+02
5.475792957180459553e+00 5.167968351984688624e-01 3.680000000000000000e+02
5.685413753740336418e+00 -1.220939894836739725e+01 3.690000000000000000e+02
5.662122554122571927e+00 -1.079537719463785450e+01 3.690000000000000000e+02
5.638831354504807436e+00 -9.381355440908315302e+00 3.690000000000000000e+02
5.615540154887043833e+00 -7.967333687178774326e+00 3.690000000000000000e+02
5.592248955269280231e+00 -6.553311933449234239e+00 3.690000000000000000e+02
5.568957755651515740e+00 -5.139290179719693263e+00 3.690000000000000000e+02
5.545666556033752137e+00 -3.725268425990153176e+00 3.690000000000000000e+02
5.522375356415987646e+00 -2.311246672260613089e+00 3.690000000000000000e+02
5.499084156798224043e+00 -8.972249185310721131e-01 3.690000000000000000e+02
5.475792957180459553e+00 5.167968351984688624e-01 3.690000000000000000e+02
5.685413753740336418e+00 -1.220939894836739725e+01 3.700000000000000000e+02
5.662122554122571927e+00 -1.079537719463785450e+01 3.700000000000000000e+02
5.638831354504807436e+00 -9.381355440908315302e+00 3.700000000000000000e+02
5.615540154887043833e+00 -7.967333687178774326e+00 3.700000000000000000e+02
5.592248955269280231e+00 -6.553311933449234239e+00 3.700000000000000000e+02
5.568957755651515740e+00 -5.139290179719693263e+00 3.700000000000000000e+02
5.545666556033752137e+00 -3.725268425990153176e+00 3.700000000000000000e+02
5.522375356415987646e+00 -2.311246672260613089e+00 3.700000000000000000e+02
5.499084156798224043e+00 -8.972249185310721131e-01 3.700000000000000000e+02
5.475792957180459553e+00 5.167968351984688624e-01 3.700000000000000000e+02
5.685413753740336418e+00 -1.220939894836739725e+01 3.710000000000000000e+02
5.662122554122571927e+00 -1.079537719463785450e+01 3.710000000000000000e+02
5.638831354504807436e+00 -9.381355440908315302e+00 3.710000000000000000e+02
5.615540154887043833e+00 -7.967333687178774326e+00 3.710000000000000000e+02
5.592248955269280231e+00 -6.553311933449234239e+00 3.710000000000000000e+02
5.568957755651515740e+00 -5.139290179719693263e+00 3.710000000000000000e+02
5.545666556033752137e+00 -3.725268425990153176e+00 3.710000000000000000e+02
5.522375356415987646e+00 -2.311246672260613089e+00 3.710000000000000000e+02
5.499084156798224043e+00 -8.972249185310721131e-01 3.710000000000000000e+02
5.475792957180459553e+00 5.167968351984688624e-01 3.710000000000000000e+02
5.685413753740336418e+00 -1.220939894836739725e+01 3.720000000000000000e+02
5.662122554122571927e+00 -1.079537719463785450e+01 3.720000000000000000e+02
5.638831354504807436e+00 -9.381355440908315302e+00 3.720000000000000000e+02
5.615540154887043833e+00 -7.967333687178774326e+00 3.720000000000000000e+02
5.592248955269280231e+00 -6.553311933449234239e+00 3.720000000000000000e+02
5.568957755651515740e+00 -5.139290179719693263e+00 3.720000000000000000e+02
5.545666556033752137e+00 -3.725268425990153176e+00 3.720000000000000000e+02
5.522375356415987646e+00 -2.311246672260613089e+00 3.720000000000000000e+02
5.499084156798224043e+00 -8.972249185310721131e-01 3.720000000000000000e+02
5.475792957180459553e+00 5.167968351984688624e-01 3.720000000000000000e+02
5.685413753740336418e+00 -1.220939894836739725e+01 3.730000000000000000e+02
5.662122554122571927e+00 -1.079537719463785450e+01 3.730000000000000000e+02
5.638831354504807436e+00 -9.381355440908315302e+00 3.730000000000000000e+02
5.615540154887043833e+00 -7.967333687178774326e+00 3.730000000000000000e+02
5.592248955269280231e+00 -6.553311933449234239e+00 3.730000000000000000e+02
5.568957755651515740e+00 -5.139290179719693263e+00 3.730000000000000000e+02
5.545666556033752137e+00 -3.725268425990153176e+00 3.730000000000000000e+02
5.522375356415987646e+00 -2.311246672260613089e+00 3.730000000000000000e+02
5.499084156798224043e+00 -8.972249185310721131e-01 3.730000000000000000e+02
5.475792957180459553e+00 5.167968351984688624e-01 3.730000000000000000e+02
5.685413753740336418e+00 -1.220939894836739725e+01 3.740000000000000000e+02
