2.610445774199846358e+00 6.811085469768029554e+01 3.480000000000000000e+02
3.870518211032322853e+00 6.746881306823944158e+01 3.480000000000000000e+02
5.130590647864798903e+00 6.682677143879858761e+01 3.480000000000000000e+02
6.390663084697274954e+00 6.618472980935773364e+01 3.480000000000000000e+02
7.650735521529751892e+00 6.554268817991687968e+01 3.480000000000000000e+02
8.910807958362227055e+00 6.490064655047603992e+01 3.480000000000000000e+02
1.017088039519470399e+01 6.425860492103518595e+01 3.480000000000000000e+02
1.143095283202718093e+01 6.361656329159432488e+01 3.480000000000000000e+02
9.030090053489381319e-02 6.939493795656200348e+01 3.490000000000000000e+02
1.350373337367369864e+00 6.875289632712114951e+01 3.490000000000000000e+02
2.610445774199846358e+00 6.811085469768029554e+01 3.490000000000000000e+02
3.870518211032322853e+00 6.746881306823944158e+01 3.490000000000000000e+02
5.130590647864798903e+00 6.682677143879858761e+01 3.490000000000000000e+02
6.390663084697274954e+00 6.618472980935773364e+01 3.490000000000000000e+02
7.650735521529751892e+00 6.554268817991687968e+01 3.490000000000000000e+02
8.910807958362227055e+00 6.490064655047603992e+01 3.490000000000000000e+02
1.017088039519470399e+01 6.425860492103518595e+01 3.490000000000000000e+02
1.143095283202718093e+01 6.361656329159432488e+01 3.490000000000000000e+02
9.030090053489381319e-02 6.939493795656200348e+01 3.500000000000000000e+02
1.350373337367369864e+00 6.875289632712114951e+01 3.500000000000000000e+02
2.610445774199846358e+00 6.811085469768029554e+01 3.500000000000000000e+02
3.870518211032322853e+00 6.746881306823944158e+01 3.500000000000000000e+02
5.130590647864798903e+00 6.682677143879858761e+01 3.500000000000000000e+02
6.390663084697274954e+00 6.618472980935773364e+01 3.500000000000000000e+02
7.650735521529751892e+00 6.554268817991687968e+01 3.500000000000000000e+02
8.910807958362227055e+00 6.490064655047603992e+01 3.500000000000000000e+02
1.017088039519470399e+01 6.425860492103518595e+01 3.500000000000000000e+02
1.143095283202718093e+01 6.361656329159432488e+01 3.500000000000000000e+02
-2.187145031609185608e-01 7.034599498969866715e+01 3.510000000000000000e+02
1.041357933671558378e+00 6.970395336025781319e+01 3.510000000000000000e+02
2.301430370504034428e+00 6.906191173081695922e+01 3.510000000000000000e+02
3.561502807336510923e+00 6.841987010137610525e+01 3.510000000000000000e+02
4.821575244168986529e+00 6.777782847193525129e+01 3.510000000000000000e+02
6.081647681001463468e+00 6.713578684249439732e+01 3.510000000000000000e+02
7.341720117833939518e+00 6.649374521305354335e+01 3.510000000000000000e+02
8.601792554666415569e+00 6.585170358361270360e+01 3.510000000000000000e+02
9.861864991498892508e+00 6.520966195417184963e+01 3.510000000000000000e+02
1.112193742833136767e+01 6.456762032473099566e+01 3.510000000000000000e+02
1.238200986516384461e+01 6.392557869529014170e+01 3.510000000000000000e+02
-2.187145031609185608e-01 7.034599498969866715e+01 3.520000000000000000e+02
1.041357933671558378e+00 6.970395336025781319e+01 3.520000000000000000e+02
2.301430370504034428e+00 6.906191173081695922e+01 3.520000000000000000e+02
3.561502807336510923e+00 6.841987010137610525e+01 3.520000000000000000e+02
4.821575244168986529e+00 6.777782847193525129e+01 3.520000000000000000e+02
6.081647681001463468e+00 6.713578684249439732e+01 3.520000000000000000e+02
7.341720117833939518e+00 6.649374521305354335e+01 3.520000000000000000e+02
8.601792554666415569e+00 6.585170358361270360e+01 3.520000000000000000e+02
9.861864991498892508e+00 6.520966195417184963e+01 3.520000000000000000e+02
1.112193742833136767e+01 6.456762032473099566e+01 3.520000000000000000e+02
1.238200986516384461e+01 6.392557869529014170e+01 3.520000000000000000e+02
9.030090053489381319e-02 6.939493795656200348e+01 3.530000000000000000e+02
1.350373337367369864e+00 6.875289632712114951e+01 3.530000000000000000e+02
2.610445774199846358e+00 6.811085469768029554e+01 3.530000000000000000e+02
3.870518211032322853e+00 6.746881306823944158e+01 3.530000000000000000e+02
5.130590647864798903e+00 6.682677143879858761e+01 3.530000000000000000e+02
6.390663084697274954e+00 6.618472980935773364e+01 3.530000000000000000e+02
7.650735521529751892e+00 6.554268817991687968e+01 3.530000000000000000e+02
8.910807958362227055e+00 6.490064655047603992e+01 3.530000000000000000e+02
1.017088039519470399e+01 6.425860492103518595e+01 3.530000000000000000e+02
1.143095283202718093e+01 6.361656329159432488e+01 3.530000000000000000e+02
9.030090053489381319e-02 6.939493795656200348e+01 3.540000000000000000e+02
1.350373337367369864e+00 6.875289632712114951e+01 3.540000000000000000e+02
2.610445774199846358e+00 6.811085469768029554e+01 3.540000000000000000e+02
3.870518211032322853e+00 6.746881306823944158e+01 3.540000000000000000e+02
5.130590647864798903e+00 6.682677143879858761e+01 3.540000000000000000e+02
6.390663084697274954e+00 6.618472980935773364e+01 3.540000000000000000e+02
7.650735521529751892e+00 6.554268817991687968e+01 3.540000000000000000e+02
8.910807958362227055e+00 6.490064655047603992e+01 3.540000000000000000e+02
1.017088039519470399e+01 6.425860492103518595e+01 3.540000000000000000e+02
1.143095283202718093e+01 6.361656329159432488e+01 3.540000000000000000e+02
9.030090053489381319e-02 6.939493795656200348e+01 3.550000000000000000e+02
1.350373337367369864e+00 6.875289632712114951e+01 3.550000000000000000e+02
2.610445774199846358e+00 6.811085469768029554e+01 3.550000000000000000e+02
3.870518211032322853e+00 6.746881306823944158e+01 3.550000000000000000e+02
5.130590647864798903e+00 6.682677143879858761e+01 3.550000000000000000e+02
6.390663084697274954e+00 6.618472980935773364e+01 3.550000000000000000e+02
7.650735521529751892e+00 6.554268817991687968e+01 3.550000000000000000e+02
8.910807958362227055e+00 6.490064655047603992e+01 3.550000000000000000e+02
1.017088039519470399e+01 6.425860492103518595e+01 3.550000000000000000e+02
1.143095283202718093e+01 6.361656329159432488e+01 3.550000000000000000e+02
9.030090053489381319e-02 6.939493795656200348e+01 3.560000000000000000e+02
1.350373337367369864e+00 6.875289632712114951e+01 3.560000000000000000e+02
2.610445774199846358e+00 6.811085469768029554e+01 3.560000000000000000e+02
3.870518211032322853e+00 6.746881306823944158e+01 3.560000000000000000e+02
5.130590647864798903e+00 6.682677143879858761e+01 3.560000000000000000e+02
6.390663084697274954e+00 6.618472980935773364e+01 3.560000000000000000e+02
7.650735521529751892e+00 6.554268817991687968e+01 3.560000000000000000e+02
8.910807958362227055e+00 6.490064655047603992e+01 3.560000000000000000e+02
1.017088039519470399e+01 6.425860492103518595e+01 3.560000000000000000e+02
1.143095283202718093e+01 6.361656329159432488e+01 3.560000000000000000e+02
9.030090053489381319e-02 6.939493795656200348e+01 3.570000000000000000e+02
1.350373337367369864e+00 6.875289632712114951e+01 3.570000000000000000e+02
2.610445774199846358e+00 6.811085469768029554e+01 3.570000000000000000e+02
3.870518211032322853e+00 6.746881306823944158e+01 3.570000000000000000e+02
5.130590647864798903e+00 6.682677143879858761e+01 3.570000000000000000e+02
6.390663084697274954e+00 6.618472980935773364e+01 3.570000000000000000e+02
7.650735521529751892e+00 6.554268817991687968e+01 3.570000000000000000e+02
8.910807958362227055e+00 6.490064655047603992e+01 3.570000000000000000e+02
1.017088039519470399e+01 6.425860492103518595e+01 3.570000000000000000e+02
1.143095283202718093e+01 6.361656329159432488e+01 3.570000000000000000e+02
9.030090053489381319e-02 6.939493795656200348e+01 3.580000000000000000e+02
1.350373337367369864e+00 6.875289632712114951e+01 3.580000000000000000e+02
2.610445774199846358e+00 6.811085469768029554e+01 3.580000000000000000e+02
3.870518211032322853e+00 6.746881306823944158e+01 3.580000000000000000e+02
5.130590647864798903e+00 6.682677143879858761e+01 3.580000000000000000e+02
6.390663084697274954e+00 6.618472980935773364e+01 3.580000000000000000e+02
7.650735521529751892e+00 6.554268817991687968e+01 3.580000000000000000e+02
8.910807958362227055e+00 6.490064655047603992e+01 3.580000000000000000e+02
1.017088039519470399e+01 6.425860492103518595e+01 3.580000000000000000e+02
1.143095283202718093e+01 6.361656329159432488e+01 3.580000000000000000e+02
9.030090053489381319e-02 6.939493795656200348e+01 3.590000000000000000e+02
1.350373337367369864e+00 6.875289632712114951e+01 3.590000000000000000e+02
2.610445774199846358e+00 6.811085469768029554e+01 3.590000000000000000e+02
3.870518211032322853e+00 6.746881306823944158e+01 3.590000000000000000e+02
5.130590647864798903e+00 6.682677143879858761e+01 3.590000000000000000e+02
6.390663084697274954e+00 6.618472980935773364e+01 3.590000000000000000e+02
7.650735521529751892e+00 6.554268817991687968e+01 3.590000000000000000e+02
8.910807958362227055e+00 6.490064655047603992e+01 3.590000000000000000e+02
1.017088039519470399e+01 6.425860492103518595e+01 3.590000000000000000e+02
1.143095283202718093e+01 6.361656329159432488e+01 3.590000000000000000e+02
9.030090053489381319e-02 6.939493795656200348e+01 3.600000000000000000e+02
1.350373337367369864e+00 6.875289632712114951e+01 3.600000000000000000e+02
2.610445774199846358e+00 6.811085469768029554e+01 3.600000000000000000e+02
3.870518211032322853e+00 6.746881306823944158e+01 3.600000000000000000e+02
5.130590647864798903e+00 6.682677143879858761e+01 3.600000000000000000e+02
6.390663084697274954e+00 6.618472980935773364e+01 3.600000000000000000e+02
7.650735521529751892e+00 6.554268817991687968e+01 3.600000000000000000e+02
8.910807958362227055e+00 6.490064655047603992e+01 3.600000000000000000e+02
1.017088039519470399e+01 6.425860492103518595e+01 3.600000000000000000e+02
1.143095283202718093e+01 6.361656329159432488e+01 3.600000000000000000e+02
9.030090053489381319e-02 6.939493795656200348e+01 3.610000000000000000e+02
1.350373337367369864e+00 6.875289632712114951e+01 3.610000000000000000e+02
2.610445774199846358e+00 6.811085469768029554e+01 3.610000000000000000e+02
3.870518211032322853e+00 6.746881306823944158e+01 3.610000000000000000e+02
5.130590647864798903e+00 6.682677143879858761e+01 3.610000000000000000e+02
6.390663084697274954e+00 6.618472980935773364e+01 3.610000000000000000e+02
7.650735521529751892e+00 6.554268817991687968e+01 3.610000000000000000e+02
8.910807958362227055e+00 6.490064655047603992e+01 3.610000000000000000e+02
1.017088039519470399e+01 6.425860492103518595e+01 3.610000000000000000e+02
9.030090053489381319e-02 6.939493795656200348e+01 3.620000000000000000e+02
1.350373337367369864e+00 6.875289632712114951e+01 3.620000000000000000e+02
2.610445774199846358e+00 6.811085469768029554e+01 3.620000000000000000e+02
3.870518211032322853e+00 6.746881306823944158e+01 3.620000000000000000e+02
5.130590647864798903e+00 6.682677143879858761e+01 3.620000000000000000e+02
6.390663084697274954e+00 6.618472980935773364e+01 3.620000000000000000e+02
7.650735521529751892e+00 6.554268817991687968e+01 3.620000000000000000e+02
8.910807958362227055e+00 6.490064655047603992e+01 3.620000000000000000e+02
1.017088039519470399e+01 6.425860492103518595e+01 3.620000000000000000e+02
-2.187145031609185608e-01 7.034599498969866715e+01 3.630000000000000000e+02
1.041357933671558378e+00 6.970395336025781319e+01 3.630000000000000000e+02
2.301430370504034428e+00 6.906191173081695922e+01 3.630000000000000000e+02
3.561502807336510923e+00 6.841987010137610525e+01 3.630000000000000000e+02
4.821575244168986529e+00 6.777782847193525129e+01 3.630000000000000000e+02
6.081647681001463468e+00 6.713578684249439732e+01 3.630000000000000000e+02
7.341720117833939518e+00 6.649374521305354335e+01 3.630000000000000000e+02
8.601792554666415569e+00 6.585170358361270360e+01 3.630000000000000000e+02
9.861864991498892508e+00 6.520966195417184963e+01 3.630000000000000000e+02
1.112193742833136767e+01 6.456762032473099566e+01 3.630000000000000000e+02
-2.187145031609185608e-01 7.034599498969866715e+01 3.640000000000000000e+02
1.041357933671558378e+00 6.970395336025781319e+01 3.640000000000000000e+02
2.301430370504034428e+00 6.906191173081695922e+01 3.640000000000000000e+02
3.561502807336510923e+00 6.841987010137610525e+01 3.640000000000000000e+02
4.821575244168986529e+00 6.777782847193525129e+01 3.640000000000000000e+02
6.081647681001463468e+00 6.713578684249439732e+01 3.640000000000000000e+02
7.341720117833939518e+00 6.649374521305354335e+01 3.640000000000000000e+02
8.601792554666415569e+00 6.585170358361270360e+01 3.640000000000000000e+02
9.861864991498892508e+00 6.520966195417184963e+01 3.640000000000000000e+02
1.112193742833136767e+01 6.456762032473099566e+01 3.640000000000000000e+02
-2.187145031609185608e-01 7.034599498969866715e+01 3.650000000000000000e+02
1.041357933671558378e+00 6.970395336025781319e+01 3.650000000000000000e+02
2.301430370504034428e+00 6.906191173081695922e+01 3.650000000000000000e+02
3.561502807336510923e+00 6.841987010137610525e+01 3.650000000000000000e+02
4.821575244168986529e+00 6.777782847193525129e+01 3.650000000000000000e+02
6.081647681001463468e+00 6.713578684249439732e+01 3.650000000000000000e+02
7.341720117833939518e+00 6.649374521305354335e+01 3.650000000000000000e+02
8.601792554666415569e+00 6.585170358361270360e+01 3.650000000000000000e+02
9.861864991498892508e+00 6.520966195417184963e+01 3.650000000000000000e+02
1.112193742833136767e+01 6.456762032473099566e+01 3.650000000000000000e+02
1.238200986516384461e+01 6.392557869529014170e+01 3.650000000000000000e+02
9.030090053489381319e-02 6.939493795656200348e+01 3.660000000000000000e+02
1.350373337367369864e+00 6.875289632712114951e+01 3.660000000000000000e+02
2.610445774199846358e+00 6.811085469768029554e+01 3.660000000000000000e+02
3.870518211032322853e+00 6.746881306823944158e+01 3.660000000000000000e+02
5.130590647864798903e+00 6.682677143879858761e+01 3.660000000000000000e+02
6.390663084697274954e+00 6.618472980935773364e+01 3.660000000000000000e+02
7.650735521529751892e+00 6.554268817991687968e+01 3.660000000000000000e+02
8.910807958362227055e+00 6.490064655047603992e+01 3.660000000000000000e+02
1.017088039519470399e+01 6.425860492103518595e+01 3.660000000000000000e+02
1.143095283202718093e+01 6.361656329159432488e+01 3.660000000000000000e+02
9.030090053489381319e-02 6.939493795656200348e+01 3.670000000000000000e+02
1.350373337367369864e+00 6.875289632712114951e+01 3.670000000000000000e+02
2.610445774199846358e+00 6.811085469768029554e+01 3.670000000000000000e+02
3.870518211032322853e+00 6.746881306823944158e+01 3.670000000000000000e+02
5.130590647864798903e+00 6.682677143879858761e+01 3.670000000000000000e+02
6.390663084697274954e+00 6.618472980935773364e+01 3.670000000000000000e+02
7.650735521529751892e+00 6.554268817991687968e+01 3.670000000000000000e+02
8.910807958362227055e+00 6.490064655047603992e+01 3.670000000000000000e+02
1.017088039519470399e+01 6.425860492103518595e+01 3.670000000000000000e+02
1.143095283202718093e+01 6.361656329159432488e+01 3.670000000000000000e+02
9.030090053489381319e-02 6.939493795656200348e+01 3.680000000000000000e+02
1.350373337367369864e+00 6.875289632712114951e+01 3.680000000000000000e+02
2.610445774199846358e+00 6.811085469768029554e+01 3.680000000000000000e+02
3.870518211032322853e+00 6.746881306823944158e+01 3.680000000000000000e+02
5.130590647864798903e+00 6.682677143879858761e+01 3.680000000000000000e+02
6.390663084697274954e+00 6.618472980935773364e+01 3.680000000000000000e+02
7.650735521529751892e+00 6.554268817991687968e+01 3.680000000000000000e+02
8.910807958362227055e+00 6.490064655047603992e+01 3.680000000000000000e+02
1.017088039519470399e+01 6.425860492103518595e+01 3.680000000000000000e+02
1.143095283202718093e+01 6.361656329159432488e+01 3.680000000000000000e+02
9.030090053489381319e-02 6.939493795656200348e+01 3.690000000000000000e+02
1.350373337367369864e+00 6.875289632712114951e+01 3.690000000000000000e+02
2.610445774199846358e+00 6.811085469768029554e+01 3.690000000000000000e+02
3.870518211032322853e+00 6.746881306823944158e+01 3.690000000000000000e+02
5.130590647864798903e+00 6.682677143879858761e+01 3.690000000000000000e+02
6.390663084697274954e+00 6.618472980935773364e+01 3.690000000000000000e+02
7.650735521529751892e+00 6.554268817991687968e+01 3.690000000000000000e+02
8.910807958362227055e+00 6.490064655047603992e+01 3.690000000000000000e+02
1.017088039519470399e+01 6.425860492103518595e+01 3.690000000000000000e+02
1.143095283202718093e+01 6.361656329159432488e+01 3.690000000000000000e+02
9.030090053489381319e-02 6.939493795656200348e+01 3.700000000000000000e+02
1.350373337367369864e+00 6.875289632712114951e+01 3.700000000000000000e+02
2.610445774199846358e+00 6.811085469768029554e+01 3.700000000000000000e+02
3.870518211032322853e+00 6.746881306823944158e+01 3.700000000000000000e+02
5.130590647864798903e+00 6.682677143879858761e+01 3.700000000000000000e+02
6.390663084697274954e+00 6.618472980935773364e+01 3.700000000000000000e+02
7.650735521529751892e+00 6.554268817991687968e+01 3.700000000000000000e+02
8.910807958362227055e+00 6.490064655047603992e+01 3.700000000000000000e+02
1.017088039519470399e+01 6.425860492103518595e+01 3.700000000000000000e+02
9.030090053489381319e-02 6.939493795656200348e+01 3.710000000000000000e+02
1.350373337367369864e+00 6.875289632712114951e+01 3.710000000000000000e+02
2.610445774199846358e+00 6.811085469768029554e+01 3.710000000000000000e+02
3.870518211032322853e+00 6.746881306823944158e+01 3.710000000000000000e+02
5.130590647864798903e+00 6.682677143879858761e+01 3.710000000000000000e+02
6.390663084697274954e+00 6.618472980935773364e+01 3.710000000000000000e+02
7.650735521529751892e+00 6.554268817991687968e+01 3.710000000000000000e+02
8.910807958362227055e+00 6.490064655047603992e+01 3.710000000000000000e+02
1.017088039519470399e+01 6.425860492103518595e+01 3.710000000000000000e+02
1.143095283202718093e+01 6.361656329159432488e+01 3.710000000000000000e+02
9.030090053489381319e-02 6.939493795656200348e+01 3.720000000000000000e+02
1.350373337367369864e+00 6.875289632712114951e+01 3.720000000000000000e+02
2.610445774199846358e+00 6.811085469768029554e+01 3.720000000000000000e+02
3.870518211032322853e+00 6.746881306823944158e+01 3.720000000000000000e+02
5.130590647864798903e+00 6.682677143879858761e+01 3.720000000000000000e+02
6.390663084697274954e+00 6.618472980935773364e+01 3.720000000000000000e+02
7.650735521529751892e+00 6.554268817991687968e+01 3.720000000000000000e+02
8.910807958362227055e+00 6.490064655047603992e+01 3.720000000000000000e+02
1.017088039519470399e+01 6.425860492103518595e+01 3.720000000000000000e+02
1.143095283202718093e+01 6.361656329159432488e+01 3.720000000000000000e+02
9.030090053489381319e-02 6.939493795656200348e+01 3.730000000000000000e+02
1.350373337367369864e+00 6.875289632712114951e+01 3.730000000000000000e+02
2.610445774199846358e+00 6.811085469768029554e+01 3.730000000000000000e+02
3.870518211032322853e+00 6.746881306823944158e+01 3.730000000000000000e+02
5.130590647864798903e+00 6.682677143879858761e+01 3.730000000000000000e+02
6.390663084697274954e+00 6.618472980935773364e+01 3.730000000000000000e+02
7.650735521529751892e+00 6.554268817991687968e+01 3.730000000000000000e+02
8.910807958362227055e+00 6.490064655047603992e+01 3.730000000000000000e+02
1.017088039519470399e+01 6.425860492103518595e+01 3.730000000000000000e+02
1.143095283202718093e+01 6.361656329159432488e+01 3.730000000000000000e+02
9.030090053489381319e-02 6.939493795656200348e+01 3.740000000000000000e+02
1.350373337367369864e+00 6.875289632712114951e+01 3.740000000000000000e+02
2.610445774199846358e+00 6.811085469768029554e+01 3.740000000000000000e+02
3.870518211032322853e+00 6.746881306823944158e+01 3.740000000000000000e+02
5.130590647864798903e+00 6.682677143879858761e+01 3.740000000000000000e+02
6.390663084697274954e+00 6.618472980935773364e+01 3.740000000000000000e+02
7.650735521529751892e+00 6.554268817991687968e+01 3.740000000000000000e+02
8.910807958362227055e+00 6.490064655047603992e+01 3.740000000000000000e+02
1.017088039519470399e+01 6.425860492103518595e+01 3.740000000000000000e+02
1.143095283202718093e+01 6.361656329159432488e+01 3.740000000000000000e+02
9.030090053489381319e-02 6.939493795656200348e+01 3.750000000000000000e+02
1.350373337367369864e+00 6.875289632712114951e+01 3.750000000000000000e+02
2.610445774199846358e+00 6.811085469768029554e+01 3.750000000000000000e+02
3.870518211032322853e+00 6.746881306823944158e+01 3.750000000000000000e+02
5.130590647864798903e+00 6.682677143879858761e+01 3.750000000000000000e+02
6.390663084697274954e+00 6.618472980935773364e+01 3.750000000000000000e+02
7.650735521529751892e+00 6.554268817991687968e+01 3.750000000000000000e+02
8.910807958362227055e+00 6.490064655047603992e+01 3.750000000000000000e+02
1.017088039519470399e+01 6.425860492103518595e+01 3.750000000000000000e+02
1.143095283202718093e+01 6.361656329159432488e+01 3.750000000000000000e+02
9.030090053489381319e-02 6.939493795656200348e+01 3.760000000000000000e+02
1.350373337367369864e+00 6.875289632712114951e+01 3.760000000000000000e+02
2.610445774199846358e+00 6.811085469768029554e+01 3.760000000000000000e+02
3.870518211032322853e+00 6.746881306823944158e+01 3.760000000000000000e+02
5.130590647864798903e+00 6.682677143879858761e+01 3.760000000000000000e+02
6.390663084697274954e+00 6.618472980935773364e+01 3.760000000000000000e+02
7.650735521529751892e+00 6.554268817991687968e+01 3.760000000000000000e+02
8.910807958362227055e+00 6.490064655047603992e+01 3.760000000000000000e+02
1.017088039519470399e+01 6.425860492103518595e+01 3.760000000000000000e+02
1.143095283202718093e+01 6.361656329159432488e+01 3.760000000000000000e+02
9.030090053489381319e-02 6.939493795656200348e+01 3.770000000000000000e+02
1.350373337367369864e+00 6.875289632712114951e+01 3.770000000000000000e+02
2.610445774199846358e+00 6.811085469768029554e+01 3.770000000000000000e+02
3.870518211032322853e+00 6.746881306823944158e+01 3.770000000000000000e+02
5.130590647864798903e+00 6.682677143879858761e+01 3.770000000000000000e+02
6.390663084697274954e+00 6.618472980935773364e+01 3.770000000000000000e+02
7.650735521529751892e+00 6.554268817991687968e+01 3.770000000000000000e+02
8.910807958362227055e+00 6.490064655047603992e+01 3.770000000000000000e+02
1.017088039519470399e+01 6.425860492103518595e+01 3.770000000000000000e+02
1.143095283202718093e+01 6.361656329159432488e+01 3.770000000000000000e+02
9.030090053489381319e-02 6.939493795656200348e+01 3.780000000000000000e+02
1.350373337367369864e+00 6.875289632712114951e+01 3.780000000000000000e+02
2.610445774199846358e+00 6.811085469768029554e+01 3.780000000000000000e+02
3.870518211032322853e+00 6.746881306823944158e+01 3.780000000000000000e+02
5.130590647864798903e+00 6.682677143879858761e+01 3.780000000000000000e+02
6.390663084697274954e+00 6.618472980935773364e+01 3.780000000000000000e+02
7.650735521529751892e+00 6.554268817991687968e+01 3.780000000000000000e+02
8.910807958362227055e+00 6.490064655047603992e+01 3.780000000000000000e+02
1.017088039519470399e+01 6.425860492103518595e+01 3.780000000000000000e+02
1.143095283202718093e+01 6.361656329159432488e+01 3.780000000000000000e+02
9.030090053489381319e-02 6.939493795656200348e+01 3.790000000000000000e+02
1.350373337367369864e+00 6.875289632712114951e+01 3.790000000000000000e+02
2.610445774199846358e+00 6.811085469768029554e+01 3.790000000000000000e+02
3.870518211032322853e+00 6.746881306823944158e+01 3.790000000000000000e+02
5.130590647864798903e+00 6.682677143879858761e+01 3.790000000000000000e+02
6.390663084697274954e+00 6.618472980935773364e+01 3.790000000000000000e+02
7.650735521529751892e+00 6.554268817991687968e+01 3.790000000000000000e+02
8.910807958362227055e+00 6.490064655047603992e+01 3.790000000000000000e+02
1.017088039519470399e+01 6.425860492103518595e+01 3.790000000000000000e+02
9.030090053489381319e-02 6.939493795656200348e+01 3.800000000000000000e+02
1.350373337367369864e+00 6.875289632712114951e+01 3.800000000000000000e+02
2.610445774199846358e+00 6.811085469768029554e+01 3.800000000000000000e+02
3.870518211032322853e+00 6.746881306823944158e+01 3.800000000000000000e+02
5.130590647864798903e+00 6.682677143879858761e+01 3.800000000000000000e+02
6.390663084697274954e+00 6.618472980935773364e+01 3.800000000000000000e+02
7.650735521529751892e+00 6.554268817991687968e+01 3.800000000000000000e+02
8.910807958362227055e+00 6.490064655047603992e+01 3.800000000000000000e+02
1.017088039519470399e+01 6.425860492103518595e+01 3.800000000000000000e+02
9.030090053489381319e-02 6.939493795656200348e+01 3.810000000000000000e+02
1.350373337367369864e+00 6.875289632712114951e+01 3.810000000000000000e+02
2.610445774199846358e+00 6.811085469768029554e+01 3.810000000000000000e+02
3.870518211032322853e+00 6.746881306823944158e+01 3.810000000000000000e+02
5.130590647864798903e+00 6.682677143879858761e+01 3.810000000000000000e+02
6.390663084697274954e+00 6.618472980935773364e+01 3.810000000000000000e+02
7.650735521529751892e+00 6.554268817991687968e+01 3.810000000000000000e+02
8.910807958362227055e+00 6.490064655047603992e+01 3.810000000000000000e+02
1.017088039519470399e+01 6.425860492103518595e+01 3.810000000000000000e+02
9.030090053489381319e-02 6.939493795656200348e+01 3.820000000000000000e+02
1.350373337367369864e+00 6.875289632712114951e+01 3.820000000000000000e+02
2.610445774199846358e+00 6.811085469768029554e+01 3.820000000000000000e+02
3.870518211032322853e+00 6.746881306823944158e+01 3.820000000000000000e+02
5.130590647864798903e+00 6.682677143879858761e+01 3.820000000000000000e+02
6.390663084697274954e+00 6.618472980935773364e+01 3.820000000000000000e+02
7.650735521529751892e+00 6.554268817991687968e+01 3.820000000000000000e+02
8.910807958362227055e+00 6.490064655047603992e+01 3.820000000000000000e+02
1.017088039519470399e+01 6.425860492103518595e+01 3.820000000000000000e+02
9.030090053489381319e-02 6.939493795656200348e+01 3.830000000000000000e+02
1.350373337367369864e+00 6.875289632712114951e+01 3.830000000000000000e+02
2.610445774199846358e+00 6.811085469768029554e+01 3.830000000000000000e+02
3.870518211032322853e+00 6.746881306823944158e+01 3.830000000000000000e+02
5.130590647864798903e+00 6.682677143879858761e+01 3.830000000000000000e+02
6.390663084697274954e+00 6.618472980935773364e+01 3.830000000000000000e+02
7.650735521529751892e+00 6.554268817991687968e+01 3.830000000000000000e+02
8.910807958362227055e+00 6.490064655047603992e+01 3.830000000000000000e+02
1.017088039519470399e+01 6.425860492103518595e+01 3.830000000000000000e+02
1.143095283202718093e+01 6.361656329159432488e+01 3.830000000000000000e+02
9.030090053489381319e-02 6.939493795656200348e+01 3.840000000000000000e+02
1.350373337367369864e+00 6.875289632712114951e+01 3.840000000000000000e+02
2.610445774199846358e+00 6.811085469768029554e+01 3.840000000000000000e+02
3.870518211032322853e+00 6.746881306823944158e+01 3.840000000000000000e+02
5.130590647864798903e+00 6.682677143879858761e+01 3.840000000000000000e+02
6.390663084697274954e+00 6.618472980935773364e+01 3.840000000000000000e+02
7.650735521529751892e+00 6.554268817991687968e+01 3.840000000000000000e+02
8.910807958362227055e+00 6.490064655047603992e+01 3.840000000000000000e+02
1.017088039519470399e+01 6.425860492103518595e+01 3.840000000000000000e+02
1.143095283202718093e+01 6.361656329159432488e+01 3.840000000000000000e+02
9.030090053489381319e-02 6.939493795656200348e+01 3.850000000000000000e+02
1.350373337367369864e+00 6.875289632712114951e+01 3.850000000000000000e+02
2.610445774199846358e+00 6.811085469768029554e+01 3.850000000000000000e+02
3.870518211032322853e+00 6.746881306823944158e+01 3.850000000000000000e+02
5.130590647864798903e+00 6.682677143879858761e+01 3.850000000000000000e+02
6.390663084697274954e+00 6.618472980935773364e+01 3.850000000000000000e+02
7.650735521529751892e+00 6.554268817991687968e+01 3.850000000000000000e+02
8.910807958362227055e+00 6.490064655047603992e+01 3.850000000000000000e+02
1.017088039519470399e+01 6.425860492103518595e+01 3.850000000000000000e+02
1.143095283202718093e+01 6.361656329159432488e+01 3.850000000000000000e+02
9.030090053489381319e-02 6.939493795656200348e+01 3.860000000000000000e+02
1.350373337367369864e+00 6.875289632712114951e+01 3.860000000000000000e+02
2.610445774199846358e+00 6.811085469768029554e+01 3.860000000000000000e+02
3.870518211032322853e+00 6.746881306823944158e+01 3.860000000000000000e+02
5.130590647864798903e+00 6.682677143879858761e+01 3.860000000000000000e+02
6.390663084697274954e+00 6.618472980935773364e+01 3.860000000000000000e+02
7.650735521529751892e+00 6.554268817991687968e+01 3.860000000000000000e+02
8.910807958362227055e+00 6.490064655047603992e+01 3.860000000000000000e+02
1.017088039519470399e+01 6.425860492103518595e+01 3.860000000000000000e+02
1.143095283202718093e+01 6.361656329159432488e+01 3.860000000000000000e+02
9.030090053489381319e-02 6.939493795656200348e+01 3.870000000000000000e+02
1.350373337367369864e+00 6.875289632712114951e+01 3.870000000000000000e+02
2.610445774199846358e+00 6.811085469768029554e+01 3.870000000000000000e+02
3.870518211032322853e+00 6.746881306823944158e+01 3.870000000000000000e+02
5.130590647864798903e+00 6.682677143879858761e+01 3.870000000000000000e+02
6.390663084697274954e+00 6.618472980935773364e+01 3.870000000000000000e+02
7.650735521529751892e+00 6.554268817991687968e+01 3.870000000000000000e+02
8.910807958362227055e+00 6.490064655047603992e+01 3.870000000000000000e+02
1.017088039519470399e+01 6.425860492103518595e+01 3.870000000000000000e+02
1.143095283202718093e+01 6.361656329159432488e+01 3.870000000000000000e+02
9.030090053489381319e-02 6.939493795656200348e+01 3.880000000000000000e+02
1.350373337367369864e+00 6.875289632712114951e+01 3.880000000000000000e+02
2.610445774199846358e+00 6.811085469768029554e+01 3.880000000000000000e+02
3.870518211032322853e+00 6.746881306823944158e+01 3.880000000000000000e+02
5.130590647864798903e+00 6.682677143879858761e+01 3.880000000000000000e+02
6.390663084697274954e+00 6.618472980935773364e+01 3.880000000000000000e+02
7.650735521529751892e+00 6.554268817991687968e+01 3.880000000000000000e+02
8.910807958362227055e+00 6.490064655047603992e+01 3.880000000000000000e+02
1.017088039519470399e+01 6.425860492103518595e+01 3.880000000000000000e+02
1.143095283202718093e+01 6.361656329159432488e+01 3.880000000000000000e+02
9.030090053489381319e-02 6.939493795656200348e+01 3.890000000000000000e+02
1.350373337367369864e+00 6.875289632712114951e+01 3.890000000000000000e+02
2.610445774199846358e+00 6.811085469768029554e+01 3.890000000000000000e+02
3.870518211032322853e+00 6.746881306823944158e+01 3.890000000000000000e+02
5.130590647864798903e+00 6.682677143879858761e+01 3.890000000000000000e+02
6.390663084697274954e+00 6.618472980935773364e+01 3.890000000000000000e+02
7.650735521529751892e+00 6.554268817991687968e+01 3.890000000000000000e+02
8.910807958362227055e+00 6.490064655047603992e+01 3.890000000000000000e+02
1.017088039519470399e+01 6.425860492103518595e+01 3.890000000000000000e+02
1.143095283202718093e+01 6.361656329159432488e+01 3.890000000000000000e+02
9.030090053489381319e-02 6.939493795656200348e+01 3.900000000000000000e+02
1.350373337367369864e+00 6.875289632712114951e+01 3.900000000000000000e+02
2.610445774199846358e+00 6.811085469768029554e+01 3.900000000000000000e+02
3.870518211032322853e+00 6.746881306823944158e+01 3.900000000000000000e+02
5.130590647864798903e+00 6.682677143879858761e+01 3.900000000000000000e+02
6.390663084697274954e+00 6.618472980935773364e+01 3.900000000000000000e+02
7.650735521529751892e+00 6.554268817991687968e+01 3.900000000000000000e+02
8.910807958362227055e+00 6.490064655047603992e+01 3.900000000000000000e+02
1.017088039519470399e+01 6.425860492103518595e+01 3.900000000000000000e+02
1.143095283202718093e+01 6.361656329159432488e+01 3.900000000000000000e+02
9.030090053489381319e-02 6.939493795656200348e+01 3.910000000000000000e+02
1.350373337367369864e+00 6.875289632712114951e+01 3.910000000000000000e+02
2.610445774199846358e+00 6.811085469768029554e+01 3.910000000000000000e+02
3.870518211032322853e+00 6.746881306823944158e+01 3.910000000000000000e+02
5.130590647864798903e+00 6.682677143879858761e+01 3.910000000000000000e+02
6.390663084697274954e+00 6.618472980935773364e+01 3.910000000000000000e+02
7.650735521529751892e+00 6.554268817991687968e+01 3.910000000000000000e+02
8.910807958362227055e+00 6.490064655047603992e+01 3.910000000000000000e+02
1.017088039519470399e+01 6.425860492103518595e+01 3.910000000000000000e+02
1.143095283202718093e+01 6.361656329159432488e+01 3.910000000000000000e+02
3.993163042307052990e-01 6.844388092342533980e+01 3.920000000000000000e+02
1.659388741063181794e+00 6.780183929398448583e+01 3.920000000000000000e+02
2.919461177895658288e+00 6.715979766454363187e+01 3.920000000000000000e+02
4.179533614728134339e+00 6.651775603510277790e+01 3.920000000000000000e+02
5.439606051560610389e+00 6.587571440566192393e+01 3.920000000000000000e+02
6.699678488393087328e+00 6.523367277622106997e+01 3.920000000000000000e+02
7.959750925225563378e+00 6.459163114678021600e+01 3.920000000000000000e+02
9.219823362058040317e+00 6.394958951733936914e+01 3.920000000000000000e+02
1.047989579889051726e+01 6.330754788789851517e+01 3.920000000000000000e+02
3.993163042307052990e-01 6.844388092342533980e+01 3.930000000000000000e+02
1.659388741063181794e+00 6.780183929398448583e+01 3.930000000000000000e+02
2.919461177895658288e+00 6.715979766454363187e+01 3.930000000000000000e+02
4.179533614728134339e+00 6.651775603510277790e+01 3.930000000000000000e+02
5.439606051560610389e+00 6.587571440566192393e+01 3.930000000000000000e+02
6.699678488393087328e+00 6.523367277622106997e+01 3.930000000000000000e+02
7.959750925225563378e+00 6.459163114678021600e+01 3.930000000000000000e+02
9.219823362058040317e+00 6.394958951733936914e+01 3.930000000000000000e+02
1.047989579889051726e+01 6.330754788789851517e+01 3.930000000000000000e+02
9.030090053489381319e-02 6.939493795656200348e+01 3.940000000000000000e+02
1.350373337367369864e+00 6.875289632712114951e+01 3.940000000000000000e+02
2.610445774199846358e+00 6.811085469768029554e+01 3.940000000000000000e+02
3.870518211032322853e+00 6.746881306823944158e+01 3.940000000000000000e+02
5.130590647864798903e+00 6.682677143879858761e+01 3.940000000000000000e+02
6.390663084697274954e+00 6.618472980935773364e+01 3.940000000000000000e+02
7.650735521529751892e+00 6.554268817991687968e+01 3.940000000000000000e+02
8.910807958362227055e+00 6.490064655047603992e+01 3.940000000000000000e+02
1.017088039519470399e+01 6.425860492103518595e+01 3.940000000000000000e+02
1.143095283202718093e+01 6.361656329159432488e+01 3.940000000000000000e+02
3.993163042307052990e-01 6.844388092342533980e+01 3.950000000000000000e+02
1.659388741063181794e+00 6.780183929398448583e+01 3.950000000000000000e+02
2.919461177895658288e+00 6.715979766454363187e+01 3.950000000000000000e+02
4.179533614728134339e+00 6.651775603510277790e+01 3.950000000000000000e+02
5.439606051560610389e+00 6.587571440566192393e+01 3.950000000000000000e+02
6.699678488393087328e+00 6.523367277622106997e+01 3.950000000000000000e+02
7.959750925225563378e+00 6.459163114678021600e+01 3.950000000000000000e+02
9.219823362058040317e+00 6.394958951733936914e+01 3.950000000000000000e+02
3.993163042307052990e-01 6.844388092342533980e+01 3.960000000000000000e+02
1.659388741063181794e+00 6.780183929398448583e+01 3.960000000000000000e+02
2.919461177895658288e+00 6.715979766454363187e+01 3.960000000000000000e+02
4.179533614728134339e+00 6.651775603510277790e+01 3.960000000000000000e+02
5.439606051560610389e+00 6.587571440566192393e+01 3.960000000000000000e+02
6.699678488393087328e+00 6.523367277622106997e+01 3.960000000000000000e+02
7.959750925225563378e+00 6.459163114678021600e+01 3.960000000000000000e+02
9.219823362058040317e+00 6.394958951733936914e+01 3.960000000000000000e+02
1.047989579889051726e+01 6.330754788789851517e+01 3.960000000000000000e+02
9.030090053489381319e-02 6.939493795656200348e+01 3.970000000000000000e+02
1.350373337367369864e+00 6.875289632712114951e+01 3.970000000000000000e+02
2.610445774199846358e+00 6.811085469768029554e+01 3.970000000000000000e+02
3.870518211032322853e+00 6.746881306823944158e+01 3.970000000000000000e+02
5.130590647864798903e+00 6.682677143879858761e+01 3.970000000000000000e+02
6.390663084697274954e+00 6.618472980935773364e+01 3.970000000000000000e+02
7.650735521529751892e+00 6.554268817991687968e+01 3.970000000000000000e+02
8.910807958362227055e+00 6.490064655047603992e+01 3.970000000000000000e+02
1.017088039519470399e+01 6.425860492103518595e+01 3.970000000000000000e+02
1.143095283202718093e+01 6.361656329159432488e+01 3.970000000000000000e+02
9.030090053489381319e-02 6.939493795656200348e+01 3.980000000000000000e+02
1.350373337367369864e+00 6.875289632712114951e+01 3.980000000000000000e+02
2.610445774199846358e+00 6.811085469768029554e+01 3.980000000000000000e+02
3.870518211032322853e+00 6.746881306823944158e+01 3.980000000000000000e+02
5.130590647864798903e+00 6.682677143879858761e+01 3.980000000000000000e+02
6.390663084697274954e+00 6.618472980935773364e+01 3.980000000000000000e+02
7.650735521529751892e+00 6.554268817991687968e+01 3.980000000000000000e+02
8.910807958362227055e+00 6.490064655047603992e+01 3.980000000000000000e+02
1.017088039519470399e+01 6.425860492103518595e+01 3.980000000000000000e+02
1.143095283202718093e+01 6.361656329159432488e+01 3.980000000000000000e+02
3.993163042307052990e-01 6.844388092342533980e+01 3.990000000000000000e+02
1.659388741063181794e+00 6.780183929398448583e+01 3.990000000000000000e+02
2.919461177895658288e+00 6.715979766454363187e+01 3.990000000000000000e+02
4.179533614728134339e+00 6.651775603510277790e+01 3.990000000000000000e+02
5.439606051560610389e+00 6.587571440566192393e+01 3.990000000000000000e+02
6.699678488393087328e+00 6.523367277622106997e+01 3.990000000000000000e+02
7.959750925225563378e+00 6.459163114678021600e+01 3.990000000000000000e+02
9.219823362058040317e+00 6.394958951733936914e+01 3.990000000000000000e+02
1.047989579889051726e+01 6.330754788789851517e+01 3.990000000000000000e+02
3.993163042307052990e-01 6.844388092342533980e+01 4.000000000000000000e+02
1.659388741063181794e+00 6.780183929398448583e+01 4.000000000000000000e+02
2.919461177895658288e+00 6.715979766454363187e+01 4.000000000000000000e+02
4.179533614728134339e+00 6.651775603510277790e+01 4.000000000000000000e+02
5.439606051560610389e+00 6.587571440566192393e+01 4.000000000000000000e+02
6.699678488393087328e+00 6.523367277622106997e+01 4.000000000000000000e+02
7.959750925225563378e+00 6.459163114678021600e+01 4.000000000000000000e+02
9.219823362058040317e+00 6.394958951733936914e+01 4.000000000000000000e+02
1.047989579889051726e+01 6.330754788789851517e+01 4.000000000000000000e+02
3.993163042307052990e-01 6.844388092342533980e+01 4.010000000000000000e+02
1.659388741063181794e+00 6.780183929398448583e+01 4.010000000000000000e+02
2.919461177895658288e+00 6.715979766454363187e+01 4.010000000000000000e+02
4.179533614728134339e+00 6.651775603510277790e+01 4.010000000000000000e+02
5.439606051560610389e+00 6.587571440566192393e+01 4.010000000000000000e+02
6.699678488393087328e+00 6.523367277622106997e+01 4.010000000000000000e+02
7.959750925225563378e+00 6.459163114678021600e+01 4.010000000000000000e+02
9.219823362058040317e+00 6.394958951733936914e+01 4.010000000000000000e+02
1.047989579889051726e+01 6.330754788789851517e+01 4.010000000000000000e+02
3.993163042307052990e-01 6.844388092342533980e+01 4.020000000000000000e+02
1.659388741063181794e+00 6.780183929398448583e+01 4.020000000000000000e+02
2.919461177895658288e+00 6.715979766454363187e+01 4.020000000000000000e+02
4.179533614728134339e+00 6.651775603510277790e+01 4.020000000000000000e+02
5.439606051560610389e+00 6.587571440566192393e+01 4.020000000000000000e+02
6.699678488393087328e+00 6.523367277622106997e+01 4.020000000000000000e+02
7.959750925225563378e+00 6.459163114678021600e+01 4.020000000000000000e+02
9.219823362058040317e+00 6.394958951733936914e+01 4.020000000000000000e+02
1.047989579889051726e+01 6.330754788789851517e+01 4.020000000000000000e+02
3.993163042307052990e-01 6.844388092342533980e+01 4.030000000000000000e+02
1.659388741063181794e+00 6.780183929398448583e+01 4.030000000000000000e+02
2.919461177895658288e+00 6.715979766454363187e+01 4.030000000000000000e+02
4.179533614728134339e+00 6.651775603510277790e+01 4.030000000000000000e+02
5.439606051560610389e+00 6.587571440566192393e+01 4.030000000000000000e+02
6.699678488393087328e+00 6.523367277622106997e+01 4.030000000000000000e+02
7.959750925225563378e+00 6.459163114678021600e+01 4.030000000000000000e+02
9.219823362058040317e+00 6.394958951733936914e+01 4.030000000000000000e+02
1.047989579889051726e+01 6.330754788789851517e+01 4.030000000000000000e+02
9.030090053489381319e-02 6.939493795656200348e+01 4.040000000000000000e+02
1.350373337367369864e+00 6.875289632712114951e+01 4.040000000000000000e+02
2.610445774199846358e+00 6.811085469768029554e+01 4.040000000000000000e+02
3.870518211032322853e+00 6.746881306823944158e+01 4.040000000000000000e+02
5.130590647864798903e+00 6.682677143879858761e+01 4.040000000000000000e+02
6.390663084697274954e+00 6.618472980935773364e+01 4.040000000000000000e+02
7.650735521529751892e+00 6.554268817991687968e+01 4.040000000000000000e+02
8.910807958362227055e+00 6.490064655047603992e+01 4.040000000000000000e+02
1.017088039519470399e+01 6.425860492103518595e+01 4.040000000000000000e+02
1.143095283202718093e+01 6.361656329159432488e+01 4.040000000000000000e+02
9.030090053489381319e-02 6.939493795656200348e+01 4.050000000000000000e+02
1.350373337367369864e+00 6.875289632712114951e+01 4.050000000000000000e+02
2.610445774199846358e+00 6.811085469768029554e+01 4.050000000000000000e+02
3.870518211032322853e+00 6.746881306823944158e+01 4.050000000000000000e+02
5.130590647864798903e+00 6.682677143879858761e+01 4.050000000000000000e+02
6.390663084697274954e+00 6.618472980935773364e+01 4.050000000000000000e+02
7.650735521529751892e+00 6.554268817991687968e+01 4.050000000000000000e+02
8.910807958362227055e+00 6.490064655047603992e+01 4.050000000000000000e+02
1.017088039519470399e+01 6.425860492103518595e+01 4.050000000000000000e+02
1.143095283202718093e+01 6.361656329159432488e+01 4.050000000000000000e+02
3.993163042307052990e-01 6.844388092342533980e+01 4.060000000000000000e+02
1.659388741063181794e+00 6.780183929398448583e+01 4.060000000000000000e+02
2.919461177895658288e+00 6.715979766454363187e+01 4.060000000000000000e+02
4.179533614728134339e+00 6.651775603510277790e+01 4.060000000000000000e+02
5.439606051560610389e+00 6.587571440566192393e+01 4.060000000000000000e+02
6.699678488393087328e+00 6.523367277622106997e+01 4.060000000000000000e+02
7.959750925225563378e+00 6.459163114678021600e+01 4.060000000000000000e+02
9.219823362058040317e+00 6.394958951733936914e+01 4.060000000000000000e+02
1.047989579889051726e+01 6.330754788789851517e+01 4.060000000000000000e+02
3.993163042307052990e-01 6.844388092342533980e+01 4.070000000000000000e+02
1.659388741063181794e+00 6.780183929398448583e+01 4.070000000000000000e+02
2.919461177895658288e+00 6.715979766454363187e+01 4.070000000000000000e+02
4.179533614728134339e+00 6.651775603510277790e+01 4.070000000000000000e+02
5.439606051560610389e+00 6.587571440566192393e+01 4.070000000000000000e+02
6.699678488393087328e+00 6.523367277622106997e+01 4.070000000000000000e+02
7.959750925225563378e+00 6.459163114678021600e+01 4.070000000000000000e+02
9.219823362058040317e+00 6.394958951733936914e+01 4.070000000000000000e+02
1.047989579889051726e+01 6.330754788789851517e+01 4.070000000000000000e+02
9.030090053489381319e-02 6.939493795656200348e+01 4.080000000000000000e+02
1.350373337367369864e+00 6.875289632712114951e+01 4.080000000000000000e+02
2.610445774199846358e+00 6.811085469768029554e+01 4.080000000000000000e+02
3.870518211032322853e+00 6.746881306823944158e+01 4.080000000000000000e+02
5.130590647864798903e+00 6.682677143879858761e+01 4.080000000000000000e+02
6.390663084697274954e+00 6.618472980935773364e+01 4.080000000000000000e+02
7.650735521529751892e+00 6.554268817991687968e+01 4.080000000000000000e+02
8.910807958362227055e+00 6.490064655047603992e+01 4.080000000000000000e+02
1.017088039519470399e+01 6.425860492103518595e+01 4.080000000000000000e+02
1.143095283202718093e+01 6.361656329159432488e+01 4.080000000000000000e+02
3.993163042307052990e-01 6.844388092342533980e+01 4.090000000000000000e+02
1.659388741063181794e+00 6.780183929398448583e+01 4.090000000000000000e+02
2.919461177895658288e+00 6.715979766454363187e+01 4.090000000000000000e+02
4.179533614728134339e+00 6.651775603510277790e+01 4.090000000000000000e+02
5.439606051560610389e+00 6.587571440566192393e+01 4.090000000000000000e+02
6.699678488393087328e+00 6.523367277622106997e+01 4.090000000000000000e+02
7.959750925225563378e+00 6.459163114678021600e+01 4.090000000000000000e+02
9.219823362058040317e+00 6.394958951733936914e+01 4.090000000000000000e+02
1.047989579889051726e+01 6.330754788789851517e+01 4.090000000000000000e+02
3.993163042307052990e-01 6.844388092342533980e+01 4.100000000000000000e+02
1.659388741063181794e+00 6.780183929398448583e+01 4.100000000000000000e+02
2.919461177895658288e+00 6.715979766454363187e+01 4.100000000000000000e+02
4.179533614728134339e+00 6.651775603510277790e+01 4.100000000000000000e+02
5.439606051560610389e+00 6.587571440566192393e+01 4.100000000000000000e+02
6.699678488393087328e+00 6.523367277622106997e+01 4.100000000000000000e+02
7.959750925225563378e+00 6.459163114678021600e+01 4.100000000000000000e+02
9.219823362058040317e+00 6.394958951733936914e+01 4.100000000000000000e+02
1.047989579889051726e+01 6.330754788789851517e+01 4.100000000000000000e+02
3.993163042307052990e-01 6.844388092342533980e+01 4.110000000000000000e+02
1.659388741063181794e+00 6.780183929398448583e+01 4.110000000000000000e+02
2.919461177895658288e+00 6.715979766454363187e+01 4.110000000000000000e+02
4.179533614728134339e+00 6.651775603510277790e+01 4.110000000000000000e+02
5.439606051560610389e+00 6.587571440566192393e+01 4.110000000000000000e+02
6.699678488393087328e+00 6.523367277622106997e+01 4.110000000000000000e+02
7.959750925225563378e+00 6.459163114678021600e+01 4.110000000000000000e+02
9.219823362058040317e+00 6.394958951733936914e+01 4.110000000000000000e+02
1.047989579889051726e+01 6.330754788789851517e+01 4.110000000000000000e+02
3.993163042307052990e-01 6.844388092342533980e+01 4.120000000000000000e+02
1.659388741063181794e+00 6.780183929398448583e+01 4.120000000000000000e+02
2.919461177895658288e+00 6.715979766454363187e+01 4.120000000000000000e+02
4.179533614728134339e+00 6.651775603510277790e+01 4.120000000000000000e+02
5.439606051560610389e+00 6.587571440566192393e+01 4.120000000000000000e+02
6.699678488393087328e+00 6.523367277622106997e+01 4.120000000000000000e+02
7.959750925225563378e+00 6.459163114678021600e+01 4.120000000000000000e+02
9.219823362058040317e+00 6.394958951733936914e+01 4.120000000000000000e+02
1.047989579889051726e+01 6.330754788789851517e+01 4.120000000000000000e+02
9.030090053489381319e-02 6.939493795656200348e+01 4.130000000000000000e+02
1.350373337367369864e+00 6.875289632712114951e+01 4.130000000000000000e+02
2.610445774199846358e+00 6.811085469768029554e+01 4.130000000000000000e+02
3.870518211032322853e+00 6.746881306823944158e+01 4.130000000000000000e+02
5.130590647864798903e+00 6.682677143879858761e+01 4.130000000000000000e+02
6.390663084697274954e+00 6.618472980935773364e+01 4.130000000000000000e+02
7.650735521529751892e+00 6.554268817991687968e+01 4.130000000000000000e+02
8.910807958362227055e+00 6.490064655047603992e+01 4.130000000000000000e+02
1.017088039519470399e+01 6.425860492103518595e+01 4.130000000000000000e+02
1.143095283202718093e+01 6.361656329159432488e+01 4.130000000000000000e+02
9.030090053489381319e-02 6.939493795656200348e+01 4.140000000000000000e+02
