7.504695566224572900e+00 -1.881902443760028909e+00 3.070000000000000000e+02
6.986546732120468839e+00 -3.197775456522490956e+00 3.070000000000000000e+02
6.468397898016364778e+00 -4.513648469284953002e+00 3.070000000000000000e+02
5.950249063912260716e+00 -5.829521482047415049e+00 3.070000000000000000e+02
5.432100229808156655e+00 -7.145394494809876207e+00 3.070000000000000000e+02
4.913951395704053482e+00 -8.461267507572337365e+00 3.070000000000000000e+02
4.395802561599949421e+00 -9.777140520334800300e+00 3.070000000000000000e+02
3.877653727495845359e+00 -1.109301353309726323e+01 3.070000000000000000e+02
3.359504893391741742e+00 -1.240888654585972439e+01 3.070000000000000000e+02
8.022844400328676073e+00 -5.660294309975677507e-01 3.080000000000000000e+02
7.504695566224572900e+00 -1.881902443760028909e+00 3.080000000000000000e+02
6.986546732120468839e+00 -3.197775456522490956e+00 3.080000000000000000e+02
6.468397898016364778e+00 -4.513648469284953002e+00 3.080000000000000000e+02
5.950249063912260716e+00 -5.829521482047415049e+00 3.080000000000000000e+02
5.432100229808156655e+00 -7.145394494809876207e+00 3.080000000000000000e+02
4.913951395704053482e+00 -8.461267507572337365e+00 3.080000000000000000e+02
4.395802561599949421e+00 -9.777140520334800300e+00 3.080000000000000000e+02
3.877653727495845359e+00 -1.109301353309726323e+01 3.080000000000000000e+02
3.359504893391741742e+00 -1.240888654585972439e+01 3.080000000000000000e+02
8.022844400328676073e+00 -5.660294309975677507e-01 3.090000000000000000e+02
7.504695566224572900e+00 -1.881902443760028909e+00 3.090000000000000000e+02
6.986546732120468839e+00 -3.197775456522490956e+00 3.090000000000000000e+02
6.468397898016364778e+00 -4.513648469284953002e+00 3.090000000000000000e+02
5.950249063912260716e+00 -5.829521482047415049e+00 3.090000000000000000e+02
5.432100229808156655e+00 -7.145394494809876207e+00 3.090000000000000000e+02
4.913951395704053482e+00 -8.461267507572337365e+00 3.090000000000000000e+02
4.395802561599949421e+00 -9.777140520334800300e+00 3.090000000000000000e+02
3.877653727495845359e+00 -1.109301353309726323e+01 3.090000000000000000e+02
3.359504893391741742e+00 -1.240888654585972439e+01 3.090000000000000000e+02
8.022844400328676073e+00 -5.660294309975677507e-01 3.100000000000000000e+02
7.504695566224572900e+00 -1.881902443760028909e+00 3.100000000000000000e+02
6.986546732120468839e+00 -3.197775456522490956e+00 3.100000000000000000e+02
6.468397898016364778e+00 -4.513648469284953002e+00 3.100000000000000000e+02
5.950249063912260716e+00 -5.829521482047415049e+00 3.100000000000000000e+02
5.432100229808156655e+00 -7.145394494809876207e+00 3.100000000000000000e+02
4.913951395704053482e+00 -8.461267507572337365e+00 3.100000000000000000e+02
4.395802561599949421e+00 -9.777140520334800300e+00 3.100000000000000000e+02
3.877653727495845359e+00 -1.109301353309726323e+01 3.100000000000000000e+02
3.359504893391741742e+00 -1.240888654585972439e+01 3.100000000000000000e+02
7.105833476895393908e+00 -9.648915203267467433e-01 3.110000000000000000e+02
6.587684642791289846e+00 -2.280764533089207902e+00 3.110000000000000000e+02
6.069535808687185785e+00 -3.596637545851669948e+00 3.110000000000000000e+02
5.551386974583081724e+00 -4.912510558614131995e+00 3.110000000000000000e+02
5.033238140478978551e+00 -6.228383571376593153e+00 3.110000000000000000e+02
4.515089306374874489e+00 -7.544256584139055200e+00 3.110000000000000000e+02
3.996940472270770428e+00 -8.860129596901517246e+00 3.110000000000000000e+02
3.478791638166666367e+00 -1.017600260966397840e+01 3.110000000000000000e+02
2.960642804062562750e+00 -1.149187562242644134e+01 3.110000000000000000e+02
7.105833476895393908e+00 -9.648915203267467433e-01 3.120000000000000000e+02
6.587684642791289846e+00 -2.280764533089207902e+00 3.120000000000000000e+02
6.069535808687185785e+00 -3.596637545851669948e+00 3.120000000000000000e+02
5.551386974583081724e+00 -4.912510558614131995e+00 3.120000000000000000e+02
5.033238140478978551e+00 -6.228383571376593153e+00 3.120000000000000000e+02
4.515089306374874489e+00 -7.544256584139055200e+00 3.120000000000000000e+02
3.996940472270770428e+00 -8.860129596901517246e+00 3.120000000000000000e+02
3.478791638166666367e+00 -1.017600260966397840e+01 3.120000000000000000e+02
7.105833476895393908e+00 -9.648915203267467433e-01 3.130000000000000000e+02
6.587684642791289846e+00 -2.280764533089207902e+00 3.130000000000000000e+02
6.069535808687185785e+00 -3.596637545851669948e+00 3.130000000000000000e+02
5.551386974583081724e+00 -4.912510558614131995e+00 3.130000000000000000e+02
5.033238140478978551e+00 -6.228383571376593153e+00 3.130000000000000000e+02
4.515089306374874489e+00 -7.544256584139055200e+00 3.130000000000000000e+02
3.996940472270770428e+00 -8.860129596901517246e+00 3.130000000000000000e+02
3.478791638166666367e+00 -1.017600260966397840e+01 3.130000000000000000e+02
2.960642804062562750e+00 -1.149187562242644134e+01 3.130000000000000000e+02
7.105833476895393908e+00 -9.648915203267467433e-01 3.140000000000000000e+02
6.587684642791289846e+00 -2.280764533089207902e+00 3.140000000000000000e+02
6.069535808687185785e+00 -3.596637545851669948e+00 3.140000000000000000e+02
5.551386974583081724e+00 -4.912510558614131995e+00 3.140000000000000000e+02
5.033238140478978551e+00 -6.228383571376593153e+00 3.140000000000000000e+02
4.515089306374874489e+00 -7.544256584139055200e+00 3.140000000000000000e+02
3.996940472270770428e+00 -8.860129596901517246e+00 3.140000000000000000e+02
3.478791638166666367e+00 -1.017600260966397840e+01 3.140000000000000000e+02
2.960642804062562750e+00 -1.149187562242644134e+01 3.140000000000000000e+02
8.022844400328676073e+00 -5.660294309975677507e-01 3.150000000000000000e+02
7.504695566224572900e+00 -1.881902443760028909e+00 3.150000000000000000e+02
6.986546732120468839e+00 -3.197775456522490956e+00 3.150000000000000000e+02
6.468397898016364778e+00 -4.513648469284953002e+00 3.150000000000000000e+02
5.950249063912260716e+00 -5.829521482047415049e+00 3.150000000000000000e+02
5.432100229808156655e+00 -7.145394494809876207e+00 3.150000000000000000e+02
4.913951395704053482e+00 -8.461267507572337365e+00 3.150000000000000000e+02
4.395802561599949421e+00 -9.777140520334800300e+00 3.150000000000000000e+02
3.877653727495845359e+00 -1.109301353309726323e+01 3.150000000000000000e+02
3.359504893391741742e+00 -1.240888654585972439e+01 3.150000000000000000e+02
8.022844400328676073e+00 -5.660294309975677507e-01 3.160000000000000000e+02
7.504695566224572900e+00 -1.881902443760028909e+00 3.160000000000000000e+02
6.986546732120468839e+00 -3.197775456522490956e+00 3.160000000000000000e+02
6.468397898016364778e+00 -4.513648469284953002e+00 3.160000000000000000e+02
5.950249063912260716e+00 -5.829521482047415049e+00 3.160000000000000000e+02
5.432100229808156655e+00 -7.145394494809876207e+00 3.160000000000000000e+02
4.913951395704053482e+00 -8.461267507572337365e+00 3.160000000000000000e+02
4.395802561599949421e+00 -9.777140520334800300e+00 3.160000000000000000e+02
3.877653727495845359e+00 -1.109301353309726323e+01 3.160000000000000000e+02
3.359504893391741742e+00 -1.240888654585972439e+01 3.160000000000000000e+02
2.841356059287638125e+00 -1.372475955862218555e+01 3.160000000000000000e+02
8.022844400328676073e+00 -5.660294309975677507e-01 3.170000000000000000e+02
7.504695566224572900e+00 -1.881902443760028909e+00 3.170000000000000000e+02
6.986546732120468839e+00 -3.197775456522490956e+00 3.170000000000000000e+02
6.468397898016364778e+00 -4.513648469284953002e+00 3.170000000000000000e+02
5.950249063912260716e+00 -5.829521482047415049e+00 3.170000000000000000e+02
5.432100229808156655e+00 -7.145394494809876207e+00 3.170000000000000000e+02
4.913951395704053482e+00 -8.461267507572337365e+00 3.170000000000000000e+02
4.395802561599949421e+00 -9.777140520334800300e+00 3.170000000000000000e+02
3.877653727495845359e+00 -1.109301353309726323e+01 3.170000000000000000e+02
3.359504893391741742e+00 -1.240888654585972439e+01 3.170000000000000000e+02
7.105833476895393908e+00 -9.648915203267467433e-01 3.180000000000000000e+02
6.587684642791289846e+00 -2.280764533089207902e+00 3.180000000000000000e+02
6.069535808687185785e+00 -3.596637545851669948e+00 3.180000000000000000e+02
5.551386974583081724e+00 -4.912510558614131995e+00 3.180000000000000000e+02
5.033238140478978551e+00 -6.228383571376593153e+00 3.180000000000000000e+02
4.515089306374874489e+00 -7.544256584139055200e+00 3.180000000000000000e+02
3.996940472270770428e+00 -8.860129596901517246e+00 3.180000000000000000e+02
3.478791638166666367e+00 -1.017600260966397840e+01 3.180000000000000000e+02
2.960642804062562750e+00 -1.149187562242644134e+01 3.180000000000000000e+02
7.105833476895393908e+00 -9.648915203267467433e-01 3.190000000000000000e+02
6.587684642791289846e+00 -2.280764533089207902e+00 3.190000000000000000e+02
6.069535808687185785e+00 -3.596637545851669948e+00 3.190000000000000000e+02
5.551386974583081724e+00 -4.912510558614131995e+00 3.190000000000000000e+02
5.033238140478978551e+00 -6.228383571376593153e+00 3.190000000000000000e+02
4.515089306374874489e+00 -7.544256584139055200e+00 3.190000000000000000e+02
3.996940472270770428e+00 -8.860129596901517246e+00 3.190000000000000000e+02
3.478791638166666367e+00 -1.017600260966397840e+01 3.190000000000000000e+02
2.960642804062562750e+00 -1.149187562242644134e+01 3.190000000000000000e+02
2.442493969958459132e+00 -1.280774863518890427e+01 3.190000000000000000e+02
7.105833476895393908e+00 -9.648915203267467433e-01 3.200000000000000000e+02
6.587684642791289846e+00 -2.280764533089207902e+00 3.200000000000000000e+02
6.069535808687185785e+00 -3.596637545851669948e+00 3.200000000000000000e+02
5.551386974583081724e+00 -4.912510558614131995e+00 3.200000000000000000e+02
5.033238140478978551e+00 -6.228383571376593153e+00 3.200000000000000000e+02
4.515089306374874489e+00 -7.544256584139055200e+00 3.200000000000000000e+02
3.996940472270770428e+00 -8.860129596901517246e+00 3.200000000000000000e+02
3.478791638166666367e+00 -1.017600260966397840e+01 3.200000000000000000e+02
2.960642804062562750e+00 -1.149187562242644134e+01 3.200000000000000000e+02
2.442493969958459132e+00 -1.280774863518890427e+01 3.200000000000000000e+02
7.105833476895393908e+00 -9.648915203267467433e-01 3.210000000000000000e+02
6.587684642791289846e+00 -2.280764533089207902e+00 3.210000000000000000e+02
6.069535808687185785e+00 -3.596637545851669948e+00 3.210000000000000000e+02
5.551386974583081724e+00 -4.912510558614131995e+00 3.210000000000000000e+02
5.033238140478978551e+00 -6.228383571376593153e+00 3.210000000000000000e+02
4.515089306374874489e+00 -7.544256584139055200e+00 3.210000000000000000e+02
3.996940472270770428e+00 -8.860129596901517246e+00 3.210000000000000000e+02
3.478791638166666367e+00 -1.017600260966397840e+01 3.210000000000000000e+02
2.960642804062562750e+00 -1.149187562242644134e+01 3.210000000000000000e+02
7.105833476895393908e+00 -9.648915203267467433e-01 3.220000000000000000e+02
6.587684642791289846e+00 -2.280764533089207902e+00 3.220000000000000000e+02
6.069535808687185785e+00 -3.596637545851669948e+00 3.220000000000000000e+02
5.551386974583081724e+00 -4.912510558614131995e+00 3.220000000000000000e+02
5.033238140478978551e+00 -6.228383571376593153e+00 3.220000000000000000e+02
4.515089306374874489e+00 -7.544256584139055200e+00 3.220000000000000000e+02
3.996940472270770428e+00 -8.860129596901517246e+00 3.220000000000000000e+02
3.478791638166666367e+00 -1.017600260966397840e+01 3.220000000000000000e+02
2.960642804062562750e+00 -1.149187562242644134e+01 3.220000000000000000e+02
7.105833476895393908e+00 -9.648915203267467433e-01 3.230000000000000000e+02
6.587684642791289846e+00 -2.280764533089207902e+00 3.230000000000000000e+02
6.069535808687185785e+00 -3.596637545851669948e+00 3.230000000000000000e+02
5.551386974583081724e+00 -4.912510558614131995e+00 3.230000000000000000e+02
5.033238140478978551e+00 -6.228383571376593153e+00 3.230000000000000000e+02
4.515089306374874489e+00 -7.544256584139055200e+00 3.230000000000000000e+02
3.996940472270770428e+00 -8.860129596901517246e+00 3.230000000000000000e+02
3.478791638166666367e+00 -1.017600260966397840e+01 3.230000000000000000e+02
2.960642804062562750e+00 -1.149187562242644134e+01 3.230000000000000000e+02
7.105833476895393908e+00 -9.648915203267467433e-01 3.240000000000000000e+02
6.587684642791289846e+00 -2.280764533089207902e+00 3.240000000000000000e+02
6.069535808687185785e+00 -3.596637545851669948e+00 3.240000000000000000e+02
5.551386974583081724e+00 -4.912510558614131995e+00 3.240000000000000000e+02
5.033238140478978551e+00 -6.228383571376593153e+00 3.240000000000000000e+02
4.515089306374874489e+00 -7.544256584139055200e+00 3.240000000000000000e+02
3.996940472270770428e+00 -8.860129596901517246e+00 3.240000000000000000e+02
3.478791638166666367e+00 -1.017600260966397840e+01 3.240000000000000000e+02
2.960642804062562750e+00 -1.149187562242644134e+01 3.240000000000000000e+02
7.105833476895393908e+00 -9.648915203267467433e-01 3.250000000000000000e+02
6.587684642791289846e+00 -2.280764533089207902e+00 3.250000000000000000e+02
6.069535808687185785e+00 -3.596637545851669948e+00 3.250000000000000000e+02
5.551386974583081724e+00 -4.912510558614131995e+00 3.250000000000000000e+02
5.033238140478978551e+00 -6.228383571376593153e+00 3.250000000000000000e+02
4.515089306374874489e+00 -7.544256584139055200e+00 3.250000000000000000e+02
3.996940472270770428e+00 -8.860129596901517246e+00 3.250000000000000000e+02
3.478791638166666367e+00 -1.017600260966397840e+01 3.250000000000000000e+02
2.960642804062562750e+00 -1.149187562242644134e+01 3.250000000000000000e+02
2.442493969958459132e+00 -1.280774863518890427e+01 3.250000000000000000e+02
8.022844400328676073e+00 -5.660294309975677507e-01 3.260000000000000000e+02
7.504695566224572900e+00 -1.881902443760028909e+00 3.260000000000000000e+02
6.986546732120468839e+00 -3.197775456522490956e+00 3.260000000000000000e+02
6.468397898016364778e+00 -4.513648469284953002e+00 3.260000000000000000e+02
5.950249063912260716e+00 -5.829521482047415049e+00 3.260000000000000000e+02
5.432100229808156655e+00 -7.145394494809876207e+00 3.260000000000000000e+02
4.913951395704053482e+00 -8.461267507572337365e+00 3.260000000000000000e+02
4.395802561599949421e+00 -9.777140520334800300e+00 3.260000000000000000e+02
3.877653727495845359e+00 -1.109301353309726323e+01 3.260000000000000000e+02
3.359504893391741742e+00 -1.240888654585972439e+01 3.260000000000000000e+02
2.841356059287638125e+00 -1.372475955862218555e+01 3.260000000000000000e+02
8.022844400328676073e+00 -5.660294309975677507e-01 3.270000000000000000e+02
7.504695566224572900e+00 -1.881902443760028909e+00 3.270000000000000000e+02
6.986546732120468839e+00 -3.197775456522490956e+00 3.270000000000000000e+02
6.468397898016364778e+00 -4.513648469284953002e+00 3.270000000000000000e+02
5.950249063912260716e+00 -5.829521482047415049e+00 3.270000000000000000e+02
5.432100229808156655e+00 -7.145394494809876207e+00 3.270000000000000000e+02
4.913951395704053482e+00 -8.461267507572337365e+00 3.270000000000000000e+02
4.395802561599949421e+00 -9.777140520334800300e+00 3.270000000000000000e+02
3.877653727495845359e+00 -1.109301353309726323e+01 3.270000000000000000e+02
3.359504893391741742e+00 -1.240888654585972439e+01 3.270000000000000000e+02
8.022844400328676073e+00 -5.660294309975677507e-01 3.280000000000000000e+02
7.504695566224572900e+00 -1.881902443760028909e+00 3.280000000000000000e+02
6.986546732120468839e+00 -3.197775456522490956e+00 3.280000000000000000e+02
6.468397898016364778e+00 -4.513648469284953002e+00 3.280000000000000000e+02
5.950249063912260716e+00 -5.829521482047415049e+00 3.280000000000000000e+02
5.432100229808156655e+00 -7.145394494809876207e+00 3.280000000000000000e+02
4.913951395704053482e+00 -8.461267507572337365e+00 3.280000000000000000e+02
4.395802561599949421e+00 -9.777140520334800300e+00 3.280000000000000000e+02
3.877653727495845359e+00 -1.109301353309726323e+01 3.280000000000000000e+02
3.359504893391741742e+00 -1.240888654585972439e+01 3.280000000000000000e+02
8.022844400328676073e+00 -5.660294309975677507e-01 3.290000000000000000e+02
7.504695566224572900e+00 -1.881902443760028909e+00 3.290000000000000000e+02
6.986546732120468839e+00 -3.197775456522490956e+00 3.290000000000000000e+02
6.468397898016364778e+00 -4.513648469284953002e+00 3.290000000000000000e+02
5.950249063912260716e+00 -5.829521482047415049e+00 3.290000000000000000e+02
5.432100229808156655e+00 -7.145394494809876207e+00 3.290000000000000000e+02
4.913951395704053482e+00 -8.461267507572337365e+00 3.290000000000000000e+02
4.395802561599949421e+00 -9.777140520334800300e+00 3.290000000000000000e+02
3.877653727495845359e+00 -1.109301353309726323e+01 3.290000000000000000e+02
3.359504893391741742e+00 -1.240888654585972439e+01 3.290000000000000000e+02
2.841356059287638125e+00 -1.372475955862218555e+01 3.290000000000000000e+02
8.022844400328676073e+00 -5.660294309975677507e-01 3.300000000000000000e+02
7.504695566224572900e+00 -1.881902443760028909e+00 3.300000000000000000e+02
6.986546732120468839e+00 -3.197775456522490956e+00 3.300000000000000000e+02
6.468397898016364778e+00 -4.513648469284953002e+00 3.300000000000000000e+02
5.950249063912260716e+00 -5.829521482047415049e+00 3.300000000000000000e+02
5.432100229808156655e+00 -7.145394494809876207e+00 3.300000000000000000e+02
4.913951395704053482e+00 -8.461267507572337365e+00 3.300000000000000000e+02
4.395802561599949421e+00 -9.777140520334800300e+00 3.300000000000000000e+02
3.877653727495845359e+00 -1.109301353309726323e+01 3.300000000000000000e+02
3.359504893391741742e+00 -1.240888654585972439e+01 3.300000000000000000e+02
2.841356059287638125e+00 -1.372475955862218555e+01 3.300000000000000000e+02
8.022844400328676073e+00 -5.660294309975677507e-01 3.310000000000000000e+02
7.504695566224572900e+00 -1.881902443760028909e+00 3.310000000000000000e+02
6.986546732120468839e+00 -3.197775456522490956e+00 3.310000000000000000e+02
6.468397898016364778e+00 -4.513648469284953002e+00 3.310000000000000000e+02
5.950249063912260716e+00 -5.829521482047415049e+00 3.310000000000000000e+02
5.432100229808156655e+00 -7.145394494809876207e+00 3.310000000000000000e+02
4.913951395704053482e+00 -8.461267507572337365e+00 3.310000000000000000e+02
4.395802561599949421e+00 -9.777140520334800300e+00 3.310000000000000000e+02
3.877653727495845359e+00 -1.109301353309726323e+01 3.310000000000000000e+02
3.359504893391741742e+00 -1.240888654585972439e+01 3.310000000000000000e+02
8.022844400328676073e+00 -5.660294309975677507e-01 3.320000000000000000e+02
7.504695566224572900e+00 -1.881902443760028909e+00 3.320000000000000000e+02
6.986546732120468839e+00 -3.197775456522490956e+00 3.320000000000000000e+02
6.468397898016364778e+00 -4.513648469284953002e+00 3.320000000000000000e+02
5.950249063912260716e+00 -5.829521482047415049e+00 3.320000000000000000e+02
5.432100229808156655e+00 -7.145394494809876207e+00 3.320000000000000000e+02
4.913951395704053482e+00 -8.461267507572337365e+00 3.320000000000000000e+02
4.395802561599949421e+00 -9.777140520334800300e+00 3.320000000000000000e+02
3.877653727495845359e+00 -1.109301353309726323e+01 3.320000000000000000e+02
3.359504893391741742e+00 -1.240888654585972439e+01 3.320000000000000000e+02
8.022844400328676073e+00 -5.660294309975677507e-01 3.330000000000000000e+02
7.504695566224572900e+00 -1.881902443760028909e+00 3.330000000000000000e+02
6.986546732120468839e+00 -3.197775456522490956e+00 3.330000000000000000e+02
6.468397898016364778e+00 -4.513648469284953002e+00 3.330000000000000000e+02
5.950249063912260716e+00 -5.829521482047415049e+00 3.330000000000000000e+02
5.432100229808156655e+00 -7.145394494809876207e+00 3.330000000000000000e+02
4.913951395704053482e+00 -8.461267507572337365e+00 3.330000000000000000e+02
4.395802561599949421e+00 -9.777140520334800300e+00 3.330000000000000000e+02
3.877653727495845359e+00 -1.109301353309726323e+01 3.330000000000000000e+02
3.359504893391741742e+00 -1.240888654585972439e+01 3.330000000000000000e+02
2.841356059287638125e+00 -1.372475955862218555e+01 3.330000000000000000e+02
8.022844400328676073e+00 -5.660294309975677507e-01 3.340000000000000000e+02
7.504695566224572900e+00 -1.881902443760028909e+00 3.340000000000000000e+02
6.986546732120468839e+00 -3.197775456522490956e+00 3.340000000000000000e+02
6.468397898016364778e+00 -4.513648469284953002e+00 3.340000000000000000e+02
5.950249063912260716e+00 -5.829521482047415049e+00 3.340000000000000000e+02
5.432100229808156655e+00 -7.145394494809876207e+00 3.340000000000000000e+02
4.913951395704053482e+00 -8.461267507572337365e+00 3.340000000000000000e+02
4.395802561599949421e+00 -9.777140520334800300e+00 3.340000000000000000e+02
3.877653727495845359e+00 -1.109301353309726323e+01 3.340000000000000000e+02
3.359504893391741742e+00 -1.240888654585972439e+01 3.340000000000000000e+02
2.841356059287638125e+00 -1.372475955862218555e+01 3.340000000000000000e+02
7.105833476895393908e+00 -9.648915203267467433e-01 3.350000000000000000e+02
6.587684642791289846e+00 -2.280764533089207902e+00 3.350000000000000000e+02
6.069535808687185785e+00 -3.596637545851669948e+00 3.350000000000000000e+02
5.551386974583081724e+00 -4.912510558614131995e+00 3.350000000000000000e+02
5.033238140478978551e+00 -6.228383571376593153e+00 3.350000000000000000e+02
4.515089306374874489e+00 -7.544256584139055200e+00 3.350000000000000000e+02
3.996940472270770428e+00 -8.860129596901517246e+00 3.350000000000000000e+02
3.478791638166666367e+00 -1.017600260966397840e+01 3.350000000000000000e+02
2.960642804062562750e+00 -1.149187562242644134e+01 3.350000000000000000e+02
2.442493969958459132e+00 -1.280774863518890427e+01 3.350000000000000000e+02
7.105833476895393908e+00 -9.648915203267467433e-01 3.360000000000000000e+02
6.587684642791289846e+00 -2.280764533089207902e+00 3.360000000000000000e+02
6.069535808687185785e+00 -3.596637545851669948e+00 3.360000000000000000e+02
5.551386974583081724e+00 -4.912510558614131995e+00 3.360000000000000000e+02
5.033238140478978551e+00 -6.228383571376593153e+00 3.360000000000000000e+02
4.515089306374874489e+00 -7.544256584139055200e+00 3.360000000000000000e+02
3.996940472270770428e+00 -8.860129596901517246e+00 3.360000000000000000e+02
3.478791638166666367e+00 -1.017600260966397840e+01 3.360000000000000000e+02
2.960642804062562750e+00 -1.149187562242644134e+01 3.360000000000000000e+02
2.442493969958459132e+00 -1.280774863518890427e+01 3.360000000000000000e+02
7.105833476895393908e+00 -9.648915203267467433e-01 3.370000000000000000e+02
6.587684642791289846e+00 -2.280764533089207902e+00 3.370000000000000000e+02
6.069535808687185785e+00 -3.596637545851669948e+00 3.370000000000000000e+02
5.551386974583081724e+00 -4.912510558614131995e+00 3.370000000000000000e+02
5.033238140478978551e+00 -6.228383571376593153e+00 3.370000000000000000e+02
4.515089306374874489e+00 -7.544256584139055200e+00 3.370000000000000000e+02
3.996940472270770428e+00 -8.860129596901517246e+00 3.370000000000000000e+02
3.478791638166666367e+00 -1.017600260966397840e+01 3.370000000000000000e+02
2.960642804062562750e+00 -1.149187562242644134e+01 3.370000000000000000e+02
2.442493969958459132e+00 -1.280774863518890427e+01 3.370000000000000000e+02
7.105833476895393908e+00 -9.648915203267467433e-01 3.380000000000000000e+02
6.587684642791289846e+00 -2.280764533089207902e+00 3.380000000000000000e+02
6.069535808687185785e+00 -3.596637545851669948e+00 3.380000000000000000e+02
5.551386974583081724e+00 -4.912510558614131995e+00 3.380000000000000000e+02
5.033238140478978551e+00 -6.228383571376593153e+00 3.380000000000000000e+02
4.515089306374874489e+00 -7.544256584139055200e+00 3.380000000000000000e+02
3.996940472270770428e+00 -8.860129596901517246e+00 3.380000000000000000e+02
3.478791638166666367e+00 -1.017600260966397840e+01 3.380000000000000000e+02
2.960642804062562750e+00 -1.149187562242644134e+01 3.380000000000000000e+02
7.105833476895393908e+00 -9.648915203267467433e-01 3.390000000000000000e+02
6.587684642791289846e+00 -2.280764533089207902e+00 3.390000000000000000e+02
6.069535808687185785e+00 -3.596637545851669948e+00 3.390000000000000000e+02
5.551386974583081724e+00 -4.912510558614131995e+00 3.390000000000000000e+02
5.033238140478978551e+00 -6.228383571376593153e+00 3.390000000000000000e+02
4.515089306374874489e+00 -7.544256584139055200e+00 3.390000000000000000e+02
3.996940472270770428e+00 -8.860129596901517246e+00 3.390000000000000000e+02
3.478791638166666367e+00 -1.017600260966397840e+01 3.390000000000000000e+02
2.960642804062562750e+00 -1.149187562242644134e+01 3.390000000000000000e+02
7.105833476895393908e+00 -9.648915203267467433e-01 3.400000000000000000e+02
6.587684642791289846e+00 -2.280764533089207902e+00 3.400000000000000000e+02
6.069535808687185785e+00 -3.596637545851669948e+00 3.400000000000000000e+02
5.551386974583081724e+00 -4.912510558614131995e+00 3.400000000000000000e+02
5.033238140478978551e+00 -6.228383571376593153e+00 3.400000000000000000e+02
4.515089306374874489e+00 -7.544256584139055200e+00 3.400000000000000000e+02
3.996940472270770428e+00 -8.860129596901517246e+00 3.400000000000000000e+02
3.478791638166666367e+00 -1.017600260966397840e+01 3.400000000000000000e+02
2.960642804062562750e+00 -1.149187562242644134e+01 3.400000000000000000e+02
2.442493969958459132e+00 -1.280774863518890427e+01 3.400000000000000000e+02
7.105833476895393908e+00 -9.648915203267467433e-01 3.410000000000000000e+02
6.587684642791289846e+00 -2.280764533089207902e+00 3.410000000000000000e+02
6.069535808687185785e+00 -3.596637545851669948e+00 3.410000000000000000e+02
5.551386974583081724e+00 -4.912510558614131995e+00 3.410000000000000000e+02
5.033238140478978551e+00 -6.228383571376593153e+00 3.410000000000000000e+02
4.515089306374874489e+00 -7.544256584139055200e+00 3.410000000000000000e+02
3.996940472270770428e+00 -8.860129596901517246e+00 3.410000000000000000e+02
3.478791638166666367e+00 -1.017600260966397840e+01 3.410000000000000000e+02
2.960642804062562750e+00 -1.149187562242644134e+01 3.410000000000000000e+02
2.442493969958459132e+00 -1.280774863518890427e+01 3.410000000000000000e+02
7.105833476895393908e+00 -9.648915203267467433e-01 3.420000000000000000e+02
6.587684642791289846e+00 -2.280764533089207902e+00 3.420000000000000000e+02
6.069535808687185785e+00 -3.596637545851669948e+00 3.420000000000000000e+02
5.551386974583081724e+00 -4.912510558614131995e+00 3.420000000000000000e+02
5.033238140478978551e+00 -6.228383571376593153e+00 3.420000000000000000e+02
4.515089306374874489e+00 -7.544256584139055200e+00 3.420000000000000000e+02
3.996940472270770428e+00 -8.860129596901517246e+00 3.420000000000000000e+02
3.478791638166666367e+00 -1.017600260966397840e+01 3.420000000000000000e+02
2.960642804062562750e+00 -1.149187562242644134e+01 3.420000000000000000e+02
2.442493969958459132e+00 -1.280774863518890427e+01 3.420000000000000000e+02
7.105833476895393908e+00 -9.648915203267467433e-01 3.430000000000000000e+02
6.587684642791289846e+00 -2.280764533089207902e+00 3.430000000000000000e+02
6.069535808687185785e+00 -3.596637545851669948e+00 3.430000000000000000e+02
5.551386974583081724e+00 -4.912510558614131995e+00 3.430000000000000000e+02
5.033238140478978551e+00 -6.228383571376593153e+00 3.430000000000000000e+02
4.515089306374874489e+00 -7.544256584139055200e+00 3.430000000000000000e+02
3.996940472270770428e+00 -8.860129596901517246e+00 3.430000000000000000e+02
3.478791638166666367e+00 -1.017600260966397840e+01 3.430000000000000000e+02
2.960642804062562750e+00 -1.149187562242644134e+01 3.430000000000000000e+02
2.442493969958459132e+00 -1.280774863518890427e+01 3.430000000000000000e+02
7.105833476895393908e+00 -9.648915203267467433e-01 3.440000000000000000e+02
6.587684642791289846e+00 -2.280764533089207902e+00 3.440000000000000000e+02
6.069535808687185785e+00 -3.596637545851669948e+00 3.440000000000000000e+02
5.551386974583081724e+00 -4.912510558614131995e+00 3.440000000000000000e+02
5.033238140478978551e+00 -6.228383571376593153e+00 3.440000000000000000e+02
4.515089306374874489e+00 -7.544256584139055200e+00 3.440000000000000000e+02
3.996940472270770428e+00 -8.860129596901517246e+00 3.440000000000000000e+02
3.478791638166666367e+00 -1.017600260966397840e+01 3.440000000000000000e+02
2.960642804062562750e+00 -1.149187562242644134e+01 3.440000000000000000e+02
2.442493969958459132e+00 -1.280774863518890427e+01 3.440000000000000000e+02
6.188822553462110854e+00 -1.363753609655925736e+00 3.450000000000000000e+02
5.670673719358006792e+00 -2.679626622418386894e+00 3.450000000000000000e+02
5.152524885253902731e+00 -3.995499635180849385e+00 3.450000000000000000e+02
4.634376051149799558e+00 -5.311372647943310987e+00 3.450000000000000000e+02
4.116227217045695497e+00 -6.627245660705773034e+00 3.450000000000000000e+02
3.598078382941591435e+00 -7.943118673468234192e+00 3.450000000000000000e+02
3.079929548837487818e+00 -9.258991686230697127e+00 3.450000000000000000e+02
2.561780714733383757e+00 -1.057486469899315829e+01 3.450000000000000000e+02
2.043631880629280140e+00 -1.189073771175561944e+01 3.450000000000000000e+02
7.105833476895393908e+00 -9.648915203267467433e-01 3.460000000000000000e+02
6.587684642791289846e+00 -2.280764533089207902e+00 3.460000000000000000e+02
6.069535808687185785e+00 -3.596637545851669948e+00 3.460000000000000000e+02
5.551386974583081724e+00 -4.912510558614131995e+00 3.460000000000000000e+02
5.033238140478978551e+00 -6.228383571376593153e+00 3.460000000000000000e+02
4.515089306374874489e+00 -7.544256584139055200e+00 3.460000000000000000e+02
3.996940472270770428e+00 -8.860129596901517246e+00 3.460000000000000000e+02
3.478791638166666367e+00 -1.017600260966397840e+01 3.460000000000000000e+02
2.960642804062562750e+00 -1.149187562242644134e+01 3.460000000000000000e+02
2.442493969958459132e+00 -1.280774863518890427e+01 3.460000000000000000e+02
7.105833476895393908e+00 -9.648915203267467433e-01 3.470000000000000000e+02
6.587684642791289846e+00 -2.280764533089207902e+00 3.470000000000000000e+02
6.069535808687185785e+00 -3.596637545851669948e+00 3.470000000000000000e+02
5.551386974583081724e+00 -4.912510558614131995e+00 3.470000000000000000e+02
5.033238140478978551e+00 -6.228383571376593153e+00 3.470000000000000000e+02
4.515089306374874489e+00 -7.544256584139055200e+00 3.470000000000000000e+02
3.996940472270770428e+00 -8.860129596901517246e+00 3.470000000000000000e+02
3.478791638166666367e+00 -1.017600260966397840e+01 3.470000000000000000e+02
2.960642804062562750e+00 -1.149187562242644134e+01 3.470000000000000000e+02
2.442493969958459132e+00 -1.280774863518890427e+01 3.470000000000000000e+02
8.022844400328676073e+00 -5.660294309975677507e-01 3.480000000000000000e+02
7.504695566224572900e+00 -1.881902443760028909e+00 3.480000000000000000e+02
6.986546732120468839e+00 -3.197775456522490956e+00 3.480000000000000000e+02
6.468397898016364778e+00 -4.513648469284953002e+00 3.480000000000000000e+02
5.950249063912260716e+00 -5.829521482047415049e+00 3.480000000000000000e+02
5.432100229808156655e+00 -7.145394494809876207e+00 3.480000000000000000e+02
4.913951395704053482e+00 -8.461267507572337365e+00 3.480000000000000000e+02
4.395802561599949421e+00 -9.777140520334800300e+00 3.480000000000000000e+02
3.877653727495845359e+00 -1.109301353309726323e+01 3.480000000000000000e+02
3.359504893391741742e+00 -1.240888654585972439e+01 3.480000000000000000e+02
2.841356059287638125e+00 -1.372475955862218555e+01 3.480000000000000000e+02
8.022844400328676073e+00 -5.660294309975677507e-01 3.490000000000000000e+02
7.504695566224572900e+00 -1.881902443760028909e+00 3.490000000000000000e+02
6.986546732120468839e+00 -3.197775456522490956e+00 3.490000000000000000e+02
6.468397898016364778e+00 -4.513648469284953002e+00 3.490000000000000000e+02
5.950249063912260716e+00 -5.829521482047415049e+00 3.490000000000000000e+02
5.432100229808156655e+00 -7.145394494809876207e+00 3.490000000000000000e+02
4.913951395704053482e+00 -8.461267507572337365e+00 3.490000000000000000e+02
4.395802561599949421e+00 -9.777140520334800300e+00 3.490000000000000000e+02
3.877653727495845359e+00 -1.109301353309726323e+01 3.490000000000000000e+02
3.359504893391741742e+00 -1.240888654585972439e+01 3.490000000000000000e+02
2.841356059287638125e+00 -1.372475955862218555e+01 3.490000000000000000e+02
7.105833476895393908e+00 -9.648915203267467433e-01 3.500000000000000000e+02
6.587684642791289846e+00 -2.280764533089207902e+00 3.500000000000000000e+02
6.069535808687185785e+00 -3.596637545851669948e+00 3.500000000000000000e+02
5.551386974583081724e+00 -4.912510558614131995e+00 3.500000000000000000e+02
5.033238140478978551e+00 -6.228383571376593153e+00 3.500000000000000000e+02
4.515089306374874489e+00 -7.544256584139055200e+00 3.500000000000000000e+02
3.996940472270770428e+00 -8.860129596901517246e+00 3.500000000000000000e+02
3.478791638166666367e+00 -1.017600260966397840e+01 3.500000000000000000e+02
2.960642804062562750e+00 -1.149187562242644134e+01 3.500000000000000000e+02
2.442493969958459132e+00 -1.280774863518890427e+01 3.500000000000000000e+02
7.105833476895393908e+00 -9.648915203267467433e-01 3.510000000000000000e+02
6.587684642791289846e+00 -2.280764533089207902e+00 3.510000000000000000e+02
6.069535808687185785e+00 -3.596637545851669948e+00 3.510000000000000000e+02
5.551386974583081724e+00 -4.912510558614131995e+00 3.510000000000000000e+02
5.033238140478978551e+00 -6.228383571376593153e+00 3.510000000000000000e+02
4.515089306374874489e+00 -7.544256584139055200e+00 3.510000000000000000e+02
3.996940472270770428e+00 -8.860129596901517246e+00 3.510000000000000000e+02
3.478791638166666367e+00 -1.017600260966397840e+01 3.510000000000000000e+02
2.960642804062562750e+00 -1.149187562242644134e+01 3.510000000000000000e+02
2.442493969958459132e+00 -1.280774863518890427e+01 3.510000000000000000e+02
7.105833476895393908e+00 -9.648915203267467433e-01 3.520000000000000000e+02
6.587684642791289846e+00 -2.280764533089207902e+00 3.520000000000000000e+02
6.069535808687185785e+00 -3.596637545851669948e+00 3.520000000000000000e+02
5.551386974583081724e+00 -4.912510558614131995e+00 3.520000000000000000e+02
5.033238140478978551e+00 -6.228383571376593153e+00 3.520000000000000000e+02
4.515089306374874489e+00 -7.544256584139055200e+00 3.520000000000000000e+02
3.996940472270770428e+00 -8.860129596901517246e+00 3.520000000000000000e+02
3.478791638166666367e+00 -1.017600260966397840e+01 3.520000000000000000e+02
2.960642804062562750e+00 -1.149187562242644134e+01 3.520000000000000000e+02
2.442493969958459132e+00 -1.280774863518890427e+01 3.520000000000000000e+02
7.105833476895393908e+00 -9.648915203267467433e-01 3.530000000000000000e+02
6.587684642791289846e+00 -2.280764533089207902e+00 3.530000000000000000e+02
6.069535808687185785e+00 -3.596637545851669948e+00 3.530000000000000000e+02
5.551386974583081724e+00 -4.912510558614131995e+00 3.530000000000000000e+02
5.033238140478978551e+00 -6.228383571376593153e+00 3.530000000000000000e+02
4.515089306374874489e+00 -7.544256584139055200e+00 3.530000000000000000e+02
3.996940472270770428e+00 -8.860129596901517246e+00 3.530000000000000000e+02
3.478791638166666367e+00 -1.017600260966397840e+01 3.530000000000000000e+02
2.960642804062562750e+00 -1.149187562242644134e+01 3.530000000000000000e+02
2.442493969958459132e+00 -1.280774863518890427e+01 3.530000000000000000e+02
7.105833476895393908e+00 -9.648915203267467433e-01 3.540000000000000000e+02
6.587684642791289846e+00 -2.280764533089207902e+00 3.540000000000000000e+02
6.069535808687185785e+00 -3.596637545851669948e+00 3.540000000000000000e+02
5.551386974583081724e+00 -4.912510558614131995e+00 3.540000000000000000e+02
5.033238140478978551e+00 -6.228383571376593153e+00 3.540000000000000000e+02
4.515089306374874489e+00 -7.544256584139055200e+00 3.540000000000000000e+02
3.996940472270770428e+00 -8.860129596901517246e+00 3.540000000000000000e+02
3.478791638166666367e+00 -1.017600260966397840e+01 3.540000000000000000e+02
2.960642804062562750e+00 -1.149187562242644134e+01 3.540000000000000000e+02
2.442493969958459132e+00 -1.280774863518890427e+01 3.540000000000000000e+02
7.105833476895393908e+00 -9.648915203267467433e-01 3.550000000000000000e+02
6.587684642791289846e+00 -2.280764533089207902e+00 3.550000000000000000e+02
6.069535808687185785e+00 -3.596637545851669948e+00 3.550000000000000000e+02
5.551386974583081724e+00 -4.912510558614131995e+00 3.550000000000000000e+02
5.033238140478978551e+00 -6.228383571376593153e+00 3.550000000000000000e+02
4.515089306374874489e+00 -7.544256584139055200e+00 3.550000000000000000e+02
3.996940472270770428e+00 -8.860129596901517246e+00 3.550000000000000000e+02
3.478791638166666367e+00 -1.017600260966397840e+01 3.550000000000000000e+02
2.960642804062562750e+00 -1.149187562242644134e+01 3.550000000000000000e+02
2.442493969958459132e+00 -1.280774863518890427e+01 3.550000000000000000e+02
7.105833476895393908e+00 -9.648915203267467433e-01 3.560000000000000000e+02
6.587684642791289846e+00 -2.280764533089207902e+00 3.560000000000000000e+02
6.069535808687185785e+00 -3.596637545851669948e+00 3.560000000000000000e+02
5.551386974583081724e+00 -4.912510558614131995e+00 3.560000000000000000e+02
5.033238140478978551e+00 -6.228383571376593153e+00 3.560000000000000000e+02
4.515089306374874489e+00 -7.544256584139055200e+00 3.560000000000000000e+02
3.996940472270770428e+00 -8.860129596901517246e+00 3.560000000000000000e+02
3.478791638166666367e+00 -1.017600260966397840e+01 3.560000000000000000e+02
2.960642804062562750e+00 -1.149187562242644134e+01 3.560000000000000000e+02
2.442493969958459132e+00 -1.280774863518890427e+01 3.560000000000000000e+02
7.105833476895393908e+00 -9.648915203267467433e-01 3.570000000000000000e+02
6.587684642791289846e+00 -2.280764533089207902e+00 3.570000000000000000e+02
6.069535808687185785e+00 -3.596637545851669948e+00 3.570000000000000000e+02
5.551386974583081724e+00 -4.912510558614131995e+00 3.570000000000000000e+02
5.033238140478978551e+00 -6.228383571376593153e+00 3.570000000000000000e+02
4.515089306374874489e+00 -7.544256584139055200e+00 3.570000000000000000e+02
3.996940472270770428e+00 -8.860129596901517246e+00 3.570000000000000000e+02
3.478791638166666367e+00 -1.017600260966397840e+01 3.570000000000000000e+02
2.960642804062562750e+00 -1.149187562242644134e+01 3.570000000000000000e+02
2.442493969958459132e+00 -1.280774863518890427e+01 3.570000000000000000e+02
6.188822553462110854e+00 -1.363753609655925736e+00 3.580000000000000000e+02
5.670673719358006792e+00 -2.679626622418386894e+00 3.580000000000000000e+02
5.152524885253902731e+00 -3.995499635180849385e+00 3.580000000000000000e+02
4.634376051149799558e+00 -5.311372647943310987e+00 3.580000000000000000e+02
4.116227217045695497e+00 -6.627245660705773034e+00 3.580000000000000000e+02
3.598078382941591435e+00 -7.943118673468234192e+00 3.580000000000000000e+02
3.079929548837487818e+00 -9.258991686230697127e+00 3.580000000000000000e+02
2.561780714733383757e+00 -1.057486469899315829e+01 3.580000000000000000e+02
2.043631880629280140e+00 -1.189073771175561944e+01 3.580000000000000000e+02
6.188822553462110854e+00 -1.363753609655925736e+00 3.590000000000000000e+02
5.670673719358006792e+00 -2.679626622418386894e+00 3.590000000000000000e+02
5.152524885253902731e+00 -3.995499635180849385e+00 3.590000000000000000e+02
4.634376051149799558e+00 -5.311372647943310987e+00 3.590000000000000000e+02
4.116227217045695497e+00 -6.627245660705773034e+00 3.590000000000000000e+02
3.598078382941591435e+00 -7.943118673468234192e+00 3.590000000000000000e+02
3.079929548837487818e+00 -9.258991686230697127e+00 3.590000000000000000e+02
2.561780714733383757e+00 -1.057486469899315829e+01 3.590000000000000000e+02
2.043631880629280140e+00 -1.189073771175561944e+01 3.590000000000000000e+02
7.105833476895393908e+00 -9.648915203267467433e-01 3.600000000000000000e+02
6.587684642791289846e+00 -2.280764533089207902e+00 3.600000000000000000e+02
6.069535808687185785e+00 -3.596637545851669948e+00 3.600000000000000000e+02
5.551386974583081724e+00 -4.912510558614131995e+00 3.600000000000000000e+02
5.033238140478978551e+00 -6.228383571376593153e+00 3.600000000000000000e+02
4.515089306374874489e+00 -7.544256584139055200e+00 3.600000000000000000e+02
3.996940472270770428e+00 -8.860129596901517246e+00 3.600000000000000000e+02
3.478791638166666367e+00 -1.017600260966397840e+01 3.600000000000000000e+02
2.960642804062562750e+00 -1.149187562242644134e+01 3.600000000000000000e+02
2.442493969958459132e+00 -1.280774863518890427e+01 3.600000000000000000e+02
7.105833476895393908e+00 -9.648915203267467433e-01 3.610000000000000000e+02
6.587684642791289846e+00 -2.280764533089207902e+00 3.610000000000000000e+02
6.069535808687185785e+00 -3.596637545851669948e+00 3.610000000000000000e+02
5.551386974583081724e+00 -4.912510558614131995e+00 3.610000000000000000e+02
5.033238140478978551e+00 -6.228383571376593153e+00 3.610000000000000000e+02
4.515089306374874489e+00 -7.544256584139055200e+00 3.610000000000000000e+02
3.996940472270770428e+00 -8.860129596901517246e+00 3.610000000000000000e+02
3.478791638166666367e+00 -1.017600260966397840e+01 3.610000000000000000e+02
2.960642804062562750e+00 -1.149187562242644134e+01 3.610000000000000000e+02
2.442493969958459132e+00 -1.280774863518890427e+01 3.610000000000000000e+02
7.105833476895393908e+00 -9.648915203267467433e-01 3.620000000000000000e+02
6.587684642791289846e+00 -2.280764533089207902e+00 3.620000000000000000e+02
6.069535808687185785e+00 -3.596637545851669948e+00 3.620000000000000000e+02
5.551386974583081724e+00 -4.912510558614131995e+00 3.620000000000000000e+02
5.033238140478978551e+00 -6.228383571376593153e+00 3.620000000000000000e+02
4.515089306374874489e+00 -7.544256584139055200e+00 3.620000000000000000e+02
3.996940472270770428e+00 -8.860129596901517246e+00 3.620000000000000000e+02
3.478791638166666367e+00 -1.017600260966397840e+01 3.620000000000000000e+02
2.960642804062562750e+00 -1.149187562242644134e+01 3.620000000000000000e+02
2.442493969958459132e+00 -1.280774863518890427e+01 3.620000000000000000e+02
7.105833476895393908e+00 -9.648915203267467433e-01 3.630000000000000000e+02
6.587684642791289846e+00 -2.280764533089207902e+00 3.630000000000000000e+02
6.069535808687185785e+00 -3.596637545851669948e+00 3.630000000000000000e+02
5.551386974583081724e+00 -4.912510558614131995e+00 3.630000000000000000e+02
5.033238140478978551e+00 -6.228383571376593153e+00 3.630000000000000000e+02
4.515089306374874489e+00 -7.544256584139055200e+00 3.630000000000000000e+02
3.996940472270770428e+00 -8.860129596901517246e+00 3.630000000000000000e+02
3.478791638166666367e+00 -1.017600260966397840e+01 3.630000000000000000e+02
2.960642804062562750e+00 -1.149187562242644134e+01 3.630000000000000000e+02
2.442493969958459132e+00 -1.280774863518890427e+01 3.630000000000000000e+02
7.105833476895393908e+00 -9.648915203267467433e-01 3.640000000000000000e+02
6.587684642791289846e+00 -2.280764533089207902e+00 3.640000000000000000e+02
6.069535808687185785e+00 -3.596637545851669948e+00 3.640000000000000000e+02
5.551386974583081724e+00 -4.912510558614131995e+00 3.640000000000000000e+02
5.033238140478978551e+00 -6.228383571376593153e+00 3.640000000000000000e+02
4.515089306374874489e+00 -7.544256584139055200e+00 3.640000000000000000e+02
3.996940472270770428e+00 -8.860129596901517246e+00 3.640000000000000000e+02
3.478791638166666367e+00 -1.017600260966397840e+01 3.640000000000000000e+02
2.960642804062562750e+00 -1.149187562242644134e+01 3.640000000000000000e+02
2.442493969958459132e+00 -1.280774863518890427e+01 3.640000000000000000e+02
7.105833476895393908e+00 -9.648915203267467433e-01 3.650000000000000000e+02
6.587684642791289846e+00 -2.280764533089207902e+00 3.650000000000000000e+02
6.069535808687185785e+00 -3.596637545851669948e+00 3.650000000000000000e+02
5.551386974583081724e+00 -4.912510558614131995e+00 3.650000000000000000e+02
5.033238140478978551e+00 -6.228383571376593153e+00 3.650000000000000000e+02
4.515089306374874489e+00 -7.544256584139055200e+00 3.650000000000000000e+02
3.996940472270770428e+00 -8.860129596901517246e+00 3.650000000000000000e+02
3.478791638166666367e+00 -1.017600260966397840e+01 3.650000000000000000e+02
2.960642804062562750e+00 -1.149187562242644134e+01 3.650000000000000000e+02
2.442493969958459132e+00 -1.280774863518890427e+01 3.650000000000000000e+02
7.105833476895393908e+00 -9.648915203267467433e-01 3.660000000000000000e+02
6.587684642791289846e+00 -2.280764533089207902e+00 3.660000000000000000e+02
6.069535808687185785e+00 -3.596637545851669948e+00 3.660000000000000000e+02
5.551386974583081724e+00 -4.912510558614131995e+00 3.660000000000000000e+02
5.033238140478978551e+00 -6.228383571376593153e+00 3.660000000000000000e+02
4.515089306374874489e+00 -7.544256584139055200e+00 3.660000000000000000e+02
3.996940472270770428e+00 -8.860129596901517246e+00 3.660000000000000000e+02
3.478791638166666367e+00 -1.017600260966397840e+01 3.660000000000000000e+02
2.960642804062562750e+00 -1.149187562242644134e+01 3.660000000000000000e+02
2.442493969958459132e+00 -1.280774863518890427e+01 3.660000000000000000e+02
7.105833476895393908e+00 -9.648915203267467433e-01 3.670000000000000000e+02
6.587684642791289846e+00 -2.280764533089207902e+00 3.670000000000000000e+02
6.069535808687185785e+00 -3.596637545851669948e+00 3.670000000000000000e+02
5.551386974583081724e+00 -4.912510558614131995e+00 3.670000000000000000e+02
5.033238140478978551e+00 -6.228383571376593153e+00 3.670000000000000000e+02
4.515089306374874489e+00 -7.544256584139055200e+00 3.670000000000000000e+02
3.996940472270770428e+00 -8.860129596901517246e+00 3.670000000000000000e+02
3.478791638166666367e+00 -1.017600260966397840e+01 3.670000000000000000e+02
2.960642804062562750e+00 -1.149187562242644134e+01 3.670000000000000000e+02
2.442493969958459132e+00 -1.280774863518890427e+01 3.670000000000000000e+02
7.105833476895393908e+00 -9.648915203267467433e-01 3.680000000000000000e+02
6.587684642791289846e+00 -2.280764533089207902e+00 3.680000000000000000e+02
6.069535808687185785e+00 -3.596637545851669948e+00 3.680000000000000000e+02
5.551386974583081724e+00 -4.912510558614131995e+00 3.680000000000000000e+02
5.033238140478978551e+00 -6.228383571376593153e+00 3.680000000000000000e+02
4.515089306374874489e+00 -7.544256584139055200e+00 3.680000000000000000e+02
3.996940472270770428e+00 -8.860129596901517246e+00 3.680000000000000000e+02
3.478791638166666367e+00 -1.017600260966397840e+01 3.680000000000000000e+02
2.960642804062562750e+00 -1.149187562242644134e+01 3.680000000000000000e+02
2.442493969958459132e+00 -1.280774863518890427e+01 3.680000000000000000e+02
7.105833476895393908e+00 -9.648915203267467433e-01 3.690000000000000000e+02
6.587684642791289846e+00 -2.280764533089207902e+00 3.690000000000000000e+02
6.069535808687185785e+00 -3.596637545851669948e+00 3.690000000000000000e+02
5.551386974583081724e+00 -4.912510558614131995e+00 3.690000000000000000e+02
5.033238140478978551e+00 -6.228383571376593153e+00 3.690000000000000000e+02
4.515089306374874489e+00 -7.544256584139055200e+00 3.690000000000000000e+02
3.996940472270770428e+00 -8.860129596901517246e+00 3.690000000000000000e+02
3.478791638166666367e+00 -1.017600260966397840e+01 3.690000000000000000e+02
2.960642804062562750e+00 -1.149187562242644134e+01 3.690000000000000000e+02
2.442493969958459132e+00 -1.280774863518890427e+01 3.690000000000000000e+02
7.105833476895393908e+00 -9.648915203267467433e-01 3.700000000000000000e+02
6.587684642791289846e+00 -2.280764533089207902e+00 3.700000000000000000e+02
6.069535808687185785e+00 -3.596637545851669948e+00 3.700000000000000000e+02
5.551386974583081724e+00 -4.912510558614131995e+00 3.700000000000000000e+02
5.033238140478978551e+00 -6.228383571376593153e+00 3.700000000000000000e+02
4.515089306374874489e+00 -7.544256584139055200e+00 3.700000000000000000e+02
3.996940472270770428e+00 -8.860129596901517246e+00 3.700000000000000000e+02
3.478791638166666367e+00 -1.017600260966397840e+01 3.700000000000000000e+02
2.960642804062562750e+00 -1.149187562242644134e+01 3.700000000000000000e+02
