8.150801795756708046e+00 -8.708997874330282940e+00 3.510000000000000000e+02
6.824438506080293010e+00 -8.218324435270494277e+00 3.510000000000000000e+02
5.498075216403878862e+00 -7.727650996210704726e+00 3.510000000000000000e+02
4.171711926727464714e+00 -7.236977557150916063e+00 3.510000000000000000e+02
2.845348637051050567e+00 -6.746304118091126512e+00 3.510000000000000000e+02
1.518985347374636419e+00 -6.255630679031337849e+00 3.510000000000000000e+02
1.926220576982213828e-01 -5.764957239971549185e+00 3.510000000000000000e+02
-1.133741231978191877e+00 -5.274283800911760522e+00 3.510000000000000000e+02
-2.460104521654606913e+00 -4.783610361851971859e+00 3.510000000000000000e+02
1.038568344980122404e+01 -8.781826388081759305e+00 3.520000000000000000e+02
9.059320160124809007e+00 -8.291152949021970642e+00 3.520000000000000000e+02
7.732956870448394859e+00 -7.800479509962181091e+00 3.520000000000000000e+02
6.406593580771980712e+00 -7.309806070902392428e+00 3.520000000000000000e+02
5.080230291095566564e+00 -6.819132631842602876e+00 3.520000000000000000e+02
3.753867001419151972e+00 -6.328459192782814213e+00 3.520000000000000000e+02
2.427503711742737824e+00 -5.837785753723025550e+00 3.520000000000000000e+02
1.101140422066323232e+00 -5.347112314663236887e+00 3.520000000000000000e+02
-2.252228676100909155e-01 -4.856438875603447336e+00 3.520000000000000000e+02
-1.551586157286505063e+00 -4.365765436543658673e+00 3.520000000000000000e+02
1.038568344980122404e+01 -8.781826388081759305e+00 3.530000000000000000e+02
9.059320160124809007e+00 -8.291152949021970642e+00 3.530000000000000000e+02
7.732956870448394859e+00 -7.800479509962181091e+00 3.530000000000000000e+02
6.406593580771980712e+00 -7.309806070902392428e+00 3.530000000000000000e+02
5.080230291095566564e+00 -6.819132631842602876e+00 3.530000000000000000e+02
3.753867001419151972e+00 -6.328459192782814213e+00 3.530000000000000000e+02
2.427503711742737824e+00 -5.837785753723025550e+00 3.530000000000000000e+02
1.101140422066323232e+00 -5.347112314663236887e+00 3.530000000000000000e+02
-2.252228676100909155e-01 -4.856438875603447336e+00 3.530000000000000000e+02
-1.551586157286505063e+00 -4.365765436543658673e+00 3.530000000000000000e+02
1.038568344980122404e+01 -8.781826388081759305e+00 3.540000000000000000e+02
9.059320160124809007e+00 -8.291152949021970642e+00 3.540000000000000000e+02
7.732956870448394859e+00 -7.800479509962181091e+00 3.540000000000000000e+02
6.406593580771980712e+00 -7.309806070902392428e+00 3.540000000000000000e+02
5.080230291095566564e+00 -6.819132631842602876e+00 3.540000000000000000e+02
3.753867001419151972e+00 -6.328459192782814213e+00 3.540000000000000000e+02
2.427503711742737824e+00 -5.837785753723025550e+00 3.540000000000000000e+02
1.101140422066323232e+00 -5.347112314663236887e+00 3.540000000000000000e+02
-2.252228676100909155e-01 -4.856438875603447336e+00 3.540000000000000000e+02
-1.551586157286505063e+00 -4.365765436543658673e+00 3.540000000000000000e+02
1.038568344980122404e+01 -8.781826388081759305e+00 3.550000000000000000e+02
9.059320160124809007e+00 -8.291152949021970642e+00 3.550000000000000000e+02
7.732956870448394859e+00 -7.800479509962181091e+00 3.550000000000000000e+02
6.406593580771980712e+00 -7.309806070902392428e+00 3.550000000000000000e+02
5.080230291095566564e+00 -6.819132631842602876e+00 3.550000000000000000e+02
3.753867001419151972e+00 -6.328459192782814213e+00 3.550000000000000000e+02
2.427503711742737824e+00 -5.837785753723025550e+00 3.550000000000000000e+02
1.101140422066323232e+00 -5.347112314663236887e+00 3.550000000000000000e+02
-2.252228676100909155e-01 -4.856438875603447336e+00 3.550000000000000000e+02
-1.551586157286505063e+00 -4.365765436543658673e+00 3.550000000000000000e+02
1.038568344980122404e+01 -8.781826388081759305e+00 3.560000000000000000e+02
9.059320160124809007e+00 -8.291152949021970642e+00 3.560000000000000000e+02
7.732956870448394859e+00 -7.800479509962181091e+00 3.560000000000000000e+02
6.406593580771980712e+00 -7.309806070902392428e+00 3.560000000000000000e+02
5.080230291095566564e+00 -6.819132631842602876e+00 3.560000000000000000e+02
3.753867001419151972e+00 -6.328459192782814213e+00 3.560000000000000000e+02
2.427503711742737824e+00 -5.837785753723025550e+00 3.560000000000000000e+02
1.101140422066323232e+00 -5.347112314663236887e+00 3.560000000000000000e+02
-2.252228676100909155e-01 -4.856438875603447336e+00 3.560000000000000000e+02
-1.551586157286505063e+00 -4.365765436543658673e+00 3.560000000000000000e+02
1.038568344980122404e+01 -8.781826388081759305e+00 3.570000000000000000e+02
9.059320160124809007e+00 -8.291152949021970642e+00 3.570000000000000000e+02
7.732956870448394859e+00 -7.800479509962181091e+00 3.570000000000000000e+02
6.406593580771980712e+00 -7.309806070902392428e+00 3.570000000000000000e+02
5.080230291095566564e+00 -6.819132631842602876e+00 3.570000000000000000e+02
3.753867001419151972e+00 -6.328459192782814213e+00 3.570000000000000000e+02
2.427503711742737824e+00 -5.837785753723025550e+00 3.570000000000000000e+02
1.101140422066323232e+00 -5.347112314663236887e+00 3.570000000000000000e+02
-2.252228676100909155e-01 -4.856438875603447336e+00 3.570000000000000000e+02
-1.551586157286505063e+00 -4.365765436543658673e+00 3.570000000000000000e+02
1.038568344980122404e+01 -8.781826388081759305e+00 3.580000000000000000e+02
9.059320160124809007e+00 -8.291152949021970642e+00 3.580000000000000000e+02
7.732956870448394859e+00 -7.800479509962181091e+00 3.580000000000000000e+02
6.406593580771980712e+00 -7.309806070902392428e+00 3.580000000000000000e+02
5.080230291095566564e+00 -6.819132631842602876e+00 3.580000000000000000e+02
3.753867001419151972e+00 -6.328459192782814213e+00 3.580000000000000000e+02
2.427503711742737824e+00 -5.837785753723025550e+00 3.580000000000000000e+02
1.101140422066323232e+00 -5.347112314663236887e+00 3.580000000000000000e+02
-2.252228676100909155e-01 -4.856438875603447336e+00 3.580000000000000000e+02
-1.551586157286505063e+00 -4.365765436543658673e+00 3.580000000000000000e+02
1.038568344980122404e+01 -8.781826388081759305e+00 3.590000000000000000e+02
9.059320160124809007e+00 -8.291152949021970642e+00 3.590000000000000000e+02
7.732956870448394859e+00 -7.800479509962181091e+00 3.590000000000000000e+02
6.406593580771980712e+00 -7.309806070902392428e+00 3.590000000000000000e+02
5.080230291095566564e+00 -6.819132631842602876e+00 3.590000000000000000e+02
3.753867001419151972e+00 -6.328459192782814213e+00 3.590000000000000000e+02
2.427503711742737824e+00 -5.837785753723025550e+00 3.590000000000000000e+02
1.101140422066323232e+00 -5.347112314663236887e+00 3.590000000000000000e+02
-2.252228676100909155e-01 -4.856438875603447336e+00 3.590000000000000000e+02
-1.551586157286505063e+00 -4.365765436543658673e+00 3.590000000000000000e+02
1.038568344980122404e+01 -8.781826388081759305e+00 3.600000000000000000e+02
9.059320160124809007e+00 -8.291152949021970642e+00 3.600000000000000000e+02
7.732956870448394859e+00 -7.800479509962181091e+00 3.600000000000000000e+02
6.406593580771980712e+00 -7.309806070902392428e+00 3.600000000000000000e+02
5.080230291095566564e+00 -6.819132631842602876e+00 3.600000000000000000e+02
3.753867001419151972e+00 -6.328459192782814213e+00 3.600000000000000000e+02
2.427503711742737824e+00 -5.837785753723025550e+00 3.600000000000000000e+02
1.101140422066323232e+00 -5.347112314663236887e+00 3.600000000000000000e+02
-2.252228676100909155e-01 -4.856438875603447336e+00 3.600000000000000000e+02
-1.551586157286505063e+00 -4.365765436543658673e+00 3.600000000000000000e+02
1.038568344980122404e+01 -8.781826388081759305e+00 3.610000000000000000e+02
9.059320160124809007e+00 -8.291152949021970642e+00 3.610000000000000000e+02
7.732956870448394859e+00 -7.800479509962181091e+00 3.610000000000000000e+02
6.406593580771980712e+00 -7.309806070902392428e+00 3.610000000000000000e+02
5.080230291095566564e+00 -6.819132631842602876e+00 3.610000000000000000e+02
3.753867001419151972e+00 -6.328459192782814213e+00 3.610000000000000000e+02
2.427503711742737824e+00 -5.837785753723025550e+00 3.610000000000000000e+02
1.101140422066323232e+00 -5.347112314663236887e+00 3.610000000000000000e+02
-2.252228676100909155e-01 -4.856438875603447336e+00 3.610000000000000000e+02
-1.551586157286505063e+00 -4.365765436543658673e+00 3.610000000000000000e+02
1.038568344980122404e+01 -8.781826388081759305e+00 3.620000000000000000e+02
9.059320160124809007e+00 -8.291152949021970642e+00 3.620000000000000000e+02
7.732956870448394859e+00 -7.800479509962181091e+00 3.620000000000000000e+02
6.406593580771980712e+00 -7.309806070902392428e+00 3.620000000000000000e+02
5.080230291095566564e+00 -6.819132631842602876e+00 3.620000000000000000e+02
3.753867001419151972e+00 -6.328459192782814213e+00 3.620000000000000000e+02
2.427503711742737824e+00 -5.837785753723025550e+00 3.620000000000000000e+02
1.101140422066323232e+00 -5.347112314663236887e+00 3.620000000000000000e+02
-2.252228676100909155e-01 -4.856438875603447336e+00 3.620000000000000000e+02
-1.551586157286505063e+00 -4.365765436543658673e+00 3.620000000000000000e+02
-2.877949446962919211e+00 -3.875091997483869566e+00 3.620000000000000000e+02
1.038568344980122404e+01 -8.781826388081759305e+00 3.630000000000000000e+02
9.059320160124809007e+00 -8.291152949021970642e+00 3.630000000000000000e+02
7.732956870448394859e+00 -7.800479509962181091e+00 3.630000000000000000e+02
6.406593580771980712e+00 -7.309806070902392428e+00 3.630000000000000000e+02
5.080230291095566564e+00 -6.819132631842602876e+00 3.630000000000000000e+02
3.753867001419151972e+00 -6.328459192782814213e+00 3.630000000000000000e+02
2.427503711742737824e+00 -5.837785753723025550e+00 3.630000000000000000e+02
1.101140422066323232e+00 -5.347112314663236887e+00 3.630000000000000000e+02
-2.252228676100909155e-01 -4.856438875603447336e+00 3.630000000000000000e+02
-1.551586157286505063e+00 -4.365765436543658673e+00 3.630000000000000000e+02
-2.877949446962919211e+00 -3.875091997483869566e+00 3.630000000000000000e+02
1.038568344980122404e+01 -8.781826388081759305e+00 3.640000000000000000e+02
9.059320160124809007e+00 -8.291152949021970642e+00 3.640000000000000000e+02
7.732956870448394859e+00 -7.800479509962181091e+00 3.640000000000000000e+02
6.406593580771980712e+00 -7.309806070902392428e+00 3.640000000000000000e+02
5.080230291095566564e+00 -6.819132631842602876e+00 3.640000000000000000e+02
3.753867001419151972e+00 -6.328459192782814213e+00 3.640000000000000000e+02
2.427503711742737824e+00 -5.837785753723025550e+00 3.640000000000000000e+02
1.101140422066323232e+00 -5.347112314663236887e+00 3.640000000000000000e+02
-2.252228676100909155e-01 -4.856438875603447336e+00 3.640000000000000000e+02
-1.551586157286505063e+00 -4.365765436543658673e+00 3.640000000000000000e+02
1.038568344980122404e+01 -8.781826388081759305e+00 3.650000000000000000e+02
9.059320160124809007e+00 -8.291152949021970642e+00 3.650000000000000000e+02
7.732956870448394859e+00 -7.800479509962181091e+00 3.650000000000000000e+02
6.406593580771980712e+00 -7.309806070902392428e+00 3.650000000000000000e+02
5.080230291095566564e+00 -6.819132631842602876e+00 3.650000000000000000e+02
3.753867001419151972e+00 -6.328459192782814213e+00 3.650000000000000000e+02
2.427503711742737824e+00 -5.837785753723025550e+00 3.650000000000000000e+02
1.101140422066323232e+00 -5.347112314663236887e+00 3.650000000000000000e+02
-2.252228676100909155e-01 -4.856438875603447336e+00 3.650000000000000000e+02
-1.551586157286505063e+00 -4.365765436543658673e+00 3.650000000000000000e+02
1.038568344980122404e+01 -8.781826388081759305e+00 3.660000000000000000e+02
9.059320160124809007e+00 -8.291152949021970642e+00 3.660000000000000000e+02
7.732956870448394859e+00 -7.800479509962181091e+00 3.660000000000000000e+02
6.406593580771980712e+00 -7.309806070902392428e+00 3.660000000000000000e+02
5.080230291095566564e+00 -6.819132631842602876e+00 3.660000000000000000e+02
3.753867001419151972e+00 -6.328459192782814213e+00 3.660000000000000000e+02
2.427503711742737824e+00 -5.837785753723025550e+00 3.660000000000000000e+02
1.101140422066323232e+00 -5.347112314663236887e+00 3.660000000000000000e+02
-2.252228676100909155e-01 -4.856438875603447336e+00 3.660000000000000000e+02
-1.551586157286505063e+00 -4.365765436543658673e+00 3.660000000000000000e+02
9.967838524492911745e+00 -7.873308023713657455e+00 3.670000000000000000e+02
8.641475234816496709e+00 -7.382634584653867904e+00 3.670000000000000000e+02
7.315111945140081673e+00 -6.891961145594079241e+00 3.670000000000000000e+02
5.988748655463668413e+00 -6.401287706534290578e+00 3.670000000000000000e+02
4.662385365787253377e+00 -5.910614267474501915e+00 3.670000000000000000e+02
3.336022076110839230e+00 -5.419940828414712364e+00 3.670000000000000000e+02
2.009658786434425082e+00 -4.929267389354923701e+00 3.670000000000000000e+02
6.832954967580109340e-01 -4.438593950295135038e+00 3.670000000000000000e+02
-6.430677929184032138e-01 -3.947920511235345931e+00 3.670000000000000000e+02
-1.969431082594818250e+00 -3.457247072175556823e+00 3.670000000000000000e+02
1.038568344980122404e+01 -8.781826388081759305e+00 3.680000000000000000e+02
9.059320160124809007e+00 -8.291152949021970642e+00 3.680000000000000000e+02
7.732956870448394859e+00 -7.800479509962181091e+00 3.680000000000000000e+02
6.406593580771980712e+00 -7.309806070902392428e+00 3.680000000000000000e+02
5.080230291095566564e+00 -6.819132631842602876e+00 3.680000000000000000e+02
3.753867001419151972e+00 -6.328459192782814213e+00 3.680000000000000000e+02
2.427503711742737824e+00 -5.837785753723025550e+00 3.680000000000000000e+02
1.101140422066323232e+00 -5.347112314663236887e+00 3.680000000000000000e+02
-2.252228676100909155e-01 -4.856438875603447336e+00 3.680000000000000000e+02
-1.551586157286505063e+00 -4.365765436543658673e+00 3.680000000000000000e+02
1.038568344980122404e+01 -8.781826388081759305e+00 3.690000000000000000e+02
9.059320160124809007e+00 -8.291152949021970642e+00 3.690000000000000000e+02
7.732956870448394859e+00 -7.800479509962181091e+00 3.690000000000000000e+02
6.406593580771980712e+00 -7.309806070902392428e+00 3.690000000000000000e+02
5.080230291095566564e+00 -6.819132631842602876e+00 3.690000000000000000e+02
3.753867001419151972e+00 -6.328459192782814213e+00 3.690000000000000000e+02
2.427503711742737824e+00 -5.837785753723025550e+00 3.690000000000000000e+02
1.101140422066323232e+00 -5.347112314663236887e+00 3.690000000000000000e+02
-2.252228676100909155e-01 -4.856438875603447336e+00 3.690000000000000000e+02
-1.551586157286505063e+00 -4.365765436543658673e+00 3.690000000000000000e+02
1.038568344980122404e+01 -8.781826388081759305e+00 3.700000000000000000e+02
9.059320160124809007e+00 -8.291152949021970642e+00 3.700000000000000000e+02
7.732956870448394859e+00 -7.800479509962181091e+00 3.700000000000000000e+02
6.406593580771980712e+00 -7.309806070902392428e+00 3.700000000000000000e+02
5.080230291095566564e+00 -6.819132631842602876e+00 3.700000000000000000e+02
3.753867001419151972e+00 -6.328459192782814213e+00 3.700000000000000000e+02
2.427503711742737824e+00 -5.837785753723025550e+00 3.700000000000000000e+02
1.101140422066323232e+00 -5.347112314663236887e+00 3.700000000000000000e+02
-2.252228676100909155e-01 -4.856438875603447336e+00 3.700000000000000000e+02
-1.551586157286505063e+00 -4.365765436543658673e+00 3.700000000000000000e+02
1.038568344980122404e+01 -8.781826388081759305e+00 3.710000000000000000e+02
9.059320160124809007e+00 -8.291152949021970642e+00 3.710000000000000000e+02
7.732956870448394859e+00 -7.800479509962181091e+00 3.710000000000000000e+02
6.406593580771980712e+00 -7.309806070902392428e+00 3.710000000000000000e+02
5.080230291095566564e+00 -6.819132631842602876e+00 3.710000000000000000e+02
3.753867001419151972e+00 -6.328459192782814213e+00 3.710000000000000000e+02
2.427503711742737824e+00 -5.837785753723025550e+00 3.710000000000000000e+02
1.101140422066323232e+00 -5.347112314663236887e+00 3.710000000000000000e+02
-2.252228676100909155e-01 -4.856438875603447336e+00 3.710000000000000000e+02
-1.551586157286505063e+00 -4.365765436543658673e+00 3.710000000000000000e+02
1.038568344980122404e+01 -8.781826388081759305e+00 3.720000000000000000e+02
9.059320160124809007e+00 -8.291152949021970642e+00 3.720000000000000000e+02
7.732956870448394859e+00 -7.800479509962181091e+00 3.720000000000000000e+02
6.406593580771980712e+00 -7.309806070902392428e+00 3.720000000000000000e+02
5.080230291095566564e+00 -6.819132631842602876e+00 3.720000000000000000e+02
3.753867001419151972e+00 -6.328459192782814213e+00 3.720000000000000000e+02
2.427503711742737824e+00 -5.837785753723025550e+00 3.720000000000000000e+02
1.101140422066323232e+00 -5.347112314663236887e+00 3.720000000000000000e+02
-2.252228676100909155e-01 -4.856438875603447336e+00 3.720000000000000000e+02
-1.551586157286505063e+00 -4.365765436543658673e+00 3.720000000000000000e+02
-2.877949446962919211e+00 -3.875091997483869566e+00 3.720000000000000000e+02
1.038568344980122404e+01 -8.781826388081759305e+00 3.730000000000000000e+02
9.059320160124809007e+00 -8.291152949021970642e+00 3.730000000000000000e+02
7.732956870448394859e+00 -7.800479509962181091e+00 3.730000000000000000e+02
6.406593580771980712e+00 -7.309806070902392428e+00 3.730000000000000000e+02
5.080230291095566564e+00 -6.819132631842602876e+00 3.730000000000000000e+02
3.753867001419151972e+00 -6.328459192782814213e+00 3.730000000000000000e+02
2.427503711742737824e+00 -5.837785753723025550e+00 3.730000000000000000e+02
1.101140422066323232e+00 -5.347112314663236887e+00 3.730000000000000000e+02
-2.252228676100909155e-01 -4.856438875603447336e+00 3.730000000000000000e+02
-1.551586157286505063e+00 -4.365765436543658673e+00 3.730000000000000000e+02
1.038568344980122404e+01 -8.781826388081759305e+00 3.740000000000000000e+02
9.059320160124809007e+00 -8.291152949021970642e+00 3.740000000000000000e+02
7.732956870448394859e+00 -7.800479509962181091e+00 3.740000000000000000e+02
6.406593580771980712e+00 -7.309806070902392428e+00 3.740000000000000000e+02
5.080230291095566564e+00 -6.819132631842602876e+00 3.740000000000000000e+02
3.753867001419151972e+00 -6.328459192782814213e+00 3.740000000000000000e+02
2.427503711742737824e+00 -5.837785753723025550e+00 3.740000000000000000e+02
1.101140422066323232e+00 -5.347112314663236887e+00 3.740000000000000000e+02
-2.252228676100909155e-01 -4.856438875603447336e+00 3.740000000000000000e+02
-1.551586157286505063e+00 -4.365765436543658673e+00 3.740000000000000000e+02
1.038568344980122404e+01 -8.781826388081759305e+00 3.750000000000000000e+02
9.059320160124809007e+00 -8.291152949021970642e+00 3.750000000000000000e+02
7.732956870448394859e+00 -7.800479509962181091e+00 3.750000000000000000e+02
6.406593580771980712e+00 -7.309806070902392428e+00 3.750000000000000000e+02
5.080230291095566564e+00 -6.819132631842602876e+00 3.750000000000000000e+02
3.753867001419151972e+00 -6.328459192782814213e+00 3.750000000000000000e+02
2.427503711742737824e+00 -5.837785753723025550e+00 3.750000000000000000e+02
1.101140422066323232e+00 -5.347112314663236887e+00 3.750000000000000000e+02
-2.252228676100909155e-01 -4.856438875603447336e+00 3.750000000000000000e+02
-1.551586157286505063e+00 -4.365765436543658673e+00 3.750000000000000000e+02
1.038568344980122404e+01 -8.781826388081759305e+00 3.760000000000000000e+02
9.059320160124809007e+00 -8.291152949021970642e+00 3.760000000000000000e+02
7.732956870448394859e+00 -7.800479509962181091e+00 3.760000000000000000e+02
6.406593580771980712e+00 -7.309806070902392428e+00 3.760000000000000000e+02
5.080230291095566564e+00 -6.819132631842602876e+00 3.760000000000000000e+02
3.753867001419151972e+00 -6.328459192782814213e+00 3.760000000000000000e+02
2.427503711742737824e+00 -5.837785753723025550e+00 3.760000000000000000e+02
1.101140422066323232e+00 -5.347112314663236887e+00 3.760000000000000000e+02
-2.252228676100909155e-01 -4.856438875603447336e+00 3.760000000000000000e+02
-1.551586157286505063e+00 -4.365765436543658673e+00 3.760000000000000000e+02
1.038568344980122404e+01 -8.781826388081759305e+00 3.770000000000000000e+02
9.059320160124809007e+00 -8.291152949021970642e+00 3.770000000000000000e+02
7.732956870448394859e+00 -7.800479509962181091e+00 3.770000000000000000e+02
6.406593580771980712e+00 -7.309806070902392428e+00 3.770000000000000000e+02
5.080230291095566564e+00 -6.819132631842602876e+00 3.770000000000000000e+02
3.753867001419151972e+00 -6.328459192782814213e+00 3.770000000000000000e+02
2.427503711742737824e+00 -5.837785753723025550e+00 3.770000000000000000e+02
1.101140422066323232e+00 -5.347112314663236887e+00 3.770000000000000000e+02
-2.252228676100909155e-01 -4.856438875603447336e+00 3.770000000000000000e+02
-1.551586157286505063e+00 -4.365765436543658673e+00 3.770000000000000000e+02
1.038568344980122404e+01 -8.781826388081759305e+00 3.780000000000000000e+02
9.059320160124809007e+00 -8.291152949021970642e+00 3.780000000000000000e+02
7.732956870448394859e+00 -7.800479509962181091e+00 3.780000000000000000e+02
6.406593580771980712e+00 -7.309806070902392428e+00 3.780000000000000000e+02
5.080230291095566564e+00 -6.819132631842602876e+00 3.780000000000000000e+02
3.753867001419151972e+00 -6.328459192782814213e+00 3.780000000000000000e+02
2.427503711742737824e+00 -5.837785753723025550e+00 3.780000000000000000e+02
1.101140422066323232e+00 -5.347112314663236887e+00 3.780000000000000000e+02
-2.252228676100909155e-01 -4.856438875603447336e+00 3.780000000000000000e+02
-1.551586157286505063e+00 -4.365765436543658673e+00 3.780000000000000000e+02
1.038568344980122404e+01 -8.781826388081759305e+00 3.790000000000000000e+02
9.059320160124809007e+00 -8.291152949021970642e+00 3.790000000000000000e+02
7.732956870448394859e+00 -7.800479509962181091e+00 3.790000000000000000e+02
6.406593580771980712e+00 -7.309806070902392428e+00 3.790000000000000000e+02
5.080230291095566564e+00 -6.819132631842602876e+00 3.790000000000000000e+02
3.753867001419151972e+00 -6.328459192782814213e+00 3.790000000000000000e+02
2.427503711742737824e+00 -5.837785753723025550e+00 3.790000000000000000e+02
1.101140422066323232e+00 -5.347112314663236887e+00 3.790000000000000000e+02
-2.252228676100909155e-01 -4.856438875603447336e+00 3.790000000000000000e+02
-1.551586157286505063e+00 -4.365765436543658673e+00 3.790000000000000000e+02
1.038568344980122404e+01 -8.781826388081759305e+00 3.800000000000000000e+02
9.059320160124809007e+00 -8.291152949021970642e+00 3.800000000000000000e+02
7.732956870448394859e+00 -7.800479509962181091e+00 3.800000000000000000e+02
6.406593580771980712e+00 -7.309806070902392428e+00 3.800000000000000000e+02
5.080230291095566564e+00 -6.819132631842602876e+00 3.800000000000000000e+02
3.753867001419151972e+00 -6.328459192782814213e+00 3.800000000000000000e+02
2.427503711742737824e+00 -5.837785753723025550e+00 3.800000000000000000e+02
1.101140422066323232e+00 -5.347112314663236887e+00 3.800000000000000000e+02
-2.252228676100909155e-01 -4.856438875603447336e+00 3.800000000000000000e+02
-1.551586157286505063e+00 -4.365765436543658673e+00 3.800000000000000000e+02
1.038568344980122404e+01 -8.781826388081759305e+00 3.810000000000000000e+02
9.059320160124809007e+00 -8.291152949021970642e+00 3.810000000000000000e+02
7.732956870448394859e+00 -7.800479509962181091e+00 3.810000000000000000e+02
6.406593580771980712e+00 -7.309806070902392428e+00 3.810000000000000000e+02
5.080230291095566564e+00 -6.819132631842602876e+00 3.810000000000000000e+02
3.753867001419151972e+00 -6.328459192782814213e+00 3.810000000000000000e+02
2.427503711742737824e+00 -5.837785753723025550e+00 3.810000000000000000e+02
1.101140422066323232e+00 -5.347112314663236887e+00 3.810000000000000000e+02
-2.252228676100909155e-01 -4.856438875603447336e+00 3.810000000000000000e+02
-1.551586157286505063e+00 -4.365765436543658673e+00 3.810000000000000000e+02
1.038568344980122404e+01 -8.781826388081759305e+00 3.820000000000000000e+02
9.059320160124809007e+00 -8.291152949021970642e+00 3.820000000000000000e+02
7.732956870448394859e+00 -7.800479509962181091e+00 3.820000000000000000e+02
6.406593580771980712e+00 -7.309806070902392428e+00 3.820000000000000000e+02
5.080230291095566564e+00 -6.819132631842602876e+00 3.820000000000000000e+02
3.753867001419151972e+00 -6.328459192782814213e+00 3.820000000000000000e+02
2.427503711742737824e+00 -5.837785753723025550e+00 3.820000000000000000e+02
1.101140422066323232e+00 -5.347112314663236887e+00 3.820000000000000000e+02
-2.252228676100909155e-01 -4.856438875603447336e+00 3.820000000000000000e+02
-1.551586157286505063e+00 -4.365765436543658673e+00 3.820000000000000000e+02
1.038568344980122404e+01 -8.781826388081759305e+00 3.830000000000000000e+02
9.059320160124809007e+00 -8.291152949021970642e+00 3.830000000000000000e+02
7.732956870448394859e+00 -7.800479509962181091e+00 3.830000000000000000e+02
6.406593580771980712e+00 -7.309806070902392428e+00 3.830000000000000000e+02
5.080230291095566564e+00 -6.819132631842602876e+00 3.830000000000000000e+02
3.753867001419151972e+00 -6.328459192782814213e+00 3.830000000000000000e+02
2.427503711742737824e+00 -5.837785753723025550e+00 3.830000000000000000e+02
1.101140422066323232e+00 -5.347112314663236887e+00 3.830000000000000000e+02
-2.252228676100909155e-01 -4.856438875603447336e+00 3.830000000000000000e+02
-1.551586157286505063e+00 -4.365765436543658673e+00 3.830000000000000000e+02
1.038568344980122404e+01 -8.781826388081759305e+00 3.840000000000000000e+02
9.059320160124809007e+00 -8.291152949021970642e+00 3.840000000000000000e+02
7.732956870448394859e+00 -7.800479509962181091e+00 3.840000000000000000e+02
6.406593580771980712e+00 -7.309806070902392428e+00 3.840000000000000000e+02
5.080230291095566564e+00 -6.819132631842602876e+00 3.840000000000000000e+02
3.753867001419151972e+00 -6.328459192782814213e+00 3.840000000000000000e+02
2.427503711742737824e+00 -5.837785753723025550e+00 3.840000000000000000e+02
1.101140422066323232e+00 -5.347112314663236887e+00 3.840000000000000000e+02
-2.252228676100909155e-01 -4.856438875603447336e+00 3.840000000000000000e+02
-1.551586157286505063e+00 -4.365765436543658673e+00 3.840000000000000000e+02
-2.877949446962919211e+00 -3.875091997483869566e+00 3.840000000000000000e+02
1.038568344980122404e+01 -8.781826388081759305e+00 3.850000000000000000e+02
9.059320160124809007e+00 -8.291152949021970642e+00 3.850000000000000000e+02
7.732956870448394859e+00 -7.800479509962181091e+00 3.850000000000000000e+02
6.406593580771980712e+00 -7.309806070902392428e+00 3.850000000000000000e+02
5.080230291095566564e+00 -6.819132631842602876e+00 3.850000000000000000e+02
3.753867001419151972e+00 -6.328459192782814213e+00 3.850000000000000000e+02
2.427503711742737824e+00 -5.837785753723025550e+00 3.850000000000000000e+02
1.101140422066323232e+00 -5.347112314663236887e+00 3.850000000000000000e+02
-2.252228676100909155e-01 -4.856438875603447336e+00 3.850000000000000000e+02
-1.551586157286505063e+00 -4.365765436543658673e+00 3.850000000000000000e+02
-2.877949446962919211e+00 -3.875091997483869566e+00 3.850000000000000000e+02
1.038568344980122404e+01 -8.781826388081759305e+00 3.860000000000000000e+02
9.059320160124809007e+00 -8.291152949021970642e+00 3.860000000000000000e+02
7.732956870448394859e+00 -7.800479509962181091e+00 3.860000000000000000e+02
6.406593580771980712e+00 -7.309806070902392428e+00 3.860000000000000000e+02
5.080230291095566564e+00 -6.819132631842602876e+00 3.860000000000000000e+02
3.753867001419151972e+00 -6.328459192782814213e+00 3.860000000000000000e+02
2.427503711742737824e+00 -5.837785753723025550e+00 3.860000000000000000e+02
1.101140422066323232e+00 -5.347112314663236887e+00 3.860000000000000000e+02
-2.252228676100909155e-01 -4.856438875603447336e+00 3.860000000000000000e+02
-1.551586157286505063e+00 -4.365765436543658673e+00 3.860000000000000000e+02
-2.877949446962919211e+00 -3.875091997483869566e+00 3.860000000000000000e+02
1.038568344980122404e+01 -8.781826388081759305e+00 3.870000000000000000e+02
9.059320160124809007e+00 -8.291152949021970642e+00 3.870000000000000000e+02
7.732956870448394859e+00 -7.800479509962181091e+00 3.870000000000000000e+02
6.406593580771980712e+00 -7.309806070902392428e+00 3.870000000000000000e+02
5.080230291095566564e+00 -6.819132631842602876e+00 3.870000000000000000e+02
3.753867001419151972e+00 -6.328459192782814213e+00 3.870000000000000000e+02
2.427503711742737824e+00 -5.837785753723025550e+00 3.870000000000000000e+02
1.101140422066323232e+00 -5.347112314663236887e+00 3.870000000000000000e+02
-2.252228676100909155e-01 -4.856438875603447336e+00 3.870000000000000000e+02
-1.551586157286505063e+00 -4.365765436543658673e+00 3.870000000000000000e+02
1.038568344980122404e+01 -8.781826388081759305e+00 3.880000000000000000e+02
9.059320160124809007e+00 -8.291152949021970642e+00 3.880000000000000000e+02
7.732956870448394859e+00 -7.800479509962181091e+00 3.880000000000000000e+02
6.406593580771980712e+00 -7.309806070902392428e+00 3.880000000000000000e+02
5.080230291095566564e+00 -6.819132631842602876e+00 3.880000000000000000e+02
3.753867001419151972e+00 -6.328459192782814213e+00 3.880000000000000000e+02
2.427503711742737824e+00 -5.837785753723025550e+00 3.880000000000000000e+02
1.101140422066323232e+00 -5.347112314663236887e+00 3.880000000000000000e+02
-2.252228676100909155e-01 -4.856438875603447336e+00 3.880000000000000000e+02
-1.551586157286505063e+00 -4.365765436543658673e+00 3.880000000000000000e+02
1.038568344980122404e+01 -8.781826388081759305e+00 3.890000000000000000e+02
9.059320160124809007e+00 -8.291152949021970642e+00 3.890000000000000000e+02
7.732956870448394859e+00 -7.800479509962181091e+00 3.890000000000000000e+02
6.406593580771980712e+00 -7.309806070902392428e+00 3.890000000000000000e+02
5.080230291095566564e+00 -6.819132631842602876e+00 3.890000000000000000e+02
3.753867001419151972e+00 -6.328459192782814213e+00 3.890000000000000000e+02
2.427503711742737824e+00 -5.837785753723025550e+00 3.890000000000000000e+02
1.101140422066323232e+00 -5.347112314663236887e+00 3.890000000000000000e+02
-2.252228676100909155e-01 -4.856438875603447336e+00 3.890000000000000000e+02
-1.551586157286505063e+00 -4.365765436543658673e+00 3.890000000000000000e+02
1.038568344980122404e+01 -8.781826388081759305e+00 3.900000000000000000e+02
9.059320160124809007e+00 -8.291152949021970642e+00 3.900000000000000000e+02
7.732956870448394859e+00 -7.800479509962181091e+00 3.900000000000000000e+02
6.406593580771980712e+00 -7.309806070902392428e+00 3.900000000000000000e+02
5.080230291095566564e+00 -6.819132631842602876e+00 3.900000000000000000e+02
3.753867001419151972e+00 -6.328459192782814213e+00 3.900000000000000000e+02
2.427503711742737824e+00 -5.837785753723025550e+00 3.900000000000000000e+02
1.101140422066323232e+00 -5.347112314663236887e+00 3.900000000000000000e+02
-2.252228676100909155e-01 -4.856438875603447336e+00 3.900000000000000000e+02
-1.551586157286505063e+00 -4.365765436543658673e+00 3.900000000000000000e+02
1.038568344980122404e+01 -8.781826388081759305e+00 3.910000000000000000e+02
9.059320160124809007e+00 -8.291152949021970642e+00 3.910000000000000000e+02
7.732956870448394859e+00 -7.800479509962181091e+00 3.910000000000000000e+02
6.406593580771980712e+00 -7.309806070902392428e+00 3.910000000000000000e+02
5.080230291095566564e+00 -6.819132631842602876e+00 3.910000000000000000e+02
3.753867001419151972e+00 -6.328459192782814213e+00 3.910000000000000000e+02
2.427503711742737824e+00 -5.837785753723025550e+00 3.910000000000000000e+02
1.101140422066323232e+00 -5.347112314663236887e+00 3.910000000000000000e+02
-2.252228676100909155e-01 -4.856438875603447336e+00 3.910000000000000000e+02
-1.551586157286505063e+00 -4.365765436543658673e+00 3.910000000000000000e+02
1.038568344980122404e+01 -8.781826388081759305e+00 3.920000000000000000e+02
9.059320160124809007e+00 -8.291152949021970642e+00 3.920000000000000000e+02
7.732956870448394859e+00 -7.800479509962181091e+00 3.920000000000000000e+02
6.406593580771980712e+00 -7.309806070902392428e+00 3.920000000000000000e+02
5.080230291095566564e+00 -6.819132631842602876e+00 3.920000000000000000e+02
3.753867001419151972e+00 -6.328459192782814213e+00 3.920000000000000000e+02
2.427503711742737824e+00 -5.837785753723025550e+00 3.920000000000000000e+02
1.101140422066323232e+00 -5.347112314663236887e+00 3.920000000000000000e+02
-2.252228676100909155e-01 -4.856438875603447336e+00 3.920000000000000000e+02
-1.551586157286505063e+00 -4.365765436543658673e+00 3.920000000000000000e+02
-2.877949446962919211e+00 -3.875091997483869566e+00 3.920000000000000000e+02
1.038568344980122404e+01 -8.781826388081759305e+00 3.930000000000000000e+02
9.059320160124809007e+00 -8.291152949021970642e+00 3.930000000000000000e+02
7.732956870448394859e+00 -7.800479509962181091e+00 3.930000000000000000e+02
6.406593580771980712e+00 -7.309806070902392428e+00 3.930000000000000000e+02
5.080230291095566564e+00 -6.819132631842602876e+00 3.930000000000000000e+02
3.753867001419151972e+00 -6.328459192782814213e+00 3.930000000000000000e+02
2.427503711742737824e+00 -5.837785753723025550e+00 3.930000000000000000e+02
1.101140422066323232e+00 -5.347112314663236887e+00 3.930000000000000000e+02
-2.252228676100909155e-01 -4.856438875603447336e+00 3.930000000000000000e+02
-1.551586157286505063e+00 -4.365765436543658673e+00 3.930000000000000000e+02
-2.877949446962919211e+00 -3.875091997483869566e+00 3.930000000000000000e+02
1.038568344980122404e+01 -8.781826388081759305e+00 3.940000000000000000e+02
9.059320160124809007e+00 -8.291152949021970642e+00 3.940000000000000000e+02
7.732956870448394859e+00 -7.800479509962181091e+00 3.940000000000000000e+02
6.406593580771980712e+00 -7.309806070902392428e+00 3.940000000000000000e+02
5.080230291095566564e+00 -6.819132631842602876e+00 3.940000000000000000e+02
3.753867001419151972e+00 -6.328459192782814213e+00 3.940000000000000000e+02
2.427503711742737824e+00 -5.837785753723025550e+00 3.940000000000000000e+02
1.101140422066323232e+00 -5.347112314663236887e+00 3.940000000000000000e+02
-2.252228676100909155e-01 -4.856438875603447336e+00 3.940000000000000000e+02
-1.551586157286505063e+00 -4.365765436543658673e+00 3.940000000000000000e+02
-2.877949446962919211e+00 -3.875091997483869566e+00 3.940000000000000000e+02
1.038568344980122404e+01 -8.781826388081759305e+00 3.950000000000000000e+02
9.059320160124809007e+00 -8.291152949021970642e+00 3.950000000000000000e+02
7.732956870448394859e+00 -7.800479509962181091e+00 3.950000000000000000e+02
6.406593580771980712e+00 -7.309806070902392428e+00 3.950000000000000000e+02
5.080230291095566564e+00 -6.819132631842602876e+00 3.950000000000000000e+02
3.753867001419151972e+00 -6.328459192782814213e+00 3.950000000000000000e+02
2.427503711742737824e+00 -5.837785753723025550e+00 3.950000000000000000e+02
1.101140422066323232e+00 -5.347112314663236887e+00 3.950000000000000000e+02
-2.252228676100909155e-01 -4.856438875603447336e+00 3.950000000000000000e+02
-1.551586157286505063e+00 -4.365765436543658673e+00 3.950000000000000000e+02
1.038568344980122404e+01 -8.781826388081759305e+00 3.960000000000000000e+02
9.059320160124809007e+00 -8.291152949021970642e+00 3.960000000000000000e+02
7.732956870448394859e+00 -7.800479509962181091e+00 3.960000000000000000e+02
6.406593580771980712e+00 -7.309806070902392428e+00 3.960000000000000000e+02
5.080230291095566564e+00 -6.819132631842602876e+00 3.960000000000000000e+02
3.753867001419151972e+00 -6.328459192782814213e+00 3.960000000000000000e+02
2.427503711742737824e+00 -5.837785753723025550e+00 3.960000000000000000e+02
1.101140422066323232e+00 -5.347112314663236887e+00 3.960000000000000000e+02
-2.252228676100909155e-01 -4.856438875603447336e+00 3.960000000000000000e+02
-1.551586157286505063e+00 -4.365765436543658673e+00 3.960000000000000000e+02
1.038568344980122404e+01 -8.781826388081759305e+00 3.970000000000000000e+02
9.059320160124809007e+00 -8.291152949021970642e+00 3.970000000000000000e+02
7.732956870448394859e+00 -7.800479509962181091e+00 3.970000000000000000e+02
6.406593580771980712e+00 -7.309806070902392428e+00 3.970000000000000000e+02
5.080230291095566564e+00 -6.819132631842602876e+00 3.970000000000000000e+02
3.753867001419151972e+00 -6.328459192782814213e+00 3.970000000000000000e+02
2.427503711742737824e+00 -5.837785753723025550e+00 3.970000000000000000e+02
1.101140422066323232e+00 -5.347112314663236887e+00 3.970000000000000000e+02
-2.252228676100909155e-01 -4.856438875603447336e+00 3.970000000000000000e+02
-1.551586157286505063e+00 -4.365765436543658673e+00 3.970000000000000000e+02
1.038568344980122404e+01 -8.781826388081759305e+00 3.980000000000000000e+02
9.059320160124809007e+00 -8.291152949021970642e+00 3.980000000000000000e+02
7.732956870448394859e+00 -7.800479509962181091e+00 3.980000000000000000e+02
6.406593580771980712e+00 -7.309806070902392428e+00 3.980000000000000000e+02
5.080230291095566564e+00 -6.819132631842602876e+00 3.980000000000000000e+02
3.753867001419151972e+00 -6.328459192782814213e+00 3.980000000000000000e+02
2.427503711742737824e+00 -5.837785753723025550e+00 3.980000000000000000e+02
1.101140422066323232e+00 -5.347112314663236887e+00 3.980000000000000000e+02
-2.252228676100909155e-01 -4.856438875603447336e+00 3.980000000000000000e+02
-1.551586157286505063e+00 -4.365765436543658673e+00 3.980000000000000000e+02
1.038568344980122404e+01 -8.781826388081759305e+00 3.990000000000000000e+02
9.059320160124809007e+00 -8.291152949021970642e+00 3.990000000000000000e+02
7.732956870448394859e+00 -7.800479509962181091e+00 3.990000000000000000e+02
6.406593580771980712e+00 -7.309806070902392428e+00 3.990000000000000000e+02
5.080230291095566564e+00 -6.819132631842602876e+00 3.990000000000000000e+02
3.753867001419151972e+00 -6.328459192782814213e+00 3.990000000000000000e+02
2.427503711742737824e+00 -5.837785753723025550e+00 3.990000000000000000e+02
1.101140422066323232e+00 -5.347112314663236887e+00 3.990000000000000000e+02
-2.252228676100909155e-01 -4.856438875603447336e+00 3.990000000000000000e+02
-1.551586157286505063e+00 -4.365765436543658673e+00 3.990000000000000000e+02
9.967838524492911745e+00 -7.873308023713657455e+00 4.000000000000000000e+02
8.641475234816496709e+00 -7.382634584653867904e+00 4.000000000000000000e+02
7.315111945140081673e+00 -6.891961145594079241e+00 4.000000000000000000e+02
5.988748655463668413e+00 -6.401287706534290578e+00 4.000000000000000000e+02
4.662385365787253377e+00 -5.910614267474501915e+00 4.000000000000000000e+02
3.336022076110839230e+00 -5.419940828414712364e+00 4.000000000000000000e+02
2.009658786434425082e+00 -4.929267389354923701e+00 4.000000000000000000e+02
6.832954967580109340e-01 -4.438593950295135038e+00 4.000000000000000000e+02
-6.430677929184032138e-01 -3.947920511235345931e+00 4.000000000000000000e+02
9.967838524492911745e+00 -7.873308023713657455e+00 4.010000000000000000e+02
8.641475234816496709e+00 -7.382634584653867904e+00 4.010000000000000000e+02
7.315111945140081673e+00 -6.891961145594079241e+00 4.010000000000000000e+02
5.988748655463668413e+00 -6.401287706534290578e+00 4.010000000000000000e+02
4.662385365787253377e+00 -5.910614267474501915e+00 4.010000000000000000e+02
3.336022076110839230e+00 -5.419940828414712364e+00 4.010000000000000000e+02
2.009658786434425082e+00 -4.929267389354923701e+00 4.010000000000000000e+02
6.832954967580109340e-01 -4.438593950295135038e+00 4.010000000000000000e+02
-6.430677929184032138e-01 -3.947920511235345931e+00 4.010000000000000000e+02
1.038568344980122404e+01 -8.781826388081759305e+00 4.020000000000000000e+02
9.059320160124809007e+00 -8.291152949021970642e+00 4.020000000000000000e+02
7.732956870448394859e+00 -7.800479509962181091e+00 4.020000000000000000e+02
6.406593580771980712e+00 -7.309806070902392428e+00 4.020000000000000000e+02
5.080230291095566564e+00 -6.819132631842602876e+00 4.020000000000000000e+02
3.753867001419151972e+00 -6.328459192782814213e+00 4.020000000000000000e+02
2.427503711742737824e+00 -5.837785753723025550e+00 4.020000000000000000e+02
1.101140422066323232e+00 -5.347112314663236887e+00 4.020000000000000000e+02
-2.252228676100909155e-01 -4.856438875603447336e+00 4.020000000000000000e+02
-1.551586157286505063e+00 -4.365765436543658673e+00 4.020000000000000000e+02
1.038568344980122404e+01 -8.781826388081759305e+00 4.030000000000000000e+02
9.059320160124809007e+00 -8.291152949021970642e+00 4.030000000000000000e+02
7.732956870448394859e+00 -7.800479509962181091e+00 4.030000000000000000e+02
6.406593580771980712e+00 -7.309806070902392428e+00 4.030000000000000000e+02
5.080230291095566564e+00 -6.819132631842602876e+00 4.030000000000000000e+02
3.753867001419151972e+00 -6.328459192782814213e+00 4.030000000000000000e+02
2.427503711742737824e+00 -5.837785753723025550e+00 4.030000000000000000e+02
1.101140422066323232e+00 -5.347112314663236887e+00 4.030000000000000000e+02
-2.252228676100909155e-01 -4.856438875603447336e+00 4.030000000000000000e+02
-1.551586157286505063e+00 -4.365765436543658673e+00 4.030000000000000000e+02
1.038568344980122404e+01 -8.781826388081759305e+00 4.040000000000000000e+02
9.059320160124809007e+00 -8.291152949021970642e+00 4.040000000000000000e+02
7.732956870448394859e+00 -7.800479509962181091e+00 4.040000000000000000e+02
6.406593580771980712e+00 -7.309806070902392428e+00 4.040000000000000000e+02
5.080230291095566564e+00 -6.819132631842602876e+00 4.040000000000000000e+02
3.753867001419151972e+00 -6.328459192782814213e+00 4.040000000000000000e+02
2.427503711742737824e+00 -5.837785753723025550e+00 4.040000000000000000e+02
1.101140422066323232e+00 -5.347112314663236887e+00 4.040000000000000000e+02
-2.252228676100909155e-01 -4.856438875603447336e+00 4.040000000000000000e+02
-1.551586157286505063e+00 -4.365765436543658673e+00 4.040000000000000000e+02
1.038568344980122404e+01 -8.781826388081759305e+00 4.050000000000000000e+02
9.059320160124809007e+00 -8.291152949021970642e+00 4.050000000000000000e+02
7.732956870448394859e+00 -7.800479509962181091e+00 4.050000000000000000e+02
6.406593580771980712e+00 -7.309806070902392428e+00 4.050000000000000000e+02
5.080230291095566564e+00 -6.819132631842602876e+00 4.050000000000000000e+02
3.753867001419151972e+00 -6.328459192782814213e+00 4.050000000000000000e+02
2.427503711742737824e+00 -5.837785753723025550e+00 4.050000000000000000e+02
1.101140422066323232e+00 -5.347112314663236887e+00 4.050000000000000000e+02
-2.252228676100909155e-01 -4.856438875603447336e+00 4.050000000000000000e+02
-1.551586157286505063e+00 -4.365765436543658673e+00 4.050000000000000000e+02
1.038568344980122404e+01 -8.781826388081759305e+00 4.060000000000000000e+02
9.059320160124809007e+00 -8.291152949021970642e+00 4.060000000000000000e+02
7.732956870448394859e+00 -7.800479509962181091e+00 4.060000000000000000e+02
6.406593580771980712e+00 -7.309806070902392428e+00 4.060000000000000000e+02
5.080230291095566564e+00 -6.819132631842602876e+00 4.060000000000000000e+02
3.753867001419151972e+00 -6.328459192782814213e+00 4.060000000000000000e+02
2.427503711742737824e+00 -5.837785753723025550e+00 4.060000000000000000e+02
1.101140422066323232e+00 -5.347112314663236887e+00 4.060000000000000000e+02
-2.252228676100909155e-01 -4.856438875603447336e+00 4.060000000000000000e+02
-1.551586157286505063e+00 -4.365765436543658673e+00 4.060000000000000000e+02
1.038568344980122404e+01 -8.781826388081759305e+00 4.070000000000000000e+02
9.059320160124809007e+00 -8.291152949021970642e+00 4.070000000000000000e+02
7.732956870448394859e+00 -7.800479509962181091e+00 4.070000000000000000e+02
6.406593580771980712e+00 -7.309806070902392428e+00 4.070000000000000000e+02
5.080230291095566564e+00 -6.819132631842602876e+00 4.070000000000000000e+02
3.753867001419151972e+00 -6.328459192782814213e+00 4.070000000000000000e+02
2.427503711742737824e+00 -5.837785753723025550e+00 4.070000000000000000e+02
1.101140422066323232e+00 -5.347112314663236887e+00 4.070000000000000000e+02
-2.252228676100909155e-01 -4.856438875603447336e+00 4.070000000000000000e+02
-1.551586157286505063e+00 -4.365765436543658673e+00 4.070000000000000000e+02
1.038568344980122404e+01 -8.781826388081759305e+00 4.080000000000000000e+02
9.059320160124809007e+00 -8.291152949021970642e+00 4.080000000000000000e+02
7.732956870448394859e+00 -7.800479509962181091e+00 4.080000000000000000e+02
6.406593580771980712e+00 -7.309806070902392428e+00 4.080000000000000000e+02
5.080230291095566564e+00 -6.819132631842602876e+00 4.080000000000000000e+02
3.753867001419151972e+00 -6.328459192782814213e+00 4.080000000000000000e+02
2.427503711742737824e+00 -5.837785753723025550e+00 4.080000000000000000e+02
1.101140422066323232e+00 -5.347112314663236887e+00 4.080000000000000000e+02
-2.252228676100909155e-01 -4.856438875603447336e+00 4.080000000000000000e+02
-1.551586157286505063e+00 -4.365765436543658673e+00 4.080000000000000000e+02
1.038568344980122404e+01 -8.781826388081759305e+00 4.090000000000000000e+02
9.059320160124809007e+00 -8.291152949021970642e+00 4.090000000000000000e+02
7.732956870448394859e+00 -7.800479509962181091e+00 4.090000000000000000e+02
6.406593580771980712e+00 -7.309806070902392428e+00 4.090000000000000000e+02
5.080230291095566564e+00 -6.819132631842602876e+00 4.090000000000000000e+02
3.753867001419151972e+00 -6.328459192782814213e+00 4.090000000000000000e+02
2.427503711742737824e+00 -5.837785753723025550e+00 4.090000000000000000e+02
1.101140422066323232e+00 -5.347112314663236887e+00 4.090000000000000000e+02
-2.252228676100909155e-01 -4.856438875603447336e+00 4.090000000000000000e+02
-1.551586157286505063e+00 -4.365765436543658673e+00 4.090000000000000000e+02
1.080352837510953634e+01 -9.690344752449860266e+00 4.100000000000000000e+02
9.477165085433121305e+00 -9.199671313390071603e+00 4.100000000000000000e+02
8.150801795756708046e+00 -8.708997874330282940e+00 4.100000000000000000e+02
6.824438506080293010e+00 -8.218324435270494277e+00 4.100000000000000000e+02
5.498075216403878862e+00 -7.727650996210704726e+00 4.100000000000000000e+02
4.171711926727464714e+00 -7.236977557150916063e+00 4.100000000000000000e+02
2.845348637051050567e+00 -6.746304118091126512e+00 4.100000000000000000e+02
1.518985347374636419e+00 -6.255630679031337849e+00 4.100000000000000000e+02
1.926220576982213828e-01 -5.764957239971549185e+00 4.100000000000000000e+02
-1.133741231978191877e+00 -5.274283800911760522e+00 4.100000000000000000e+02
-2.460104521654606913e+00 -4.783610361851971859e+00 4.100000000000000000e+02
1.080352837510953634e+01 -9.690344752449860266e+00 4.110000000000000000e+02
9.477165085433121305e+00 -9.199671313390071603e+00 4.110000000000000000e+02
8.150801795756708046e+00 -8.708997874330282940e+00 4.110000000000000000e+02
6.824438506080293010e+00 -8.218324435270494277e+00 4.110000000000000000e+02
5.498075216403878862e+00 -7.727650996210704726e+00 4.110000000000000000e+02
4.171711926727464714e+00 -7.236977557150916063e+00 4.110000000000000000e+02
2.845348637051050567e+00 -6.746304118091126512e+00 4.110000000000000000e+02
1.518985347374636419e+00 -6.255630679031337849e+00 4.110000000000000000e+02
1.926220576982213828e-01 -5.764957239971549185e+00 4.110000000000000000e+02
-1.133741231978191877e+00 -5.274283800911760522e+00 4.110000000000000000e+02
-2.460104521654606913e+00 -4.783610361851971859e+00 4.110000000000000000e+02
1.038568344980122404e+01 -8.781826388081759305e+00 4.120000000000000000e+02
9.059320160124809007e+00 -8.291152949021970642e+00 4.120000000000000000e+02
7.732956870448394859e+00 -7.800479509962181091e+00 4.120000000000000000e+02
6.406593580771980712e+00 -7.309806070902392428e+00 4.120000000000000000e+02
5.080230291095566564e+00 -6.819132631842602876e+00 4.120000000000000000e+02
3.753867001419151972e+00 -6.328459192782814213e+00 4.120000000000000000e+02
2.427503711742737824e+00 -5.837785753723025550e+00 4.120000000000000000e+02
1.101140422066323232e+00 -5.347112314663236887e+00 4.120000000000000000e+02
-2.252228676100909155e-01 -4.856438875603447336e+00 4.120000000000000000e+02
-1.551586157286505063e+00 -4.365765436543658673e+00 4.120000000000000000e+02
1.038568344980122404e+01 -8.781826388081759305e+00 4.130000000000000000e+02
