1.569924836660350209e-01 6.784562746615499407e+01 2.780000000000000000e+02
1.545222486690395414e+00 6.757578036370068730e+01 2.780000000000000000e+02
2.933452489714755806e+00 6.730593326124638054e+01 2.780000000000000000e+02
4.321682492739116199e+00 6.703608615879208799e+01 2.780000000000000000e+02
5.709912495763476592e+00 6.676623905633778122e+01 2.780000000000000000e+02
7.098142498787836985e+00 6.649639195388347446e+01 2.780000000000000000e+02
8.486372501812198266e+00 6.622654485142916769e+01 2.780000000000000000e+02
9.874602504836557770e+00 6.595669774897486093e+01 2.780000000000000000e+02
1.126283250786091727e+01 6.568685064652055416e+01 2.780000000000000000e+02
1.569924836660350209e-01 6.784562746615499407e+01 2.790000000000000000e+02
1.545222486690395414e+00 6.757578036370068730e+01 2.790000000000000000e+02
2.933452489714755806e+00 6.730593326124638054e+01 2.790000000000000000e+02
4.321682492739116199e+00 6.703608615879208799e+01 2.790000000000000000e+02
5.709912495763476592e+00 6.676623905633778122e+01 2.790000000000000000e+02
7.098142498787836985e+00 6.649639195388347446e+01 2.790000000000000000e+02
8.486372501812198266e+00 6.622654485142916769e+01 2.790000000000000000e+02
9.874602504836557770e+00 6.595669774897486093e+01 2.790000000000000000e+02
1.126283250786091727e+01 6.568685064652055416e+01 2.790000000000000000e+02
1.569924836660350209e-01 6.784562746615499407e+01 2.800000000000000000e+02
1.545222486690395414e+00 6.757578036370068730e+01 2.800000000000000000e+02
2.933452489714755806e+00 6.730593326124638054e+01 2.800000000000000000e+02
4.321682492739116199e+00 6.703608615879208799e+01 2.800000000000000000e+02
5.709912495763476592e+00 6.676623905633778122e+01 2.800000000000000000e+02
7.098142498787836985e+00 6.649639195388347446e+01 2.800000000000000000e+02
8.486372501812198266e+00 6.622654485142916769e+01 2.800000000000000000e+02
9.874602504836557770e+00 6.595669774897486093e+01 2.800000000000000000e+02
1.126283250786091727e+01 6.568685064652055416e+01 2.800000000000000000e+02
-4.021989666189922374e-01 6.867466601889432809e+01 2.810000000000000000e+02
9.860310364053681553e-01 6.840481891644002133e+01 2.810000000000000000e+02
2.374261039429728548e+00 6.813497181398571456e+01 2.810000000000000000e+02
3.762491042454088497e+00 6.786512471153140780e+01 2.810000000000000000e+02
5.150721045478448445e+00 6.759527760907711524e+01 2.810000000000000000e+02
6.538951048502809726e+00 6.732543050662280848e+01 2.810000000000000000e+02
7.927181051527169231e+00 6.705558340416850172e+01 2.810000000000000000e+02
9.315411054551530512e+00 6.678573630171419495e+01 2.810000000000000000e+02
1.070364105757589002e+01 6.651588919925988819e+01 2.810000000000000000e+02
1.209187106060025130e+01 6.624604209680558142e+01 2.810000000000000000e+02
-4.021989666189922374e-01 6.867466601889432809e+01 2.820000000000000000e+02
9.860310364053681553e-01 6.840481891644002133e+01 2.820000000000000000e+02
2.374261039429728548e+00 6.813497181398571456e+01 2.820000000000000000e+02
3.762491042454088497e+00 6.786512471153140780e+01 2.820000000000000000e+02
5.150721045478448445e+00 6.759527760907711524e+01 2.820000000000000000e+02
6.538951048502809726e+00 6.732543050662280848e+01 2.820000000000000000e+02
7.927181051527169231e+00 6.705558340416850172e+01 2.820000000000000000e+02
9.315411054551530512e+00 6.678573630171419495e+01 2.820000000000000000e+02
1.070364105757589002e+01 6.651588919925988819e+01 2.820000000000000000e+02
1.209187106060025130e+01 6.624604209680558142e+01 2.820000000000000000e+02
-4.021989666189922374e-01 6.867466601889432809e+01 2.830000000000000000e+02
9.860310364053681553e-01 6.840481891644002133e+01 2.830000000000000000e+02
2.374261039429728548e+00 6.813497181398571456e+01 2.830000000000000000e+02
3.762491042454088497e+00 6.786512471153140780e+01 2.830000000000000000e+02
5.150721045478448445e+00 6.759527760907711524e+01 2.830000000000000000e+02
6.538951048502809726e+00 6.732543050662280848e+01 2.830000000000000000e+02
7.927181051527169231e+00 6.705558340416850172e+01 2.830000000000000000e+02
9.315411054551530512e+00 6.678573630171419495e+01 2.830000000000000000e+02
1.070364105757589002e+01 6.651588919925988819e+01 2.830000000000000000e+02
1.209187106060025130e+01 6.624604209680558142e+01 2.830000000000000000e+02
-4.021989666189922374e-01 6.867466601889432809e+01 2.840000000000000000e+02
9.860310364053681553e-01 6.840481891644002133e+01 2.840000000000000000e+02
2.374261039429728548e+00 6.813497181398571456e+01 2.840000000000000000e+02
3.762491042454088497e+00 6.786512471153140780e+01 2.840000000000000000e+02
5.150721045478448445e+00 6.759527760907711524e+01 2.840000000000000000e+02
6.538951048502809726e+00 6.732543050662280848e+01 2.840000000000000000e+02
7.927181051527169231e+00 6.705558340416850172e+01 2.840000000000000000e+02
9.315411054551530512e+00 6.678573630171419495e+01 2.840000000000000000e+02
1.070364105757589002e+01 6.651588919925988819e+01 2.840000000000000000e+02
1.209187106060025130e+01 6.624604209680558142e+01 2.840000000000000000e+02
1.348010106362461080e+01 6.597619499435127466e+01 2.840000000000000000e+02
-4.021989666189922374e-01 6.867466601889432809e+01 2.850000000000000000e+02
9.860310364053681553e-01 6.840481891644002133e+01 2.850000000000000000e+02
2.374261039429728548e+00 6.813497181398571456e+01 2.850000000000000000e+02
3.762491042454088497e+00 6.786512471153140780e+01 2.850000000000000000e+02
5.150721045478448445e+00 6.759527760907711524e+01 2.850000000000000000e+02
6.538951048502809726e+00 6.732543050662280848e+01 2.850000000000000000e+02
7.927181051527169231e+00 6.705558340416850172e+01 2.850000000000000000e+02
9.315411054551530512e+00 6.678573630171419495e+01 2.850000000000000000e+02
1.070364105757589002e+01 6.651588919925988819e+01 2.850000000000000000e+02
1.209187106060025130e+01 6.624604209680558142e+01 2.850000000000000000e+02
1.348010106362461080e+01 6.597619499435127466e+01 2.850000000000000000e+02
-4.021989666189922374e-01 6.867466601889432809e+01 2.860000000000000000e+02
9.860310364053681553e-01 6.840481891644002133e+01 2.860000000000000000e+02
2.374261039429728548e+00 6.813497181398571456e+01 2.860000000000000000e+02
3.762491042454088497e+00 6.786512471153140780e+01 2.860000000000000000e+02
5.150721045478448445e+00 6.759527760907711524e+01 2.860000000000000000e+02
6.538951048502809726e+00 6.732543050662280848e+01 2.860000000000000000e+02
7.927181051527169231e+00 6.705558340416850172e+01 2.860000000000000000e+02
9.315411054551530512e+00 6.678573630171419495e+01 2.860000000000000000e+02
1.070364105757589002e+01 6.651588919925988819e+01 2.860000000000000000e+02
1.209187106060025130e+01 6.624604209680558142e+01 2.860000000000000000e+02
1.348010106362461080e+01 6.597619499435127466e+01 2.860000000000000000e+02
-4.021989666189922374e-01 6.867466601889432809e+01 2.870000000000000000e+02
9.860310364053681553e-01 6.840481891644002133e+01 2.870000000000000000e+02
2.374261039429728548e+00 6.813497181398571456e+01 2.870000000000000000e+02
3.762491042454088497e+00 6.786512471153140780e+01 2.870000000000000000e+02
5.150721045478448445e+00 6.759527760907711524e+01 2.870000000000000000e+02
6.538951048502809726e+00 6.732543050662280848e+01 2.870000000000000000e+02
7.927181051527169231e+00 6.705558340416850172e+01 2.870000000000000000e+02
9.315411054551530512e+00 6.678573630171419495e+01 2.870000000000000000e+02
1.070364105757589002e+01 6.651588919925988819e+01 2.870000000000000000e+02
1.209187106060025130e+01 6.624604209680558142e+01 2.870000000000000000e+02
1.348010106362461080e+01 6.597619499435127466e+01 2.870000000000000000e+02
-4.021989666189922374e-01 6.867466601889432809e+01 2.880000000000000000e+02
9.860310364053681553e-01 6.840481891644002133e+01 2.880000000000000000e+02
2.374261039429728548e+00 6.813497181398571456e+01 2.880000000000000000e+02
3.762491042454088497e+00 6.786512471153140780e+01 2.880000000000000000e+02
5.150721045478448445e+00 6.759527760907711524e+01 2.880000000000000000e+02
6.538951048502809726e+00 6.732543050662280848e+01 2.880000000000000000e+02
7.927181051527169231e+00 6.705558340416850172e+01 2.880000000000000000e+02
9.315411054551530512e+00 6.678573630171419495e+01 2.880000000000000000e+02
1.070364105757589002e+01 6.651588919925988819e+01 2.880000000000000000e+02
1.209187106060025130e+01 6.624604209680558142e+01 2.880000000000000000e+02
-4.021989666189922374e-01 6.867466601889432809e+01 2.890000000000000000e+02
9.860310364053681553e-01 6.840481891644002133e+01 2.890000000000000000e+02
2.374261039429728548e+00 6.813497181398571456e+01 2.890000000000000000e+02
3.762491042454088497e+00 6.786512471153140780e+01 2.890000000000000000e+02
5.150721045478448445e+00 6.759527760907711524e+01 2.890000000000000000e+02
6.538951048502809726e+00 6.732543050662280848e+01 2.890000000000000000e+02
7.927181051527169231e+00 6.705558340416850172e+01 2.890000000000000000e+02
9.315411054551530512e+00 6.678573630171419495e+01 2.890000000000000000e+02
1.070364105757589002e+01 6.651588919925988819e+01 2.890000000000000000e+02
1.209187106060025130e+01 6.624604209680558142e+01 2.890000000000000000e+02
-4.021989666189922374e-01 6.867466601889432809e+01 2.900000000000000000e+02
9.860310364053681553e-01 6.840481891644002133e+01 2.900000000000000000e+02
2.374261039429728548e+00 6.813497181398571456e+01 2.900000000000000000e+02
3.762491042454088497e+00 6.786512471153140780e+01 2.900000000000000000e+02
5.150721045478448445e+00 6.759527760907711524e+01 2.900000000000000000e+02
6.538951048502809726e+00 6.732543050662280848e+01 2.900000000000000000e+02
7.927181051527169231e+00 6.705558340416850172e+01 2.900000000000000000e+02
9.315411054551530512e+00 6.678573630171419495e+01 2.900000000000000000e+02
1.070364105757589002e+01 6.651588919925988819e+01 2.900000000000000000e+02
1.209187106060025130e+01 6.624604209680558142e+01 2.900000000000000000e+02
-4.021989666189922374e-01 6.867466601889432809e+01 2.910000000000000000e+02
9.860310364053681553e-01 6.840481891644002133e+01 2.910000000000000000e+02
2.374261039429728548e+00 6.813497181398571456e+01 2.910000000000000000e+02
3.762491042454088497e+00 6.786512471153140780e+01 2.910000000000000000e+02
5.150721045478448445e+00 6.759527760907711524e+01 2.910000000000000000e+02
6.538951048502809726e+00 6.732543050662280848e+01 2.910000000000000000e+02
7.927181051527169231e+00 6.705558340416850172e+01 2.910000000000000000e+02
9.315411054551530512e+00 6.678573630171419495e+01 2.910000000000000000e+02
1.070364105757589002e+01 6.651588919925988819e+01 2.910000000000000000e+02
1.209187106060025130e+01 6.624604209680558142e+01 2.910000000000000000e+02
1.569924836660350209e-01 6.784562746615499407e+01 2.920000000000000000e+02
1.545222486690395414e+00 6.757578036370068730e+01 2.920000000000000000e+02
2.933452489714755806e+00 6.730593326124638054e+01 2.920000000000000000e+02
4.321682492739116199e+00 6.703608615879208799e+01 2.920000000000000000e+02
5.709912495763476592e+00 6.676623905633778122e+01 2.920000000000000000e+02
7.098142498787836985e+00 6.649639195388347446e+01 2.920000000000000000e+02
8.486372501812198266e+00 6.622654485142916769e+01 2.920000000000000000e+02
9.874602504836557770e+00 6.595669774897486093e+01 2.920000000000000000e+02
1.126283250786091727e+01 6.568685064652055416e+01 2.920000000000000000e+02
1.569924836660350209e-01 6.784562746615499407e+01 2.930000000000000000e+02
1.545222486690395414e+00 6.757578036370068730e+01 2.930000000000000000e+02
2.933452489714755806e+00 6.730593326124638054e+01 2.930000000000000000e+02
4.321682492739116199e+00 6.703608615879208799e+01 2.930000000000000000e+02
5.709912495763476592e+00 6.676623905633778122e+01 2.930000000000000000e+02
7.098142498787836985e+00 6.649639195388347446e+01 2.930000000000000000e+02
8.486372501812198266e+00 6.622654485142916769e+01 2.930000000000000000e+02
9.874602504836557770e+00 6.595669774897486093e+01 2.930000000000000000e+02
1.126283250786091727e+01 6.568685064652055416e+01 2.930000000000000000e+02
-4.021989666189922374e-01 6.867466601889432809e+01 2.940000000000000000e+02
9.860310364053681553e-01 6.840481891644002133e+01 2.940000000000000000e+02
2.374261039429728548e+00 6.813497181398571456e+01 2.940000000000000000e+02
3.762491042454088497e+00 6.786512471153140780e+01 2.940000000000000000e+02
5.150721045478448445e+00 6.759527760907711524e+01 2.940000000000000000e+02
6.538951048502809726e+00 6.732543050662280848e+01 2.940000000000000000e+02
7.927181051527169231e+00 6.705558340416850172e+01 2.940000000000000000e+02
9.315411054551530512e+00 6.678573630171419495e+01 2.940000000000000000e+02
1.070364105757589002e+01 6.651588919925988819e+01 2.940000000000000000e+02
1.209187106060025130e+01 6.624604209680558142e+01 2.940000000000000000e+02
-4.021989666189922374e-01 6.867466601889432809e+01 2.950000000000000000e+02
9.860310364053681553e-01 6.840481891644002133e+01 2.950000000000000000e+02
2.374261039429728548e+00 6.813497181398571456e+01 2.950000000000000000e+02
3.762491042454088497e+00 6.786512471153140780e+01 2.950000000000000000e+02
5.150721045478448445e+00 6.759527760907711524e+01 2.950000000000000000e+02
6.538951048502809726e+00 6.732543050662280848e+01 2.950000000000000000e+02
7.927181051527169231e+00 6.705558340416850172e+01 2.950000000000000000e+02
9.315411054551530512e+00 6.678573630171419495e+01 2.950000000000000000e+02
1.070364105757589002e+01 6.651588919925988819e+01 2.950000000000000000e+02
1.209187106060025130e+01 6.624604209680558142e+01 2.950000000000000000e+02
-4.021989666189922374e-01 6.867466601889432809e+01 2.960000000000000000e+02
9.860310364053681553e-01 6.840481891644002133e+01 2.960000000000000000e+02
2.374261039429728548e+00 6.813497181398571456e+01 2.960000000000000000e+02
3.762491042454088497e+00 6.786512471153140780e+01 2.960000000000000000e+02
5.150721045478448445e+00 6.759527760907711524e+01 2.960000000000000000e+02
6.538951048502809726e+00 6.732543050662280848e+01 2.960000000000000000e+02
7.927181051527169231e+00 6.705558340416850172e+01 2.960000000000000000e+02
9.315411054551530512e+00 6.678573630171419495e+01 2.960000000000000000e+02
1.070364105757589002e+01 6.651588919925988819e+01 2.960000000000000000e+02
1.209187106060025130e+01 6.624604209680558142e+01 2.960000000000000000e+02
1.348010106362461080e+01 6.597619499435127466e+01 2.960000000000000000e+02
-4.021989666189922374e-01 6.867466601889432809e+01 2.970000000000000000e+02
9.860310364053681553e-01 6.840481891644002133e+01 2.970000000000000000e+02
2.374261039429728548e+00 6.813497181398571456e+01 2.970000000000000000e+02
3.762491042454088497e+00 6.786512471153140780e+01 2.970000000000000000e+02
5.150721045478448445e+00 6.759527760907711524e+01 2.970000000000000000e+02
6.538951048502809726e+00 6.732543050662280848e+01 2.970000000000000000e+02
7.927181051527169231e+00 6.705558340416850172e+01 2.970000000000000000e+02
9.315411054551530512e+00 6.678573630171419495e+01 2.970000000000000000e+02
1.070364105757589002e+01 6.651588919925988819e+01 2.970000000000000000e+02
1.209187106060025130e+01 6.624604209680558142e+01 2.970000000000000000e+02
1.348010106362461080e+01 6.597619499435127466e+01 2.970000000000000000e+02
-4.021989666189922374e-01 6.867466601889432809e+01 2.980000000000000000e+02
9.860310364053681553e-01 6.840481891644002133e+01 2.980000000000000000e+02
2.374261039429728548e+00 6.813497181398571456e+01 2.980000000000000000e+02
3.762491042454088497e+00 6.786512471153140780e+01 2.980000000000000000e+02
5.150721045478448445e+00 6.759527760907711524e+01 2.980000000000000000e+02
6.538951048502809726e+00 6.732543050662280848e+01 2.980000000000000000e+02
7.927181051527169231e+00 6.705558340416850172e+01 2.980000000000000000e+02
9.315411054551530512e+00 6.678573630171419495e+01 2.980000000000000000e+02
1.070364105757589002e+01 6.651588919925988819e+01 2.980000000000000000e+02
1.209187106060025130e+01 6.624604209680558142e+01 2.980000000000000000e+02
1.348010106362461080e+01 6.597619499435127466e+01 2.980000000000000000e+02
-4.021989666189922374e-01 6.867466601889432809e+01 2.990000000000000000e+02
9.860310364053681553e-01 6.840481891644002133e+01 2.990000000000000000e+02
2.374261039429728548e+00 6.813497181398571456e+01 2.990000000000000000e+02
3.762491042454088497e+00 6.786512471153140780e+01 2.990000000000000000e+02
5.150721045478448445e+00 6.759527760907711524e+01 2.990000000000000000e+02
6.538951048502809726e+00 6.732543050662280848e+01 2.990000000000000000e+02
7.927181051527169231e+00 6.705558340416850172e+01 2.990000000000000000e+02
9.315411054551530512e+00 6.678573630171419495e+01 2.990000000000000000e+02
1.070364105757589002e+01 6.651588919925988819e+01 2.990000000000000000e+02
1.209187106060025130e+01 6.624604209680558142e+01 2.990000000000000000e+02
-4.021989666189922374e-01 6.867466601889432809e+01 3.000000000000000000e+02
9.860310364053681553e-01 6.840481891644002133e+01 3.000000000000000000e+02
2.374261039429728548e+00 6.813497181398571456e+01 3.000000000000000000e+02
3.762491042454088497e+00 6.786512471153140780e+01 3.000000000000000000e+02
5.150721045478448445e+00 6.759527760907711524e+01 3.000000000000000000e+02
6.538951048502809726e+00 6.732543050662280848e+01 3.000000000000000000e+02
7.927181051527169231e+00 6.705558340416850172e+01 3.000000000000000000e+02
9.315411054551530512e+00 6.678573630171419495e+01 3.000000000000000000e+02
1.070364105757589002e+01 6.651588919925988819e+01 3.000000000000000000e+02
1.209187106060025130e+01 6.624604209680558142e+01 3.000000000000000000e+02
-4.021989666189922374e-01 6.867466601889432809e+01 3.010000000000000000e+02
9.860310364053681553e-01 6.840481891644002133e+01 3.010000000000000000e+02
2.374261039429728548e+00 6.813497181398571456e+01 3.010000000000000000e+02
3.762491042454088497e+00 6.786512471153140780e+01 3.010000000000000000e+02
5.150721045478448445e+00 6.759527760907711524e+01 3.010000000000000000e+02
6.538951048502809726e+00 6.732543050662280848e+01 3.010000000000000000e+02
7.927181051527169231e+00 6.705558340416850172e+01 3.010000000000000000e+02
9.315411054551530512e+00 6.678573630171419495e+01 3.010000000000000000e+02
1.070364105757589002e+01 6.651588919925988819e+01 3.010000000000000000e+02
1.209187106060025130e+01 6.624604209680558142e+01 3.010000000000000000e+02
-4.021989666189922374e-01 6.867466601889432809e+01 3.020000000000000000e+02
9.860310364053681553e-01 6.840481891644002133e+01 3.020000000000000000e+02
2.374261039429728548e+00 6.813497181398571456e+01 3.020000000000000000e+02
3.762491042454088497e+00 6.786512471153140780e+01 3.020000000000000000e+02
5.150721045478448445e+00 6.759527760907711524e+01 3.020000000000000000e+02
6.538951048502809726e+00 6.732543050662280848e+01 3.020000000000000000e+02
7.927181051527169231e+00 6.705558340416850172e+01 3.020000000000000000e+02
9.315411054551530512e+00 6.678573630171419495e+01 3.020000000000000000e+02
1.070364105757589002e+01 6.651588919925988819e+01 3.020000000000000000e+02
1.209187106060025130e+01 6.624604209680558142e+01 3.020000000000000000e+02
-4.021989666189922374e-01 6.867466601889432809e+01 3.030000000000000000e+02
9.860310364053681553e-01 6.840481891644002133e+01 3.030000000000000000e+02
2.374261039429728548e+00 6.813497181398571456e+01 3.030000000000000000e+02
3.762491042454088497e+00 6.786512471153140780e+01 3.030000000000000000e+02
5.150721045478448445e+00 6.759527760907711524e+01 3.030000000000000000e+02
6.538951048502809726e+00 6.732543050662280848e+01 3.030000000000000000e+02
7.927181051527169231e+00 6.705558340416850172e+01 3.030000000000000000e+02
9.315411054551530512e+00 6.678573630171419495e+01 3.030000000000000000e+02
1.070364105757589002e+01 6.651588919925988819e+01 3.030000000000000000e+02
1.209187106060025130e+01 6.624604209680558142e+01 3.030000000000000000e+02
1.569924836660350209e-01 6.784562746615499407e+01 3.040000000000000000e+02
1.545222486690395414e+00 6.757578036370068730e+01 3.040000000000000000e+02
2.933452489714755806e+00 6.730593326124638054e+01 3.040000000000000000e+02
4.321682492739116199e+00 6.703608615879208799e+01 3.040000000000000000e+02
5.709912495763476592e+00 6.676623905633778122e+01 3.040000000000000000e+02
7.098142498787836985e+00 6.649639195388347446e+01 3.040000000000000000e+02
8.486372501812198266e+00 6.622654485142916769e+01 3.040000000000000000e+02
9.874602504836557770e+00 6.595669774897486093e+01 3.040000000000000000e+02
1.126283250786091727e+01 6.568685064652055416e+01 3.040000000000000000e+02
-4.021989666189922374e-01 6.867466601889432809e+01 3.050000000000000000e+02
9.860310364053681553e-01 6.840481891644002133e+01 3.050000000000000000e+02
2.374261039429728548e+00 6.813497181398571456e+01 3.050000000000000000e+02
3.762491042454088497e+00 6.786512471153140780e+01 3.050000000000000000e+02
5.150721045478448445e+00 6.759527760907711524e+01 3.050000000000000000e+02
6.538951048502809726e+00 6.732543050662280848e+01 3.050000000000000000e+02
7.927181051527169231e+00 6.705558340416850172e+01 3.050000000000000000e+02
9.315411054551530512e+00 6.678573630171419495e+01 3.050000000000000000e+02
1.070364105757589002e+01 6.651588919925988819e+01 3.050000000000000000e+02
1.209187106060025130e+01 6.624604209680558142e+01 3.050000000000000000e+02
-4.021989666189922374e-01 6.867466601889432809e+01 3.060000000000000000e+02
9.860310364053681553e-01 6.840481891644002133e+01 3.060000000000000000e+02
2.374261039429728548e+00 6.813497181398571456e+01 3.060000000000000000e+02
3.762491042454088497e+00 6.786512471153140780e+01 3.060000000000000000e+02
5.150721045478448445e+00 6.759527760907711524e+01 3.060000000000000000e+02
6.538951048502809726e+00 6.732543050662280848e+01 3.060000000000000000e+02
7.927181051527169231e+00 6.705558340416850172e+01 3.060000000000000000e+02
9.315411054551530512e+00 6.678573630171419495e+01 3.060000000000000000e+02
1.070364105757589002e+01 6.651588919925988819e+01 3.060000000000000000e+02
1.209187106060025130e+01 6.624604209680558142e+01 3.060000000000000000e+02
-4.021989666189922374e-01 6.867466601889432809e+01 3.070000000000000000e+02
9.860310364053681553e-01 6.840481891644002133e+01 3.070000000000000000e+02
2.374261039429728548e+00 6.813497181398571456e+01 3.070000000000000000e+02
3.762491042454088497e+00 6.786512471153140780e+01 3.070000000000000000e+02
5.150721045478448445e+00 6.759527760907711524e+01 3.070000000000000000e+02
6.538951048502809726e+00 6.732543050662280848e+01 3.070000000000000000e+02
7.927181051527169231e+00 6.705558340416850172e+01 3.070000000000000000e+02
9.315411054551530512e+00 6.678573630171419495e+01 3.070000000000000000e+02
1.070364105757589002e+01 6.651588919925988819e+01 3.070000000000000000e+02
1.209187106060025130e+01 6.624604209680558142e+01 3.070000000000000000e+02
-4.021989666189922374e-01 6.867466601889432809e+01 3.080000000000000000e+02
9.860310364053681553e-01 6.840481891644002133e+01 3.080000000000000000e+02
2.374261039429728548e+00 6.813497181398571456e+01 3.080000000000000000e+02
3.762491042454088497e+00 6.786512471153140780e+01 3.080000000000000000e+02
5.150721045478448445e+00 6.759527760907711524e+01 3.080000000000000000e+02
6.538951048502809726e+00 6.732543050662280848e+01 3.080000000000000000e+02
7.927181051527169231e+00 6.705558340416850172e+01 3.080000000000000000e+02
9.315411054551530512e+00 6.678573630171419495e+01 3.080000000000000000e+02
1.070364105757589002e+01 6.651588919925988819e+01 3.080000000000000000e+02
1.209187106060025130e+01 6.624604209680558142e+01 3.080000000000000000e+02
1.348010106362461080e+01 6.597619499435127466e+01 3.080000000000000000e+02
-4.021989666189922374e-01 6.867466601889432809e+01 3.090000000000000000e+02
9.860310364053681553e-01 6.840481891644002133e+01 3.090000000000000000e+02
2.374261039429728548e+00 6.813497181398571456e+01 3.090000000000000000e+02
3.762491042454088497e+00 6.786512471153140780e+01 3.090000000000000000e+02
5.150721045478448445e+00 6.759527760907711524e+01 3.090000000000000000e+02
6.538951048502809726e+00 6.732543050662280848e+01 3.090000000000000000e+02
7.927181051527169231e+00 6.705558340416850172e+01 3.090000000000000000e+02
9.315411054551530512e+00 6.678573630171419495e+01 3.090000000000000000e+02
1.070364105757589002e+01 6.651588919925988819e+01 3.090000000000000000e+02
1.209187106060025130e+01 6.624604209680558142e+01 3.090000000000000000e+02
1.348010106362461080e+01 6.597619499435127466e+01 3.090000000000000000e+02
-4.021989666189922374e-01 6.867466601889432809e+01 3.100000000000000000e+02
9.860310364053681553e-01 6.840481891644002133e+01 3.100000000000000000e+02
2.374261039429728548e+00 6.813497181398571456e+01 3.100000000000000000e+02
3.762491042454088497e+00 6.786512471153140780e+01 3.100000000000000000e+02
5.150721045478448445e+00 6.759527760907711524e+01 3.100000000000000000e+02
6.538951048502809726e+00 6.732543050662280848e+01 3.100000000000000000e+02
7.927181051527169231e+00 6.705558340416850172e+01 3.100000000000000000e+02
9.315411054551530512e+00 6.678573630171419495e+01 3.100000000000000000e+02
1.070364105757589002e+01 6.651588919925988819e+01 3.100000000000000000e+02
1.209187106060025130e+01 6.624604209680558142e+01 3.100000000000000000e+02
-4.021989666189922374e-01 6.867466601889432809e+01 3.110000000000000000e+02
9.860310364053681553e-01 6.840481891644002133e+01 3.110000000000000000e+02
2.374261039429728548e+00 6.813497181398571456e+01 3.110000000000000000e+02
3.762491042454088497e+00 6.786512471153140780e+01 3.110000000000000000e+02
5.150721045478448445e+00 6.759527760907711524e+01 3.110000000000000000e+02
6.538951048502809726e+00 6.732543050662280848e+01 3.110000000000000000e+02
7.927181051527169231e+00 6.705558340416850172e+01 3.110000000000000000e+02
9.315411054551530512e+00 6.678573630171419495e+01 3.110000000000000000e+02
1.070364105757589002e+01 6.651588919925988819e+01 3.110000000000000000e+02
1.209187106060025130e+01 6.624604209680558142e+01 3.110000000000000000e+02
-4.021989666189922374e-01 6.867466601889432809e+01 3.120000000000000000e+02
9.860310364053681553e-01 6.840481891644002133e+01 3.120000000000000000e+02
2.374261039429728548e+00 6.813497181398571456e+01 3.120000000000000000e+02
3.762491042454088497e+00 6.786512471153140780e+01 3.120000000000000000e+02
5.150721045478448445e+00 6.759527760907711524e+01 3.120000000000000000e+02
6.538951048502809726e+00 6.732543050662280848e+01 3.120000000000000000e+02
7.927181051527169231e+00 6.705558340416850172e+01 3.120000000000000000e+02
9.315411054551530512e+00 6.678573630171419495e+01 3.120000000000000000e+02
1.070364105757589002e+01 6.651588919925988819e+01 3.120000000000000000e+02
1.209187106060025130e+01 6.624604209680558142e+01 3.120000000000000000e+02
-4.021989666189922374e-01 6.867466601889432809e+01 3.130000000000000000e+02
9.860310364053681553e-01 6.840481891644002133e+01 3.130000000000000000e+02
2.374261039429728548e+00 6.813497181398571456e+01 3.130000000000000000e+02
3.762491042454088497e+00 6.786512471153140780e+01 3.130000000000000000e+02
5.150721045478448445e+00 6.759527760907711524e+01 3.130000000000000000e+02
6.538951048502809726e+00 6.732543050662280848e+01 3.130000000000000000e+02
7.927181051527169231e+00 6.705558340416850172e+01 3.130000000000000000e+02
9.315411054551530512e+00 6.678573630171419495e+01 3.130000000000000000e+02
1.070364105757589002e+01 6.651588919925988819e+01 3.130000000000000000e+02
1.209187106060025130e+01 6.624604209680558142e+01 3.130000000000000000e+02
-4.021989666189922374e-01 6.867466601889432809e+01 3.140000000000000000e+02
9.860310364053681553e-01 6.840481891644002133e+01 3.140000000000000000e+02
2.374261039429728548e+00 6.813497181398571456e+01 3.140000000000000000e+02
3.762491042454088497e+00 6.786512471153140780e+01 3.140000000000000000e+02
5.150721045478448445e+00 6.759527760907711524e+01 3.140000000000000000e+02
6.538951048502809726e+00 6.732543050662280848e+01 3.140000000000000000e+02
7.927181051527169231e+00 6.705558340416850172e+01 3.140000000000000000e+02
9.315411054551530512e+00 6.678573630171419495e+01 3.140000000000000000e+02
1.070364105757589002e+01 6.651588919925988819e+01 3.140000000000000000e+02
1.209187106060025130e+01 6.624604209680558142e+01 3.140000000000000000e+02
-4.021989666189922374e-01 6.867466601889432809e+01 3.150000000000000000e+02
9.860310364053681553e-01 6.840481891644002133e+01 3.150000000000000000e+02
2.374261039429728548e+00 6.813497181398571456e+01 3.150000000000000000e+02
3.762491042454088497e+00 6.786512471153140780e+01 3.150000000000000000e+02
5.150721045478448445e+00 6.759527760907711524e+01 3.150000000000000000e+02
6.538951048502809726e+00 6.732543050662280848e+01 3.150000000000000000e+02
7.927181051527169231e+00 6.705558340416850172e+01 3.150000000000000000e+02
9.315411054551530512e+00 6.678573630171419495e+01 3.150000000000000000e+02
1.070364105757589002e+01 6.651588919925988819e+01 3.150000000000000000e+02
1.209187106060025130e+01 6.624604209680558142e+01 3.150000000000000000e+02
1.348010106362461080e+01 6.597619499435127466e+01 3.150000000000000000e+02
-4.021989666189922374e-01 6.867466601889432809e+01 3.160000000000000000e+02
9.860310364053681553e-01 6.840481891644002133e+01 3.160000000000000000e+02
2.374261039429728548e+00 6.813497181398571456e+01 3.160000000000000000e+02
3.762491042454088497e+00 6.786512471153140780e+01 3.160000000000000000e+02
5.150721045478448445e+00 6.759527760907711524e+01 3.160000000000000000e+02
6.538951048502809726e+00 6.732543050662280848e+01 3.160000000000000000e+02
7.927181051527169231e+00 6.705558340416850172e+01 3.160000000000000000e+02
9.315411054551530512e+00 6.678573630171419495e+01 3.160000000000000000e+02
1.070364105757589002e+01 6.651588919925988819e+01 3.160000000000000000e+02
1.209187106060025130e+01 6.624604209680558142e+01 3.160000000000000000e+02
1.348010106362461080e+01 6.597619499435127466e+01 3.160000000000000000e+02
-4.021989666189922374e-01 6.867466601889432809e+01 3.170000000000000000e+02
9.860310364053681553e-01 6.840481891644002133e+01 3.170000000000000000e+02
2.374261039429728548e+00 6.813497181398571456e+01 3.170000000000000000e+02
3.762491042454088497e+00 6.786512471153140780e+01 3.170000000000000000e+02
5.150721045478448445e+00 6.759527760907711524e+01 3.170000000000000000e+02
6.538951048502809726e+00 6.732543050662280848e+01 3.170000000000000000e+02
7.927181051527169231e+00 6.705558340416850172e+01 3.170000000000000000e+02
9.315411054551530512e+00 6.678573630171419495e+01 3.170000000000000000e+02
1.070364105757589002e+01 6.651588919925988819e+01 3.170000000000000000e+02
1.209187106060025130e+01 6.624604209680558142e+01 3.170000000000000000e+02
1.348010106362461080e+01 6.597619499435127466e+01 3.170000000000000000e+02
-4.021989666189922374e-01 6.867466601889432809e+01 3.180000000000000000e+02
9.860310364053681553e-01 6.840481891644002133e+01 3.180000000000000000e+02
2.374261039429728548e+00 6.813497181398571456e+01 3.180000000000000000e+02
3.762491042454088497e+00 6.786512471153140780e+01 3.180000000000000000e+02
5.150721045478448445e+00 6.759527760907711524e+01 3.180000000000000000e+02
6.538951048502809726e+00 6.732543050662280848e+01 3.180000000000000000e+02
7.927181051527169231e+00 6.705558340416850172e+01 3.180000000000000000e+02
9.315411054551530512e+00 6.678573630171419495e+01 3.180000000000000000e+02
1.070364105757589002e+01 6.651588919925988819e+01 3.180000000000000000e+02
1.209187106060025130e+01 6.624604209680558142e+01 3.180000000000000000e+02
-4.021989666189922374e-01 6.867466601889432809e+01 3.190000000000000000e+02
9.860310364053681553e-01 6.840481891644002133e+01 3.190000000000000000e+02
2.374261039429728548e+00 6.813497181398571456e+01 3.190000000000000000e+02
3.762491042454088497e+00 6.786512471153140780e+01 3.190000000000000000e+02
5.150721045478448445e+00 6.759527760907711524e+01 3.190000000000000000e+02
6.538951048502809726e+00 6.732543050662280848e+01 3.190000000000000000e+02
7.927181051527169231e+00 6.705558340416850172e+01 3.190000000000000000e+02
9.315411054551530512e+00 6.678573630171419495e+01 3.190000000000000000e+02
1.070364105757589002e+01 6.651588919925988819e+01 3.190000000000000000e+02
1.209187106060025130e+01 6.624604209680558142e+01 3.190000000000000000e+02
-4.021989666189922374e-01 6.867466601889432809e+01 3.200000000000000000e+02
9.860310364053681553e-01 6.840481891644002133e+01 3.200000000000000000e+02
2.374261039429728548e+00 6.813497181398571456e+01 3.200000000000000000e+02
3.762491042454088497e+00 6.786512471153140780e+01 3.200000000000000000e+02
5.150721045478448445e+00 6.759527760907711524e+01 3.200000000000000000e+02
6.538951048502809726e+00 6.732543050662280848e+01 3.200000000000000000e+02
7.927181051527169231e+00 6.705558340416850172e+01 3.200000000000000000e+02
9.315411054551530512e+00 6.678573630171419495e+01 3.200000000000000000e+02
1.070364105757589002e+01 6.651588919925988819e+01 3.200000000000000000e+02
1.209187106060025130e+01 6.624604209680558142e+01 3.200000000000000000e+02
-4.021989666189922374e-01 6.867466601889432809e+01 3.210000000000000000e+02
9.860310364053681553e-01 6.840481891644002133e+01 3.210000000000000000e+02
2.374261039429728548e+00 6.813497181398571456e+01 3.210000000000000000e+02
3.762491042454088497e+00 6.786512471153140780e+01 3.210000000000000000e+02
5.150721045478448445e+00 6.759527760907711524e+01 3.210000000000000000e+02
6.538951048502809726e+00 6.732543050662280848e+01 3.210000000000000000e+02
7.927181051527169231e+00 6.705558340416850172e+01 3.210000000000000000e+02
9.315411054551530512e+00 6.678573630171419495e+01 3.210000000000000000e+02
1.070364105757589002e+01 6.651588919925988819e+01 3.210000000000000000e+02
1.209187106060025130e+01 6.624604209680558142e+01 3.210000000000000000e+02
-4.021989666189922374e-01 6.867466601889432809e+01 3.220000000000000000e+02
9.860310364053681553e-01 6.840481891644002133e+01 3.220000000000000000e+02
2.374261039429728548e+00 6.813497181398571456e+01 3.220000000000000000e+02
3.762491042454088497e+00 6.786512471153140780e+01 3.220000000000000000e+02
5.150721045478448445e+00 6.759527760907711524e+01 3.220000000000000000e+02
6.538951048502809726e+00 6.732543050662280848e+01 3.220000000000000000e+02
7.927181051527169231e+00 6.705558340416850172e+01 3.220000000000000000e+02
9.315411054551530512e+00 6.678573630171419495e+01 3.220000000000000000e+02
1.070364105757589002e+01 6.651588919925988819e+01 3.220000000000000000e+02
1.209187106060025130e+01 6.624604209680558142e+01 3.220000000000000000e+02
-4.021989666189922374e-01 6.867466601889432809e+01 3.230000000000000000e+02
9.860310364053681553e-01 6.840481891644002133e+01 3.230000000000000000e+02
2.374261039429728548e+00 6.813497181398571456e+01 3.230000000000000000e+02
3.762491042454088497e+00 6.786512471153140780e+01 3.230000000000000000e+02
5.150721045478448445e+00 6.759527760907711524e+01 3.230000000000000000e+02
6.538951048502809726e+00 6.732543050662280848e+01 3.230000000000000000e+02
7.927181051527169231e+00 6.705558340416850172e+01 3.230000000000000000e+02
9.315411054551530512e+00 6.678573630171419495e+01 3.230000000000000000e+02
1.070364105757589002e+01 6.651588919925988819e+01 3.230000000000000000e+02
1.209187106060025130e+01 6.624604209680558142e+01 3.230000000000000000e+02
-4.021989666189922374e-01 6.867466601889432809e+01 3.240000000000000000e+02
9.860310364053681553e-01 6.840481891644002133e+01 3.240000000000000000e+02
2.374261039429728548e+00 6.813497181398571456e+01 3.240000000000000000e+02
3.762491042454088497e+00 6.786512471153140780e+01 3.240000000000000000e+02
5.150721045478448445e+00 6.759527760907711524e+01 3.240000000000000000e+02
6.538951048502809726e+00 6.732543050662280848e+01 3.240000000000000000e+02
7.927181051527169231e+00 6.705558340416850172e+01 3.240000000000000000e+02
9.315411054551530512e+00 6.678573630171419495e+01 3.240000000000000000e+02
1.070364105757589002e+01 6.651588919925988819e+01 3.240000000000000000e+02
1.209187106060025130e+01 6.624604209680558142e+01 3.240000000000000000e+02
-4.021989666189922374e-01 6.867466601889432809e+01 3.250000000000000000e+02
9.860310364053681553e-01 6.840481891644002133e+01 3.250000000000000000e+02
2.374261039429728548e+00 6.813497181398571456e+01 3.250000000000000000e+02
3.762491042454088497e+00 6.786512471153140780e+01 3.250000000000000000e+02
5.150721045478448445e+00 6.759527760907711524e+01 3.250000000000000000e+02
6.538951048502809726e+00 6.732543050662280848e+01 3.250000000000000000e+02
7.927181051527169231e+00 6.705558340416850172e+01 3.250000000000000000e+02
9.315411054551530512e+00 6.678573630171419495e+01 3.250000000000000000e+02
1.070364105757589002e+01 6.651588919925988819e+01 3.250000000000000000e+02
1.209187106060025130e+01 6.624604209680558142e+01 3.250000000000000000e+02
-4.021989666189922374e-01 6.867466601889432809e+01 3.260000000000000000e+02
9.860310364053681553e-01 6.840481891644002133e+01 3.260000000000000000e+02
2.374261039429728548e+00 6.813497181398571456e+01 3.260000000000000000e+02
3.762491042454088497e+00 6.786512471153140780e+01 3.260000000000000000e+02
5.150721045478448445e+00 6.759527760907711524e+01 3.260000000000000000e+02
6.538951048502809726e+00 6.732543050662280848e+01 3.260000000000000000e+02
7.927181051527169231e+00 6.705558340416850172e+01 3.260000000000000000e+02
9.315411054551530512e+00 6.678573630171419495e+01 3.260000000000000000e+02
1.070364105757589002e+01 6.651588919925988819e+01 3.260000000000000000e+02
1.209187106060025130e+01 6.624604209680558142e+01 3.260000000000000000e+02
1.348010106362461080e+01 6.597619499435127466e+01 3.260000000000000000e+02
-4.021989666189922374e-01 6.867466601889432809e+01 3.270000000000000000e+02
9.860310364053681553e-01 6.840481891644002133e+01 3.270000000000000000e+02
2.374261039429728548e+00 6.813497181398571456e+01 3.270000000000000000e+02
3.762491042454088497e+00 6.786512471153140780e+01 3.270000000000000000e+02
5.150721045478448445e+00 6.759527760907711524e+01 3.270000000000000000e+02
6.538951048502809726e+00 6.732543050662280848e+01 3.270000000000000000e+02
7.927181051527169231e+00 6.705558340416850172e+01 3.270000000000000000e+02
9.315411054551530512e+00 6.678573630171419495e+01 3.270000000000000000e+02
1.070364105757589002e+01 6.651588919925988819e+01 3.270000000000000000e+02
1.209187106060025130e+01 6.624604209680558142e+01 3.270000000000000000e+02
1.348010106362461080e+01 6.597619499435127466e+01 3.270000000000000000e+02
-4.021989666189922374e-01 6.867466601889432809e+01 3.280000000000000000e+02
9.860310364053681553e-01 6.840481891644002133e+01 3.280000000000000000e+02
2.374261039429728548e+00 6.813497181398571456e+01 3.280000000000000000e+02
3.762491042454088497e+00 6.786512471153140780e+01 3.280000000000000000e+02
5.150721045478448445e+00 6.759527760907711524e+01 3.280000000000000000e+02
6.538951048502809726e+00 6.732543050662280848e+01 3.280000000000000000e+02
7.927181051527169231e+00 6.705558340416850172e+01 3.280000000000000000e+02
9.315411054551530512e+00 6.678573630171419495e+01 3.280000000000000000e+02
1.070364105757589002e+01 6.651588919925988819e+01 3.280000000000000000e+02
1.209187106060025130e+01 6.624604209680558142e+01 3.280000000000000000e+02
1.348010106362461080e+01 6.597619499435127466e+01 3.280000000000000000e+02
-4.021989666189922374e-01 6.867466601889432809e+01 3.290000000000000000e+02
9.860310364053681553e-01 6.840481891644002133e+01 3.290000000000000000e+02
2.374261039429728548e+00 6.813497181398571456e+01 3.290000000000000000e+02
3.762491042454088497e+00 6.786512471153140780e+01 3.290000000000000000e+02
5.150721045478448445e+00 6.759527760907711524e+01 3.290000000000000000e+02
6.538951048502809726e+00 6.732543050662280848e+01 3.290000000000000000e+02
7.927181051527169231e+00 6.705558340416850172e+01 3.290000000000000000e+02
9.315411054551530512e+00 6.678573630171419495e+01 3.290000000000000000e+02
1.070364105757589002e+01 6.651588919925988819e+01 3.290000000000000000e+02
1.209187106060025130e+01 6.624604209680558142e+01 3.290000000000000000e+02
1.348010106362461080e+01 6.597619499435127466e+01 3.290000000000000000e+02
-4.021989666189922374e-01 6.867466601889432809e+01 3.300000000000000000e+02
9.860310364053681553e-01 6.840481891644002133e+01 3.300000000000000000e+02
2.374261039429728548e+00 6.813497181398571456e+01 3.300000000000000000e+02
3.762491042454088497e+00 6.786512471153140780e+01 3.300000000000000000e+02
5.150721045478448445e+00 6.759527760907711524e+01 3.300000000000000000e+02
6.538951048502809726e+00 6.732543050662280848e+01 3.300000000000000000e+02
7.927181051527169231e+00 6.705558340416850172e+01 3.300000000000000000e+02
9.315411054551530512e+00 6.678573630171419495e+01 3.300000000000000000e+02
1.070364105757589002e+01 6.651588919925988819e+01 3.300000000000000000e+02
1.209187106060025130e+01 6.624604209680558142e+01 3.300000000000000000e+02
-4.021989666189922374e-01 6.867466601889432809e+01 3.310000000000000000e+02
9.860310364053681553e-01 6.840481891644002133e+01 3.310000000000000000e+02
2.374261039429728548e+00 6.813497181398571456e+01 3.310000000000000000e+02
3.762491042454088497e+00 6.786512471153140780e+01 3.310000000000000000e+02
5.150721045478448445e+00 6.759527760907711524e+01 3.310000000000000000e+02
6.538951048502809726e+00 6.732543050662280848e+01 3.310000000000000000e+02
7.927181051527169231e+00 6.705558340416850172e+01 3.310000000000000000e+02
9.315411054551530512e+00 6.678573630171419495e+01 3.310000000000000000e+02
1.070364105757589002e+01 6.651588919925988819e+01 3.310000000000000000e+02
1.209187106060025130e+01 6.624604209680558142e+01 3.310000000000000000e+02
-4.021989666189922374e-01 6.867466601889432809e+01 3.320000000000000000e+02
9.860310364053681553e-01 6.840481891644002133e+01 3.320000000000000000e+02
2.374261039429728548e+00 6.813497181398571456e+01 3.320000000000000000e+02
3.762491042454088497e+00 6.786512471153140780e+01 3.320000000000000000e+02
5.150721045478448445e+00 6.759527760907711524e+01 3.320000000000000000e+02
6.538951048502809726e+00 6.732543050662280848e+01 3.320000000000000000e+02
7.927181051527169231e+00 6.705558340416850172e+01 3.320000000000000000e+02
9.315411054551530512e+00 6.678573630171419495e+01 3.320000000000000000e+02
1.070364105757589002e+01 6.651588919925988819e+01 3.320000000000000000e+02
1.209187106060025130e+01 6.624604209680558142e+01 3.320000000000000000e+02
-4.021989666189922374e-01 6.867466601889432809e+01 3.330000000000000000e+02
9.860310364053681553e-01 6.840481891644002133e+01 3.330000000000000000e+02
2.374261039429728548e+00 6.813497181398571456e+01 3.330000000000000000e+02
3.762491042454088497e+00 6.786512471153140780e+01 3.330000000000000000e+02
5.150721045478448445e+00 6.759527760907711524e+01 3.330000000000000000e+02
6.538951048502809726e+00 6.732543050662280848e+01 3.330000000000000000e+02
7.927181051527169231e+00 6.705558340416850172e+01 3.330000000000000000e+02
9.315411054551530512e+00 6.678573630171419495e+01 3.330000000000000000e+02
1.070364105757589002e+01 6.651588919925988819e+01 3.330000000000000000e+02
1.209187106060025130e+01 6.624604209680558142e+01 3.330000000000000000e+02
-4.021989666189922374e-01 6.867466601889432809e+01 3.340000000000000000e+02
9.860310364053681553e-01 6.840481891644002133e+01 3.340000000000000000e+02
2.374261039429728548e+00 6.813497181398571456e+01 3.340000000000000000e+02
3.762491042454088497e+00 6.786512471153140780e+01 3.340000000000000000e+02
5.150721045478448445e+00 6.759527760907711524e+01 3.340000000000000000e+02
6.538951048502809726e+00 6.732543050662280848e+01 3.340000000000000000e+02
7.927181051527169231e+00 6.705558340416850172e+01 3.340000000000000000e+02
9.315411054551530512e+00 6.678573630171419495e+01 3.340000000000000000e+02
1.070364105757589002e+01 6.651588919925988819e+01 3.340000000000000000e+02
1.209187106060025130e+01 6.624604209680558142e+01 3.340000000000000000e+02
-4.021989666189922374e-01 6.867466601889432809e+01 3.350000000000000000e+02
9.860310364053681553e-01 6.840481891644002133e+01 3.350000000000000000e+02
2.374261039429728548e+00 6.813497181398571456e+01 3.350000000000000000e+02
3.762491042454088497e+00 6.786512471153140780e+01 3.350000000000000000e+02
5.150721045478448445e+00 6.759527760907711524e+01 3.350000000000000000e+02
6.538951048502809726e+00 6.732543050662280848e+01 3.350000000000000000e+02
7.927181051527169231e+00 6.705558340416850172e+01 3.350000000000000000e+02
9.315411054551530512e+00 6.678573630171419495e+01 3.350000000000000000e+02
1.070364105757589002e+01 6.651588919925988819e+01 3.350000000000000000e+02
1.209187106060025130e+01 6.624604209680558142e+01 3.350000000000000000e+02
-4.021989666189922374e-01 6.867466601889432809e+01 3.360000000000000000e+02
9.860310364053681553e-01 6.840481891644002133e+01 3.360000000000000000e+02
2.374261039429728548e+00 6.813497181398571456e+01 3.360000000000000000e+02
3.762491042454088497e+00 6.786512471153140780e+01 3.360000000000000000e+02
5.150721045478448445e+00 6.759527760907711524e+01 3.360000000000000000e+02
6.538951048502809726e+00 6.732543050662280848e+01 3.360000000000000000e+02
7.927181051527169231e+00 6.705558340416850172e+01 3.360000000000000000e+02
9.315411054551530512e+00 6.678573630171419495e+01 3.360000000000000000e+02
1.070364105757589002e+01 6.651588919925988819e+01 3.360000000000000000e+02
1.209187106060025130e+01 6.624604209680558142e+01 3.360000000000000000e+02
1.348010106362461080e+01 6.597619499435127466e+01 3.360000000000000000e+02
-4.021989666189922374e-01 6.867466601889432809e+01 3.370000000000000000e+02
9.860310364053681553e-01 6.840481891644002133e+01 3.370000000000000000e+02
2.374261039429728548e+00 6.813497181398571456e+01 3.370000000000000000e+02
3.762491042454088497e+00 6.786512471153140780e+01 3.370000000000000000e+02
5.150721045478448445e+00 6.759527760907711524e+01 3.370000000000000000e+02
6.538951048502809726e+00 6.732543050662280848e+01 3.370000000000000000e+02
7.927181051527169231e+00 6.705558340416850172e+01 3.370000000000000000e+02
9.315411054551530512e+00 6.678573630171419495e+01 3.370000000000000000e+02
1.070364105757589002e+01 6.651588919925988819e+01 3.370000000000000000e+02
1.209187106060025130e+01 6.624604209680558142e+01 3.370000000000000000e+02
1.348010106362461080e+01 6.597619499435127466e+01 3.370000000000000000e+02
-4.021989666189922374e-01 6.867466601889432809e+01 3.380000000000000000e+02
9.860310364053681553e-01 6.840481891644002133e+01 3.380000000000000000e+02
2.374261039429728548e+00 6.813497181398571456e+01 3.380000000000000000e+02
3.762491042454088497e+00 6.786512471153140780e+01 3.380000000000000000e+02
5.150721045478448445e+00 6.759527760907711524e+01 3.380000000000000000e+02
6.538951048502809726e+00 6.732543050662280848e+01 3.380000000000000000e+02
7.927181051527169231e+00 6.705558340416850172e+01 3.380000000000000000e+02
9.315411054551530512e+00 6.678573630171419495e+01 3.380000000000000000e+02
1.070364105757589002e+01 6.651588919925988819e+01 3.380000000000000000e+02
1.209187106060025130e+01 6.624604209680558142e+01 3.380000000000000000e+02
1.569924836660350209e-01 6.784562746615499407e+01 3.390000000000000000e+02
1.545222486690395414e+00 6.757578036370068730e+01 3.390000000000000000e+02
2.933452489714755806e+00 6.730593326124638054e+01 3.390000000000000000e+02
4.321682492739116199e+00 6.703608615879208799e+01 3.390000000000000000e+02
5.709912495763476592e+00 6.676623905633778122e+01 3.390000000000000000e+02
7.098142498787836985e+00 6.649639195388347446e+01 3.390000000000000000e+02
8.486372501812198266e+00 6.622654485142916769e+01 3.390000000000000000e+02
9.874602504836557770e+00 6.595669774897486093e+01 3.390000000000000000e+02
1.126283250786091727e+01 6.568685064652055416e+01 3.390000000000000000e+02
-4.021989666189922374e-01 6.867466601889432809e+01 3.400000000000000000e+02
9.860310364053681553e-01 6.840481891644002133e+01 3.400000000000000000e+02
2.374261039429728548e+00 6.813497181398571456e+01 3.400000000000000000e+02
3.762491042454088497e+00 6.786512471153140780e+01 3.400000000000000000e+02
5.150721045478448445e+00 6.759527760907711524e+01 3.400000000000000000e+02
6.538951048502809726e+00 6.732543050662280848e+01 3.400000000000000000e+02
7.927181051527169231e+00 6.705558340416850172e+01 3.400000000000000000e+02
9.315411054551530512e+00 6.678573630171419495e+01 3.400000000000000000e+02
