7.681315904020681984e+00 7.897403104146432895e+01 3.280000000000000000e+02
7.083639532767052494e+00 7.769232009306563214e+01 3.280000000000000000e+02
6.485963161513423891e+00 7.641060914466693532e+01 3.280000000000000000e+02
5.888286790259794401e+00 7.512889819626822430e+01 3.280000000000000000e+02
5.290610419006164911e+00 7.384718724786952748e+01 3.280000000000000000e+02
4.692934047752535420e+00 7.256547629947083067e+01 3.280000000000000000e+02
4.095257676498905042e+00 7.128376535107213385e+01 3.280000000000000000e+02
3.497581305245275995e+00 7.000205440267343704e+01 3.280000000000000000e+02
2.899904933991646949e+00 6.872034345427474022e+01 3.280000000000000000e+02
2.302228562738017459e+00 6.743863250587602920e+01 3.280000000000000000e+02
7.681315904020681984e+00 7.897403104146432895e+01 3.290000000000000000e+02
7.083639532767052494e+00 7.769232009306563214e+01 3.290000000000000000e+02
6.485963161513423891e+00 7.641060914466693532e+01 3.290000000000000000e+02
5.888286790259794401e+00 7.512889819626822430e+01 3.290000000000000000e+02
5.290610419006164911e+00 7.384718724786952748e+01 3.290000000000000000e+02
4.692934047752535420e+00 7.256547629947083067e+01 3.290000000000000000e+02
4.095257676498905042e+00 7.128376535107213385e+01 3.290000000000000000e+02
3.497581305245275995e+00 7.000205440267343704e+01 3.290000000000000000e+02
2.899904933991646949e+00 6.872034345427474022e+01 3.290000000000000000e+02
2.302228562738017459e+00 6.743863250587602920e+01 3.290000000000000000e+02
7.681315904020681984e+00 7.897403104146432895e+01 3.300000000000000000e+02
7.083639532767052494e+00 7.769232009306563214e+01 3.300000000000000000e+02
6.485963161513423891e+00 7.641060914466693532e+01 3.300000000000000000e+02
5.888286790259794401e+00 7.512889819626822430e+01 3.300000000000000000e+02
5.290610419006164911e+00 7.384718724786952748e+01 3.300000000000000000e+02
4.692934047752535420e+00 7.256547629947083067e+01 3.300000000000000000e+02
4.095257676498905042e+00 7.128376535107213385e+01 3.300000000000000000e+02
3.497581305245275995e+00 7.000205440267343704e+01 3.300000000000000000e+02
2.899904933991646949e+00 6.872034345427474022e+01 3.300000000000000000e+02
2.302228562738017459e+00 6.743863250587602920e+01 3.300000000000000000e+02
7.681315904020681984e+00 7.897403104146432895e+01 3.310000000000000000e+02
7.083639532767052494e+00 7.769232009306563214e+01 3.310000000000000000e+02
6.485963161513423891e+00 7.641060914466693532e+01 3.310000000000000000e+02
5.888286790259794401e+00 7.512889819626822430e+01 3.310000000000000000e+02
5.290610419006164911e+00 7.384718724786952748e+01 3.310000000000000000e+02
4.692934047752535420e+00 7.256547629947083067e+01 3.310000000000000000e+02
4.095257676498905042e+00 7.128376535107213385e+01 3.310000000000000000e+02
3.497581305245275995e+00 7.000205440267343704e+01 3.310000000000000000e+02
2.899904933991646949e+00 6.872034345427474022e+01 3.310000000000000000e+02
2.302228562738017459e+00 6.743863250587602920e+01 3.310000000000000000e+02
7.681315904020681984e+00 7.897403104146432895e+01 3.320000000000000000e+02
7.083639532767052494e+00 7.769232009306563214e+01 3.320000000000000000e+02
6.485963161513423891e+00 7.641060914466693532e+01 3.320000000000000000e+02
5.888286790259794401e+00 7.512889819626822430e+01 3.320000000000000000e+02
5.290610419006164911e+00 7.384718724786952748e+01 3.320000000000000000e+02
4.692934047752535420e+00 7.256547629947083067e+01 3.320000000000000000e+02
4.095257676498905042e+00 7.128376535107213385e+01 3.320000000000000000e+02
3.497581305245275995e+00 7.000205440267343704e+01 3.320000000000000000e+02
2.899904933991646949e+00 6.872034345427474022e+01 3.320000000000000000e+02
2.302228562738017459e+00 6.743863250587602920e+01 3.320000000000000000e+02
7.681315904020681984e+00 7.897403104146432895e+01 3.330000000000000000e+02
7.083639532767052494e+00 7.769232009306563214e+01 3.330000000000000000e+02
6.485963161513423891e+00 7.641060914466693532e+01 3.330000000000000000e+02
5.888286790259794401e+00 7.512889819626822430e+01 3.330000000000000000e+02
5.290610419006164911e+00 7.384718724786952748e+01 3.330000000000000000e+02
4.692934047752535420e+00 7.256547629947083067e+01 3.330000000000000000e+02
4.095257676498905042e+00 7.128376535107213385e+01 3.330000000000000000e+02
3.497581305245275995e+00 7.000205440267343704e+01 3.330000000000000000e+02
2.899904933991646949e+00 6.872034345427474022e+01 3.330000000000000000e+02
2.302228562738017459e+00 6.743863250587602920e+01 3.330000000000000000e+02
6.741622244194517499e+00 7.863201375289179396e+01 3.340000000000000000e+02
6.143945872940888009e+00 7.735030280449309714e+01 3.340000000000000000e+02
5.546269501687259407e+00 7.606859185609440033e+01 3.340000000000000000e+02
4.948593130433629028e+00 7.478688090769568930e+01 3.340000000000000000e+02
4.350916759180000426e+00 7.350516995929699249e+01 3.340000000000000000e+02
3.753240387926370492e+00 7.222345901089829567e+01 3.340000000000000000e+02
3.155564016672741001e+00 7.094174806249959886e+01 3.340000000000000000e+02
2.557887645419111511e+00 6.966003711410090204e+01 3.340000000000000000e+02
1.960211274165482465e+00 6.837832616570219102e+01 3.340000000000000000e+02
6.741622244194517499e+00 7.863201375289179396e+01 3.350000000000000000e+02
6.143945872940888009e+00 7.735030280449309714e+01 3.350000000000000000e+02
5.546269501687259407e+00 7.606859185609440033e+01 3.350000000000000000e+02
4.948593130433629028e+00 7.478688090769568930e+01 3.350000000000000000e+02
4.350916759180000426e+00 7.350516995929699249e+01 3.350000000000000000e+02
3.753240387926370492e+00 7.222345901089829567e+01 3.350000000000000000e+02
3.155564016672741001e+00 7.094174806249959886e+01 3.350000000000000000e+02
2.557887645419111511e+00 6.966003711410090204e+01 3.350000000000000000e+02
1.960211274165482465e+00 6.837832616570219102e+01 3.350000000000000000e+02
1.362534902911852974e+00 6.709661521730349421e+01 3.350000000000000000e+02
6.741622244194517499e+00 7.863201375289179396e+01 3.360000000000000000e+02
6.143945872940888009e+00 7.735030280449309714e+01 3.360000000000000000e+02
5.546269501687259407e+00 7.606859185609440033e+01 3.360000000000000000e+02
4.948593130433629028e+00 7.478688090769568930e+01 3.360000000000000000e+02
4.350916759180000426e+00 7.350516995929699249e+01 3.360000000000000000e+02
3.753240387926370492e+00 7.222345901089829567e+01 3.360000000000000000e+02
3.155564016672741001e+00 7.094174806249959886e+01 3.360000000000000000e+02
2.557887645419111511e+00 6.966003711410090204e+01 3.360000000000000000e+02
1.960211274165482465e+00 6.837832616570219102e+01 3.360000000000000000e+02
1.362534902911852974e+00 6.709661521730349421e+01 3.360000000000000000e+02
6.741622244194517499e+00 7.863201375289179396e+01 3.370000000000000000e+02
6.143945872940888009e+00 7.735030280449309714e+01 3.370000000000000000e+02
5.546269501687259407e+00 7.606859185609440033e+01 3.370000000000000000e+02
4.948593130433629028e+00 7.478688090769568930e+01 3.370000000000000000e+02
4.350916759180000426e+00 7.350516995929699249e+01 3.370000000000000000e+02
3.753240387926370492e+00 7.222345901089829567e+01 3.370000000000000000e+02
3.155564016672741001e+00 7.094174806249959886e+01 3.370000000000000000e+02
2.557887645419111511e+00 6.966003711410090204e+01 3.370000000000000000e+02
1.960211274165482465e+00 6.837832616570219102e+01 3.370000000000000000e+02
6.741622244194517499e+00 7.863201375289179396e+01 3.380000000000000000e+02
6.143945872940888009e+00 7.735030280449309714e+01 3.380000000000000000e+02
5.546269501687259407e+00 7.606859185609440033e+01 3.380000000000000000e+02
4.948593130433629028e+00 7.478688090769568930e+01 3.380000000000000000e+02
4.350916759180000426e+00 7.350516995929699249e+01 3.380000000000000000e+02
3.753240387926370492e+00 7.222345901089829567e+01 3.380000000000000000e+02
3.155564016672741001e+00 7.094174806249959886e+01 3.380000000000000000e+02
2.557887645419111511e+00 6.966003711410090204e+01 3.380000000000000000e+02
1.960211274165482465e+00 6.837832616570219102e+01 3.380000000000000000e+02
6.741622244194517499e+00 7.863201375289179396e+01 3.390000000000000000e+02
6.143945872940888009e+00 7.735030280449309714e+01 3.390000000000000000e+02
5.546269501687259407e+00 7.606859185609440033e+01 3.390000000000000000e+02
4.948593130433629028e+00 7.478688090769568930e+01 3.390000000000000000e+02
4.350916759180000426e+00 7.350516995929699249e+01 3.390000000000000000e+02
3.753240387926370492e+00 7.222345901089829567e+01 3.390000000000000000e+02
3.155564016672741001e+00 7.094174806249959886e+01 3.390000000000000000e+02
2.557887645419111511e+00 6.966003711410090204e+01 3.390000000000000000e+02
1.960211274165482465e+00 6.837832616570219102e+01 3.390000000000000000e+02
6.741622244194517499e+00 7.863201375289179396e+01 3.400000000000000000e+02
6.143945872940888009e+00 7.735030280449309714e+01 3.400000000000000000e+02
5.546269501687259407e+00 7.606859185609440033e+01 3.400000000000000000e+02
4.948593130433629028e+00 7.478688090769568930e+01 3.400000000000000000e+02
4.350916759180000426e+00 7.350516995929699249e+01 3.400000000000000000e+02
3.753240387926370492e+00 7.222345901089829567e+01 3.400000000000000000e+02
3.155564016672741001e+00 7.094174806249959886e+01 3.400000000000000000e+02
2.557887645419111511e+00 6.966003711410090204e+01 3.400000000000000000e+02
1.960211274165482465e+00 6.837832616570219102e+01 3.400000000000000000e+02
6.741622244194517499e+00 7.863201375289179396e+01 3.410000000000000000e+02
6.143945872940888009e+00 7.735030280449309714e+01 3.410000000000000000e+02
5.546269501687259407e+00 7.606859185609440033e+01 3.410000000000000000e+02
4.948593130433629028e+00 7.478688090769568930e+01 3.410000000000000000e+02
4.350916759180000426e+00 7.350516995929699249e+01 3.410000000000000000e+02
3.753240387926370492e+00 7.222345901089829567e+01 3.410000000000000000e+02
3.155564016672741001e+00 7.094174806249959886e+01 3.410000000000000000e+02
2.557887645419111511e+00 6.966003711410090204e+01 3.410000000000000000e+02
1.960211274165482465e+00 6.837832616570219102e+01 3.410000000000000000e+02
6.741622244194517499e+00 7.863201375289179396e+01 3.420000000000000000e+02
6.143945872940888009e+00 7.735030280449309714e+01 3.420000000000000000e+02
5.546269501687259407e+00 7.606859185609440033e+01 3.420000000000000000e+02
4.948593130433629028e+00 7.478688090769568930e+01 3.420000000000000000e+02
4.350916759180000426e+00 7.350516995929699249e+01 3.420000000000000000e+02
3.753240387926370492e+00 7.222345901089829567e+01 3.420000000000000000e+02
3.155564016672741001e+00 7.094174806249959886e+01 3.420000000000000000e+02
2.557887645419111511e+00 6.966003711410090204e+01 3.420000000000000000e+02
1.960211274165482465e+00 6.837832616570219102e+01 3.420000000000000000e+02
6.741622244194517499e+00 7.863201375289179396e+01 3.430000000000000000e+02
6.143945872940888009e+00 7.735030280449309714e+01 3.430000000000000000e+02
5.546269501687259407e+00 7.606859185609440033e+01 3.430000000000000000e+02
4.948593130433629028e+00 7.478688090769568930e+01 3.430000000000000000e+02
4.350916759180000426e+00 7.350516995929699249e+01 3.430000000000000000e+02
3.753240387926370492e+00 7.222345901089829567e+01 3.430000000000000000e+02
3.155564016672741001e+00 7.094174806249959886e+01 3.430000000000000000e+02
2.557887645419111511e+00 6.966003711410090204e+01 3.430000000000000000e+02
1.960211274165482465e+00 6.837832616570219102e+01 3.430000000000000000e+02
6.741622244194517499e+00 7.863201375289179396e+01 3.440000000000000000e+02
6.143945872940888009e+00 7.735030280449309714e+01 3.440000000000000000e+02
5.546269501687259407e+00 7.606859185609440033e+01 3.440000000000000000e+02
4.948593130433629028e+00 7.478688090769568930e+01 3.440000000000000000e+02
4.350916759180000426e+00 7.350516995929699249e+01 3.440000000000000000e+02
3.753240387926370492e+00 7.222345901089829567e+01 3.440000000000000000e+02
3.155564016672741001e+00 7.094174806249959886e+01 3.440000000000000000e+02
2.557887645419111511e+00 6.966003711410090204e+01 3.440000000000000000e+02
1.960211274165482465e+00 6.837832616570219102e+01 3.440000000000000000e+02
6.741622244194517499e+00 7.863201375289179396e+01 3.450000000000000000e+02
6.143945872940888009e+00 7.735030280449309714e+01 3.450000000000000000e+02
5.546269501687259407e+00 7.606859185609440033e+01 3.450000000000000000e+02
4.948593130433629028e+00 7.478688090769568930e+01 3.450000000000000000e+02
4.350916759180000426e+00 7.350516995929699249e+01 3.450000000000000000e+02
3.753240387926370492e+00 7.222345901089829567e+01 3.450000000000000000e+02
3.155564016672741001e+00 7.094174806249959886e+01 3.450000000000000000e+02
2.557887645419111511e+00 6.966003711410090204e+01 3.450000000000000000e+02
1.960211274165482465e+00 6.837832616570219102e+01 3.450000000000000000e+02
6.741622244194517499e+00 7.863201375289179396e+01 3.460000000000000000e+02
6.143945872940888009e+00 7.735030280449309714e+01 3.460000000000000000e+02
5.546269501687259407e+00 7.606859185609440033e+01 3.460000000000000000e+02
4.948593130433629028e+00 7.478688090769568930e+01 3.460000000000000000e+02
4.350916759180000426e+00 7.350516995929699249e+01 3.460000000000000000e+02
3.753240387926370492e+00 7.222345901089829567e+01 3.460000000000000000e+02
3.155564016672741001e+00 7.094174806249959886e+01 3.460000000000000000e+02
2.557887645419111511e+00 6.966003711410090204e+01 3.460000000000000000e+02
1.960211274165482465e+00 6.837832616570219102e+01 3.460000000000000000e+02
7.681315904020681984e+00 7.897403104146432895e+01 3.470000000000000000e+02
7.083639532767052494e+00 7.769232009306563214e+01 3.470000000000000000e+02
6.485963161513423891e+00 7.641060914466693532e+01 3.470000000000000000e+02
5.888286790259794401e+00 7.512889819626822430e+01 3.470000000000000000e+02
5.290610419006164911e+00 7.384718724786952748e+01 3.470000000000000000e+02
4.692934047752535420e+00 7.256547629947083067e+01 3.470000000000000000e+02
4.095257676498905042e+00 7.128376535107213385e+01 3.470000000000000000e+02
3.497581305245275995e+00 7.000205440267343704e+01 3.470000000000000000e+02
2.899904933991646949e+00 6.872034345427474022e+01 3.470000000000000000e+02
2.302228562738017459e+00 6.743863250587602920e+01 3.470000000000000000e+02
7.681315904020681984e+00 7.897403104146432895e+01 3.480000000000000000e+02
7.083639532767052494e+00 7.769232009306563214e+01 3.480000000000000000e+02
6.485963161513423891e+00 7.641060914466693532e+01 3.480000000000000000e+02
5.888286790259794401e+00 7.512889819626822430e+01 3.480000000000000000e+02
5.290610419006164911e+00 7.384718724786952748e+01 3.480000000000000000e+02
4.692934047752535420e+00 7.256547629947083067e+01 3.480000000000000000e+02
4.095257676498905042e+00 7.128376535107213385e+01 3.480000000000000000e+02
3.497581305245275995e+00 7.000205440267343704e+01 3.480000000000000000e+02
2.899904933991646949e+00 6.872034345427474022e+01 3.480000000000000000e+02
2.302228562738017459e+00 6.743863250587602920e+01 3.480000000000000000e+02
7.681315904020681984e+00 7.897403104146432895e+01 3.490000000000000000e+02
7.083639532767052494e+00 7.769232009306563214e+01 3.490000000000000000e+02
6.485963161513423891e+00 7.641060914466693532e+01 3.490000000000000000e+02
5.888286790259794401e+00 7.512889819626822430e+01 3.490000000000000000e+02
5.290610419006164911e+00 7.384718724786952748e+01 3.490000000000000000e+02
4.692934047752535420e+00 7.256547629947083067e+01 3.490000000000000000e+02
4.095257676498905042e+00 7.128376535107213385e+01 3.490000000000000000e+02
3.497581305245275995e+00 7.000205440267343704e+01 3.490000000000000000e+02
2.899904933991646949e+00 6.872034345427474022e+01 3.490000000000000000e+02
2.302228562738017459e+00 6.743863250587602920e+01 3.490000000000000000e+02
7.681315904020681984e+00 7.897403104146432895e+01 3.500000000000000000e+02
7.083639532767052494e+00 7.769232009306563214e+01 3.500000000000000000e+02
6.485963161513423891e+00 7.641060914466693532e+01 3.500000000000000000e+02
5.888286790259794401e+00 7.512889819626822430e+01 3.500000000000000000e+02
5.290610419006164911e+00 7.384718724786952748e+01 3.500000000000000000e+02
4.692934047752535420e+00 7.256547629947083067e+01 3.500000000000000000e+02
4.095257676498905042e+00 7.128376535107213385e+01 3.500000000000000000e+02
3.497581305245275995e+00 7.000205440267343704e+01 3.500000000000000000e+02
2.899904933991646949e+00 6.872034345427474022e+01 3.500000000000000000e+02
2.302228562738017459e+00 6.743863250587602920e+01 3.500000000000000000e+02
6.741622244194517499e+00 7.863201375289179396e+01 3.510000000000000000e+02
6.143945872940888009e+00 7.735030280449309714e+01 3.510000000000000000e+02
5.546269501687259407e+00 7.606859185609440033e+01 3.510000000000000000e+02
4.948593130433629028e+00 7.478688090769568930e+01 3.510000000000000000e+02
4.350916759180000426e+00 7.350516995929699249e+01 3.510000000000000000e+02
3.753240387926370492e+00 7.222345901089829567e+01 3.510000000000000000e+02
3.155564016672741001e+00 7.094174806249959886e+01 3.510000000000000000e+02
2.557887645419111511e+00 6.966003711410090204e+01 3.510000000000000000e+02
1.960211274165482465e+00 6.837832616570219102e+01 3.510000000000000000e+02
6.741622244194517499e+00 7.863201375289179396e+01 3.520000000000000000e+02
6.143945872940888009e+00 7.735030280449309714e+01 3.520000000000000000e+02
5.546269501687259407e+00 7.606859185609440033e+01 3.520000000000000000e+02
4.948593130433629028e+00 7.478688090769568930e+01 3.520000000000000000e+02
4.350916759180000426e+00 7.350516995929699249e+01 3.520000000000000000e+02
3.753240387926370492e+00 7.222345901089829567e+01 3.520000000000000000e+02
3.155564016672741001e+00 7.094174806249959886e+01 3.520000000000000000e+02
2.557887645419111511e+00 6.966003711410090204e+01 3.520000000000000000e+02
1.960211274165482465e+00 6.837832616570219102e+01 3.520000000000000000e+02
6.741622244194517499e+00 7.863201375289179396e+01 3.530000000000000000e+02
6.143945872940888009e+00 7.735030280449309714e+01 3.530000000000000000e+02
5.546269501687259407e+00 7.606859185609440033e+01 3.530000000000000000e+02
4.948593130433629028e+00 7.478688090769568930e+01 3.530000000000000000e+02
4.350916759180000426e+00 7.350516995929699249e+01 3.530000000000000000e+02
3.753240387926370492e+00 7.222345901089829567e+01 3.530000000000000000e+02
3.155564016672741001e+00 7.094174806249959886e+01 3.530000000000000000e+02
2.557887645419111511e+00 6.966003711410090204e+01 3.530000000000000000e+02
1.960211274165482465e+00 6.837832616570219102e+01 3.530000000000000000e+02
6.741622244194517499e+00 7.863201375289179396e+01 3.540000000000000000e+02
6.143945872940888009e+00 7.735030280449309714e+01 3.540000000000000000e+02
5.546269501687259407e+00 7.606859185609440033e+01 3.540000000000000000e+02
4.948593130433629028e+00 7.478688090769568930e+01 3.540000000000000000e+02
4.350916759180000426e+00 7.350516995929699249e+01 3.540000000000000000e+02
3.753240387926370492e+00 7.222345901089829567e+01 3.540000000000000000e+02
3.155564016672741001e+00 7.094174806249959886e+01 3.540000000000000000e+02
2.557887645419111511e+00 6.966003711410090204e+01 3.540000000000000000e+02
1.960211274165482465e+00 6.837832616570219102e+01 3.540000000000000000e+02
6.741622244194517499e+00 7.863201375289179396e+01 3.550000000000000000e+02
6.143945872940888009e+00 7.735030280449309714e+01 3.550000000000000000e+02
5.546269501687259407e+00 7.606859185609440033e+01 3.550000000000000000e+02
4.948593130433629028e+00 7.478688090769568930e+01 3.550000000000000000e+02
4.350916759180000426e+00 7.350516995929699249e+01 3.550000000000000000e+02
3.753240387926370492e+00 7.222345901089829567e+01 3.550000000000000000e+02
3.155564016672741001e+00 7.094174806249959886e+01 3.550000000000000000e+02
2.557887645419111511e+00 6.966003711410090204e+01 3.550000000000000000e+02
1.960211274165482465e+00 6.837832616570219102e+01 3.550000000000000000e+02
6.741622244194517499e+00 7.863201375289179396e+01 3.560000000000000000e+02
6.143945872940888009e+00 7.735030280449309714e+01 3.560000000000000000e+02
5.546269501687259407e+00 7.606859185609440033e+01 3.560000000000000000e+02
4.948593130433629028e+00 7.478688090769568930e+01 3.560000000000000000e+02
4.350916759180000426e+00 7.350516995929699249e+01 3.560000000000000000e+02
3.753240387926370492e+00 7.222345901089829567e+01 3.560000000000000000e+02
3.155564016672741001e+00 7.094174806249959886e+01 3.560000000000000000e+02
2.557887645419111511e+00 6.966003711410090204e+01 3.560000000000000000e+02
1.960211274165482465e+00 6.837832616570219102e+01 3.560000000000000000e+02
6.741622244194517499e+00 7.863201375289179396e+01 3.570000000000000000e+02
6.143945872940888009e+00 7.735030280449309714e+01 3.570000000000000000e+02
5.546269501687259407e+00 7.606859185609440033e+01 3.570000000000000000e+02
4.948593130433629028e+00 7.478688090769568930e+01 3.570000000000000000e+02
4.350916759180000426e+00 7.350516995929699249e+01 3.570000000000000000e+02
3.753240387926370492e+00 7.222345901089829567e+01 3.570000000000000000e+02
3.155564016672741001e+00 7.094174806249959886e+01 3.570000000000000000e+02
2.557887645419111511e+00 6.966003711410090204e+01 3.570000000000000000e+02
1.960211274165482465e+00 6.837832616570219102e+01 3.570000000000000000e+02
7.681315904020681984e+00 7.897403104146432895e+01 3.580000000000000000e+02
7.083639532767052494e+00 7.769232009306563214e+01 3.580000000000000000e+02
6.485963161513423891e+00 7.641060914466693532e+01 3.580000000000000000e+02
5.888286790259794401e+00 7.512889819626822430e+01 3.580000000000000000e+02
5.290610419006164911e+00 7.384718724786952748e+01 3.580000000000000000e+02
4.692934047752535420e+00 7.256547629947083067e+01 3.580000000000000000e+02
4.095257676498905042e+00 7.128376535107213385e+01 3.580000000000000000e+02
3.497581305245275995e+00 7.000205440267343704e+01 3.580000000000000000e+02
2.899904933991646949e+00 6.872034345427474022e+01 3.580000000000000000e+02
2.302228562738017459e+00 6.743863250587602920e+01 3.580000000000000000e+02
7.681315904020681984e+00 7.897403104146432895e+01 3.590000000000000000e+02
7.083639532767052494e+00 7.769232009306563214e+01 3.590000000000000000e+02
6.485963161513423891e+00 7.641060914466693532e+01 3.590000000000000000e+02
5.888286790259794401e+00 7.512889819626822430e+01 3.590000000000000000e+02
5.290610419006164911e+00 7.384718724786952748e+01 3.590000000000000000e+02
4.692934047752535420e+00 7.256547629947083067e+01 3.590000000000000000e+02
4.095257676498905042e+00 7.128376535107213385e+01 3.590000000000000000e+02
3.497581305245275995e+00 7.000205440267343704e+01 3.590000000000000000e+02
2.899904933991646949e+00 6.872034345427474022e+01 3.590000000000000000e+02
2.302228562738017459e+00 6.743863250587602920e+01 3.590000000000000000e+02
7.681315904020681984e+00 7.897403104146432895e+01 3.600000000000000000e+02
7.083639532767052494e+00 7.769232009306563214e+01 3.600000000000000000e+02
6.485963161513423891e+00 7.641060914466693532e+01 3.600000000000000000e+02
5.888286790259794401e+00 7.512889819626822430e+01 3.600000000000000000e+02
5.290610419006164911e+00 7.384718724786952748e+01 3.600000000000000000e+02
4.692934047752535420e+00 7.256547629947083067e+01 3.600000000000000000e+02
4.095257676498905042e+00 7.128376535107213385e+01 3.600000000000000000e+02
3.497581305245275995e+00 7.000205440267343704e+01 3.600000000000000000e+02
2.899904933991646949e+00 6.872034345427474022e+01 3.600000000000000000e+02
2.302228562738017459e+00 6.743863250587602920e+01 3.600000000000000000e+02
7.681315904020681984e+00 7.897403104146432895e+01 3.610000000000000000e+02
7.083639532767052494e+00 7.769232009306563214e+01 3.610000000000000000e+02
6.485963161513423891e+00 7.641060914466693532e+01 3.610000000000000000e+02
5.888286790259794401e+00 7.512889819626822430e+01 3.610000000000000000e+02
5.290610419006164911e+00 7.384718724786952748e+01 3.610000000000000000e+02
4.692934047752535420e+00 7.256547629947083067e+01 3.610000000000000000e+02
4.095257676498905042e+00 7.128376535107213385e+01 3.610000000000000000e+02
3.497581305245275995e+00 7.000205440267343704e+01 3.610000000000000000e+02
2.899904933991646949e+00 6.872034345427474022e+01 3.610000000000000000e+02
2.302228562738017459e+00 6.743863250587602920e+01 3.610000000000000000e+02
7.681315904020681984e+00 7.897403104146432895e+01 3.620000000000000000e+02
7.083639532767052494e+00 7.769232009306563214e+01 3.620000000000000000e+02
6.485963161513423891e+00 7.641060914466693532e+01 3.620000000000000000e+02
5.888286790259794401e+00 7.512889819626822430e+01 3.620000000000000000e+02
5.290610419006164911e+00 7.384718724786952748e+01 3.620000000000000000e+02
4.692934047752535420e+00 7.256547629947083067e+01 3.620000000000000000e+02
4.095257676498905042e+00 7.128376535107213385e+01 3.620000000000000000e+02
3.497581305245275995e+00 7.000205440267343704e+01 3.620000000000000000e+02
2.899904933991646949e+00 6.872034345427474022e+01 3.620000000000000000e+02
2.302228562738017459e+00 6.743863250587602920e+01 3.620000000000000000e+02
7.681315904020681984e+00 7.897403104146432895e+01 3.630000000000000000e+02
7.083639532767052494e+00 7.769232009306563214e+01 3.630000000000000000e+02
6.485963161513423891e+00 7.641060914466693532e+01 3.630000000000000000e+02
5.888286790259794401e+00 7.512889819626822430e+01 3.630000000000000000e+02
5.290610419006164911e+00 7.384718724786952748e+01 3.630000000000000000e+02
4.692934047752535420e+00 7.256547629947083067e+01 3.630000000000000000e+02
4.095257676498905042e+00 7.128376535107213385e+01 3.630000000000000000e+02
3.497581305245275995e+00 7.000205440267343704e+01 3.630000000000000000e+02
2.899904933991646949e+00 6.872034345427474022e+01 3.630000000000000000e+02
2.302228562738017459e+00 6.743863250587602920e+01 3.630000000000000000e+02
7.681315904020681984e+00 7.897403104146432895e+01 3.640000000000000000e+02
7.083639532767052494e+00 7.769232009306563214e+01 3.640000000000000000e+02
6.485963161513423891e+00 7.641060914466693532e+01 3.640000000000000000e+02
5.888286790259794401e+00 7.512889819626822430e+01 3.640000000000000000e+02
5.290610419006164911e+00 7.384718724786952748e+01 3.640000000000000000e+02
4.692934047752535420e+00 7.256547629947083067e+01 3.640000000000000000e+02
4.095257676498905042e+00 7.128376535107213385e+01 3.640000000000000000e+02
3.497581305245275995e+00 7.000205440267343704e+01 3.640000000000000000e+02
2.899904933991646949e+00 6.872034345427474022e+01 3.640000000000000000e+02
2.302228562738017459e+00 6.743863250587602920e+01 3.640000000000000000e+02
6.741622244194517499e+00 7.863201375289179396e+01 3.650000000000000000e+02
6.143945872940888009e+00 7.735030280449309714e+01 3.650000000000000000e+02
5.546269501687259407e+00 7.606859185609440033e+01 3.650000000000000000e+02
4.948593130433629028e+00 7.478688090769568930e+01 3.650000000000000000e+02
4.350916759180000426e+00 7.350516995929699249e+01 3.650000000000000000e+02
3.753240387926370492e+00 7.222345901089829567e+01 3.650000000000000000e+02
3.155564016672741001e+00 7.094174806249959886e+01 3.650000000000000000e+02
2.557887645419111511e+00 6.966003711410090204e+01 3.650000000000000000e+02
1.960211274165482465e+00 6.837832616570219102e+01 3.650000000000000000e+02
7.681315904020681984e+00 7.897403104146432895e+01 3.660000000000000000e+02
7.083639532767052494e+00 7.769232009306563214e+01 3.660000000000000000e+02
6.485963161513423891e+00 7.641060914466693532e+01 3.660000000000000000e+02
5.888286790259794401e+00 7.512889819626822430e+01 3.660000000000000000e+02
5.290610419006164911e+00 7.384718724786952748e+01 3.660000000000000000e+02
4.692934047752535420e+00 7.256547629947083067e+01 3.660000000000000000e+02
4.095257676498905042e+00 7.128376535107213385e+01 3.660000000000000000e+02
3.497581305245275995e+00 7.000205440267343704e+01 3.660000000000000000e+02
2.899904933991646949e+00 6.872034345427474022e+01 3.660000000000000000e+02
2.302228562738017459e+00 6.743863250587602920e+01 3.660000000000000000e+02
7.681315904020681984e+00 7.897403104146432895e+01 3.670000000000000000e+02
7.083639532767052494e+00 7.769232009306563214e+01 3.670000000000000000e+02
6.485963161513423891e+00 7.641060914466693532e+01 3.670000000000000000e+02
5.888286790259794401e+00 7.512889819626822430e+01 3.670000000000000000e+02
5.290610419006164911e+00 7.384718724786952748e+01 3.670000000000000000e+02
4.692934047752535420e+00 7.256547629947083067e+01 3.670000000000000000e+02
4.095257676498905042e+00 7.128376535107213385e+01 3.670000000000000000e+02
3.497581305245275995e+00 7.000205440267343704e+01 3.670000000000000000e+02
2.899904933991646949e+00 6.872034345427474022e+01 3.670000000000000000e+02
2.302228562738017459e+00 6.743863250587602920e+01 3.670000000000000000e+02
7.681315904020681984e+00 7.897403104146432895e+01 3.680000000000000000e+02
7.083639532767052494e+00 7.769232009306563214e+01 3.680000000000000000e+02
6.485963161513423891e+00 7.641060914466693532e+01 3.680000000000000000e+02
5.888286790259794401e+00 7.512889819626822430e+01 3.680000000000000000e+02
5.290610419006164911e+00 7.384718724786952748e+01 3.680000000000000000e+02
4.692934047752535420e+00 7.256547629947083067e+01 3.680000000000000000e+02
4.095257676498905042e+00 7.128376535107213385e+01 3.680000000000000000e+02
3.497581305245275995e+00 7.000205440267343704e+01 3.680000000000000000e+02
2.899904933991646949e+00 6.872034345427474022e+01 3.680000000000000000e+02
2.302228562738017459e+00 6.743863250587602920e+01 3.680000000000000000e+02
7.681315904020681984e+00 7.897403104146432895e+01 3.690000000000000000e+02
7.083639532767052494e+00 7.769232009306563214e+01 3.690000000000000000e+02
6.485963161513423891e+00 7.641060914466693532e+01 3.690000000000000000e+02
5.888286790259794401e+00 7.512889819626822430e+01 3.690000000000000000e+02
5.290610419006164911e+00 7.384718724786952748e+01 3.690000000000000000e+02
4.692934047752535420e+00 7.256547629947083067e+01 3.690000000000000000e+02
4.095257676498905042e+00 7.128376535107213385e+01 3.690000000000000000e+02
3.497581305245275995e+00 7.000205440267343704e+01 3.690000000000000000e+02
2.899904933991646949e+00 6.872034345427474022e+01 3.690000000000000000e+02
2.302228562738017459e+00 6.743863250587602920e+01 3.690000000000000000e+02
7.681315904020681984e+00 7.897403104146432895e+01 3.700000000000000000e+02
7.083639532767052494e+00 7.769232009306563214e+01 3.700000000000000000e+02
6.485963161513423891e+00 7.641060914466693532e+01 3.700000000000000000e+02
5.888286790259794401e+00 7.512889819626822430e+01 3.700000000000000000e+02
5.290610419006164911e+00 7.384718724786952748e+01 3.700000000000000000e+02
4.692934047752535420e+00 7.256547629947083067e+01 3.700000000000000000e+02
4.095257676498905042e+00 7.128376535107213385e+01 3.700000000000000000e+02
3.497581305245275995e+00 7.000205440267343704e+01 3.700000000000000000e+02
2.899904933991646949e+00 6.872034345427474022e+01 3.700000000000000000e+02
2.302228562738017459e+00 6.743863250587602920e+01 3.700000000000000000e+02
7.681315904020681984e+00 7.897403104146432895e+01 3.710000000000000000e+02
7.083639532767052494e+00 7.769232009306563214e+01 3.710000000000000000e+02
6.485963161513423891e+00 7.641060914466693532e+01 3.710000000000000000e+02
5.888286790259794401e+00 7.512889819626822430e+01 3.710000000000000000e+02
5.290610419006164911e+00 7.384718724786952748e+01 3.710000000000000000e+02
4.692934047752535420e+00 7.256547629947083067e+01 3.710000000000000000e+02
4.095257676498905042e+00 7.128376535107213385e+01 3.710000000000000000e+02
3.497581305245275995e+00 7.000205440267343704e+01 3.710000000000000000e+02
2.899904933991646949e+00 6.872034345427474022e+01 3.710000000000000000e+02
2.302228562738017459e+00 6.743863250587602920e+01 3.710000000000000000e+02
6.741622244194517499e+00 7.863201375289179396e+01 3.720000000000000000e+02
6.143945872940888009e+00 7.735030280449309714e+01 3.720000000000000000e+02
5.546269501687259407e+00 7.606859185609440033e+01 3.720000000000000000e+02
4.948593130433629028e+00 7.478688090769568930e+01 3.720000000000000000e+02
4.350916759180000426e+00 7.350516995929699249e+01 3.720000000000000000e+02
3.753240387926370492e+00 7.222345901089829567e+01 3.720000000000000000e+02
3.155564016672741001e+00 7.094174806249959886e+01 3.720000000000000000e+02
2.557887645419111511e+00 6.966003711410090204e+01 3.720000000000000000e+02
1.960211274165482465e+00 6.837832616570219102e+01 3.720000000000000000e+02
6.741622244194517499e+00 7.863201375289179396e+01 3.730000000000000000e+02
6.143945872940888009e+00 7.735030280449309714e+01 3.730000000000000000e+02
5.546269501687259407e+00 7.606859185609440033e+01 3.730000000000000000e+02
4.948593130433629028e+00 7.478688090769568930e+01 3.730000000000000000e+02
4.350916759180000426e+00 7.350516995929699249e+01 3.730000000000000000e+02
3.753240387926370492e+00 7.222345901089829567e+01 3.730000000000000000e+02
3.155564016672741001e+00 7.094174806249959886e+01 3.730000000000000000e+02
2.557887645419111511e+00 6.966003711410090204e+01 3.730000000000000000e+02
1.960211274165482465e+00 6.837832616570219102e+01 3.730000000000000000e+02
6.741622244194517499e+00 7.863201375289179396e+01 3.740000000000000000e+02
6.143945872940888009e+00 7.735030280449309714e+01 3.740000000000000000e+02
5.546269501687259407e+00 7.606859185609440033e+01 3.740000000000000000e+02
4.948593130433629028e+00 7.478688090769568930e+01 3.740000000000000000e+02
4.350916759180000426e+00 7.350516995929699249e+01 3.740000000000000000e+02
3.753240387926370492e+00 7.222345901089829567e+01 3.740000000000000000e+02
3.155564016672741001e+00 7.094174806249959886e+01 3.740000000000000000e+02
2.557887645419111511e+00 6.966003711410090204e+01 3.740000000000000000e+02
1.960211274165482465e+00 6.837832616570219102e+01 3.740000000000000000e+02
6.741622244194517499e+00 7.863201375289179396e+01 3.750000000000000000e+02
6.143945872940888009e+00 7.735030280449309714e+01 3.750000000000000000e+02
5.546269501687259407e+00 7.606859185609440033e+01 3.750000000000000000e+02
4.948593130433629028e+00 7.478688090769568930e+01 3.750000000000000000e+02
4.350916759180000426e+00 7.350516995929699249e+01 3.750000000000000000e+02
3.753240387926370492e+00 7.222345901089829567e+01 3.750000000000000000e+02
3.155564016672741001e+00 7.094174806249959886e+01 3.750000000000000000e+02
2.557887645419111511e+00 6.966003711410090204e+01 3.750000000000000000e+02
1.960211274165482465e+00 6.837832616570219102e+01 3.750000000000000000e+02
6.741622244194517499e+00 7.863201375289179396e+01 3.760000000000000000e+02
6.143945872940888009e+00 7.735030280449309714e+01 3.760000000000000000e+02
5.546269501687259407e+00 7.606859185609440033e+01 3.760000000000000000e+02
4.948593130433629028e+00 7.478688090769568930e+01 3.760000000000000000e+02
4.350916759180000426e+00 7.350516995929699249e+01 3.760000000000000000e+02
3.753240387926370492e+00 7.222345901089829567e+01 3.760000000000000000e+02
3.155564016672741001e+00 7.094174806249959886e+01 3.760000000000000000e+02
2.557887645419111511e+00 6.966003711410090204e+01 3.760000000000000000e+02
1.960211274165482465e+00 6.837832616570219102e+01 3.760000000000000000e+02
6.741622244194517499e+00 7.863201375289179396e+01 3.770000000000000000e+02
6.143945872940888009e+00 7.735030280449309714e+01 3.770000000000000000e+02
5.546269501687259407e+00 7.606859185609440033e+01 3.770000000000000000e+02
4.948593130433629028e+00 7.478688090769568930e+01 3.770000000000000000e+02
4.350916759180000426e+00 7.350516995929699249e+01 3.770000000000000000e+02
3.753240387926370492e+00 7.222345901089829567e+01 3.770000000000000000e+02
3.155564016672741001e+00 7.094174806249959886e+01 3.770000000000000000e+02
2.557887645419111511e+00 6.966003711410090204e+01 3.770000000000000000e+02
1.960211274165482465e+00 6.837832616570219102e+01 3.770000000000000000e+02
6.741622244194517499e+00 7.863201375289179396e+01 3.780000000000000000e+02
6.143945872940888009e+00 7.735030280449309714e+01 3.780000000000000000e+02
5.546269501687259407e+00 7.606859185609440033e+01 3.780000000000000000e+02
4.948593130433629028e+00 7.478688090769568930e+01 3.780000000000000000e+02
4.350916759180000426e+00 7.350516995929699249e+01 3.780000000000000000e+02
3.753240387926370492e+00 7.222345901089829567e+01 3.780000000000000000e+02
3.155564016672741001e+00 7.094174806249959886e+01 3.780000000000000000e+02
2.557887645419111511e+00 6.966003711410090204e+01 3.780000000000000000e+02
1.960211274165482465e+00 6.837832616570219102e+01 3.780000000000000000e+02
7.681315904020681984e+00 7.897403104146432895e+01 3.790000000000000000e+02
7.083639532767052494e+00 7.769232009306563214e+01 3.790000000000000000e+02
6.485963161513423891e+00 7.641060914466693532e+01 3.790000000000000000e+02
5.888286790259794401e+00 7.512889819626822430e+01 3.790000000000000000e+02
5.290610419006164911e+00 7.384718724786952748e+01 3.790000000000000000e+02
4.692934047752535420e+00 7.256547629947083067e+01 3.790000000000000000e+02
4.095257676498905042e+00 7.128376535107213385e+01 3.790000000000000000e+02
3.497581305245275995e+00 7.000205440267343704e+01 3.790000000000000000e+02
2.899904933991646949e+00 6.872034345427474022e+01 3.790000000000000000e+02
2.302228562738017459e+00 6.743863250587602920e+01 3.790000000000000000e+02
7.681315904020681984e+00 7.897403104146432895e+01 3.800000000000000000e+02
7.083639532767052494e+00 7.769232009306563214e+01 3.800000000000000000e+02
6.485963161513423891e+00 7.641060914466693532e+01 3.800000000000000000e+02
5.888286790259794401e+00 7.512889819626822430e+01 3.800000000000000000e+02
5.290610419006164911e+00 7.384718724786952748e+01 3.800000000000000000e+02
4.692934047752535420e+00 7.256547629947083067e+01 3.800000000000000000e+02
4.095257676498905042e+00 7.128376535107213385e+01 3.800000000000000000e+02
3.497581305245275995e+00 7.000205440267343704e+01 3.800000000000000000e+02
2.899904933991646949e+00 6.872034345427474022e+01 3.800000000000000000e+02
2.302228562738017459e+00 6.743863250587602920e+01 3.800000000000000000e+02
7.681315904020681984e+00 7.897403104146432895e+01 3.810000000000000000e+02
7.083639532767052494e+00 7.769232009306563214e+01 3.810000000000000000e+02
6.485963161513423891e+00 7.641060914466693532e+01 3.810000000000000000e+02
5.888286790259794401e+00 7.512889819626822430e+01 3.810000000000000000e+02
5.290610419006164911e+00 7.384718724786952748e+01 3.810000000000000000e+02
4.692934047752535420e+00 7.256547629947083067e+01 3.810000000000000000e+02
4.095257676498905042e+00 7.128376535107213385e+01 3.810000000000000000e+02
3.497581305245275995e+00 7.000205440267343704e+01 3.810000000000000000e+02
2.899904933991646949e+00 6.872034345427474022e+01 3.810000000000000000e+02
2.302228562738017459e+00 6.743863250587602920e+01 3.810000000000000000e+02
7.681315904020681984e+00 7.897403104146432895e+01 3.820000000000000000e+02
7.083639532767052494e+00 7.769232009306563214e+01 3.820000000000000000e+02
6.485963161513423891e+00 7.641060914466693532e+01 3.820000000000000000e+02
5.888286790259794401e+00 7.512889819626822430e+01 3.820000000000000000e+02
5.290610419006164911e+00 7.384718724786952748e+01 3.820000000000000000e+02
4.692934047752535420e+00 7.256547629947083067e+01 3.820000000000000000e+02
4.095257676498905042e+00 7.128376535107213385e+01 3.820000000000000000e+02
3.497581305245275995e+00 7.000205440267343704e+01 3.820000000000000000e+02
2.899904933991646949e+00 6.872034345427474022e+01 3.820000000000000000e+02
2.302228562738017459e+00 6.743863250587602920e+01 3.820000000000000000e+02
7.681315904020681984e+00 7.897403104146432895e+01 3.830000000000000000e+02
7.083639532767052494e+00 7.769232009306563214e+01 3.830000000000000000e+02
6.485963161513423891e+00 7.641060914466693532e+01 3.830000000000000000e+02
5.888286790259794401e+00 7.512889819626822430e+01 3.830000000000000000e+02
5.290610419006164911e+00 7.384718724786952748e+01 3.830000000000000000e+02
4.692934047752535420e+00 7.256547629947083067e+01 3.830000000000000000e+02
4.095257676498905042e+00 7.128376535107213385e+01 3.830000000000000000e+02
3.497581305245275995e+00 7.000205440267343704e+01 3.830000000000000000e+02
2.899904933991646949e+00 6.872034345427474022e+01 3.830000000000000000e+02
2.302228562738017459e+00 6.743863250587602920e+01 3.830000000000000000e+02
7.681315904020681984e+00 7.897403104146432895e+01 3.840000000000000000e+02
7.083639532767052494e+00 7.769232009306563214e+01 3.840000000000000000e+02
6.485963161513423891e+00 7.641060914466693532e+01 3.840000000000000000e+02
5.888286790259794401e+00 7.512889819626822430e+01 3.840000000000000000e+02
5.290610419006164911e+00 7.384718724786952748e+01 3.840000000000000000e+02
4.692934047752535420e+00 7.256547629947083067e+01 3.840000000000000000e+02
4.095257676498905042e+00 7.128376535107213385e+01 3.840000000000000000e+02
3.497581305245275995e+00 7.000205440267343704e+01 3.840000000000000000e+02
2.899904933991646949e+00 6.872034345427474022e+01 3.840000000000000000e+02
2.302228562738017459e+00 6.743863250587602920e+01 3.840000000000000000e+02
7.681315904020681984e+00 7.897403104146432895e+01 3.850000000000000000e+02
7.083639532767052494e+00 7.769232009306563214e+01 3.850000000000000000e+02
6.485963161513423891e+00 7.641060914466693532e+01 3.850000000000000000e+02
5.888286790259794401e+00 7.512889819626822430e+01 3.850000000000000000e+02
5.290610419006164911e+00 7.384718724786952748e+01 3.850000000000000000e+02
4.692934047752535420e+00 7.256547629947083067e+01 3.850000000000000000e+02
4.095257676498905042e+00 7.128376535107213385e+01 3.850000000000000000e+02
3.497581305245275995e+00 7.000205440267343704e+01 3.850000000000000000e+02
2.899904933991646949e+00 6.872034345427474022e+01 3.850000000000000000e+02
2.302228562738017459e+00 6.743863250587602920e+01 3.850000000000000000e+02
7.681315904020681984e+00 7.897403104146432895e+01 3.860000000000000000e+02
7.083639532767052494e+00 7.769232009306563214e+01 3.860000000000000000e+02
6.485963161513423891e+00 7.641060914466693532e+01 3.860000000000000000e+02
5.888286790259794401e+00 7.512889819626822430e+01 3.860000000000000000e+02
5.290610419006164911e+00 7.384718724786952748e+01 3.860000000000000000e+02
4.692934047752535420e+00 7.256547629947083067e+01 3.860000000000000000e+02
4.095257676498905042e+00 7.128376535107213385e+01 3.860000000000000000e+02
3.497581305245275995e+00 7.000205440267343704e+01 3.860000000000000000e+02
2.899904933991646949e+00 6.872034345427474022e+01 3.860000000000000000e+02
2.302228562738017459e+00 6.743863250587602920e+01 3.860000000000000000e+02
1.704552191484387969e+00 6.615692155747733239e+01 3.860000000000000000e+02
7.681315904020681984e+00 7.897403104146432895e+01 3.870000000000000000e+02
7.083639532767052494e+00 7.769232009306563214e+01 3.870000000000000000e+02
6.485963161513423891e+00 7.641060914466693532e+01 3.870000000000000000e+02
5.888286790259794401e+00 7.512889819626822430e+01 3.870000000000000000e+02
5.290610419006164911e+00 7.384718724786952748e+01 3.870000000000000000e+02
4.692934047752535420e+00 7.256547629947083067e+01 3.870000000000000000e+02
4.095257676498905042e+00 7.128376535107213385e+01 3.870000000000000000e+02
3.497581305245275995e+00 7.000205440267343704e+01 3.870000000000000000e+02
2.899904933991646949e+00 6.872034345427474022e+01 3.870000000000000000e+02
2.302228562738017459e+00 6.743863250587602920e+01 3.870000000000000000e+02
1.704552191484387969e+00 6.615692155747733239e+01 3.870000000000000000e+02
7.681315904020681984e+00 7.897403104146432895e+01 3.880000000000000000e+02
7.083639532767052494e+00 7.769232009306563214e+01 3.880000000000000000e+02
6.485963161513423891e+00 7.641060914466693532e+01 3.880000000000000000e+02
5.888286790259794401e+00 7.512889819626822430e+01 3.880000000000000000e+02
5.290610419006164911e+00 7.384718724786952748e+01 3.880000000000000000e+02
4.692934047752535420e+00 7.256547629947083067e+01 3.880000000000000000e+02
4.095257676498905042e+00 7.128376535107213385e+01 3.880000000000000000e+02
3.497581305245275995e+00 7.000205440267343704e+01 3.880000000000000000e+02
2.899904933991646949e+00 6.872034345427474022e+01 3.880000000000000000e+02
2.302228562738017459e+00 6.743863250587602920e+01 3.880000000000000000e+02
1.704552191484387969e+00 6.615692155747733239e+01 3.880000000000000000e+02
7.681315904020681984e+00 7.897403104146432895e+01 3.890000000000000000e+02
7.083639532767052494e+00 7.769232009306563214e+01 3.890000000000000000e+02
6.485963161513423891e+00 7.641060914466693532e+01 3.890000000000000000e+02
5.888286790259794401e+00 7.512889819626822430e+01 3.890000000000000000e+02
5.290610419006164911e+00 7.384718724786952748e+01 3.890000000000000000e+02
4.692934047752535420e+00 7.256547629947083067e+01 3.890000000000000000e+02
4.095257676498905042e+00 7.128376535107213385e+01 3.890000000000000000e+02
3.497581305245275995e+00 7.000205440267343704e+01 3.890000000000000000e+02
2.899904933991646949e+00 6.872034345427474022e+01 3.890000000000000000e+02
2.302228562738017459e+00 6.743863250587602920e+01 3.890000000000000000e+02
1.704552191484387969e+00 6.615692155747733239e+01 3.890000000000000000e+02
7.681315904020681984e+00 7.897403104146432895e+01 3.900000000000000000e+02
7.083639532767052494e+00 7.769232009306563214e+01 3.900000000000000000e+02
6.485963161513423891e+00 7.641060914466693532e+01 3.900000000000000000e+02
5.888286790259794401e+00 7.512889819626822430e+01 3.900000000000000000e+02
5.290610419006164911e+00 7.384718724786952748e+01 3.900000000000000000e+02
4.692934047752535420e+00 7.256547629947083067e+01 3.900000000000000000e+02
4.095257676498905042e+00 7.128376535107213385e+01 3.900000000000000000e+02
3.497581305245275995e+00 7.000205440267343704e+01 3.900000000000000000e+02
2.899904933991646949e+00 6.872034345427474022e+01 3.900000000000000000e+02
2.302228562738017459e+00 6.743863250587602920e+01 3.900000000000000000e+02
1.704552191484387969e+00 6.615692155747733239e+01 3.900000000000000000e+02
1.106875820230759366e+00 6.487521060907863557e+01 3.900000000000000000e+02
7.681315904020681984e+00 7.897403104146432895e+01 3.910000000000000000e+02
7.083639532767052494e+00 7.769232009306563214e+01 3.910000000000000000e+02
6.485963161513423891e+00 7.641060914466693532e+01 3.910000000000000000e+02
5.888286790259794401e+00 7.512889819626822430e+01 3.910000000000000000e+02
5.290610419006164911e+00 7.384718724786952748e+01 3.910000000000000000e+02
4.692934047752535420e+00 7.256547629947083067e+01 3.910000000000000000e+02
4.095257676498905042e+00 7.128376535107213385e+01 3.910000000000000000e+02
3.497581305245275995e+00 7.000205440267343704e+01 3.910000000000000000e+02
2.899904933991646949e+00 6.872034345427474022e+01 3.910000000000000000e+02
2.302228562738017459e+00 6.743863250587602920e+01 3.910000000000000000e+02
1.704552191484387969e+00 6.615692155747733239e+01 3.910000000000000000e+02
1.106875820230759366e+00 6.487521060907863557e+01 3.910000000000000000e+02
7.681315904020681984e+00 7.897403104146432895e+01 3.920000000000000000e+02
7.083639532767052494e+00 7.769232009306563214e+01 3.920000000000000000e+02
6.485963161513423891e+00 7.641060914466693532e+01 3.920000000000000000e+02
5.888286790259794401e+00 7.512889819626822430e+01 3.920000000000000000e+02
5.290610419006164911e+00 7.384718724786952748e+01 3.920000000000000000e+02
4.692934047752535420e+00 7.256547629947083067e+01 3.920000000000000000e+02
4.095257676498905042e+00 7.128376535107213385e+01 3.920000000000000000e+02
3.497581305245275995e+00 7.000205440267343704e+01 3.920000000000000000e+02
2.899904933991646949e+00 6.872034345427474022e+01 3.920000000000000000e+02
2.302228562738017459e+00 6.743863250587602920e+01 3.920000000000000000e+02
1.704552191484387969e+00 6.615692155747733239e+01 3.920000000000000000e+02
1.106875820230759366e+00 6.487521060907863557e+01 3.920000000000000000e+02
7.681315904020681984e+00 7.897403104146432895e+01 3.930000000000000000e+02
7.083639532767052494e+00 7.769232009306563214e+01 3.930000000000000000e+02
6.485963161513423891e+00 7.641060914466693532e+01 3.930000000000000000e+02
5.888286790259794401e+00 7.512889819626822430e+01 3.930000000000000000e+02
5.290610419006164911e+00 7.384718724786952748e+01 3.930000000000000000e+02
4.692934047752535420e+00 7.256547629947083067e+01 3.930000000000000000e+02
