8.003449124143115156e+00 6.754517619223969405e+01 3.330000000000000000e+02
6.721735744438040783e+00 6.694750503492574012e+01 3.330000000000000000e+02
5.440022364732965521e+00 6.634983387761180040e+01 3.330000000000000000e+02
4.158308985027890259e+00 6.575216272029784648e+01 3.330000000000000000e+02
2.876595605322815441e+00 6.515449156298390676e+01 3.330000000000000000e+02
1.594882225617740179e+00 6.455682040566995283e+01 3.330000000000000000e+02
3.131688459126653612e-01 6.395914924835600601e+01 3.330000000000000000e+02
-9.685445337924099007e-01 6.336147809104205919e+01 3.330000000000000000e+02
9.285162503848191307e+00 6.814284734955364797e+01 3.340000000000000000e+02
8.003449124143115156e+00 6.754517619223969405e+01 3.340000000000000000e+02
6.721735744438040783e+00 6.694750503492574012e+01 3.340000000000000000e+02
5.440022364732965521e+00 6.634983387761180040e+01 3.340000000000000000e+02
4.158308985027890259e+00 6.575216272029784648e+01 3.340000000000000000e+02
2.876595605322815441e+00 6.515449156298390676e+01 3.340000000000000000e+02
1.594882225617740179e+00 6.455682040566995283e+01 3.340000000000000000e+02
3.131688459126653612e-01 6.395914924835600601e+01 3.340000000000000000e+02
-9.685445337924099007e-01 6.336147809104205919e+01 3.340000000000000000e+02
8.345470235338678933e+00 6.848486846074919754e+01 3.350000000000000000e+02
7.063756855633604559e+00 6.788719730343525782e+01 3.350000000000000000e+02
5.782043475928529297e+00 6.728952614612130390e+01 3.350000000000000000e+02
4.500330096223454035e+00 6.669185498880736418e+01 3.350000000000000000e+02
3.218616716518378773e+00 6.609418383149341025e+01 3.350000000000000000e+02
1.936903336813303511e+00 6.549651267417947054e+01 3.350000000000000000e+02
6.551899571082282492e-01 6.489884151686551661e+01 3.350000000000000000e+02
-6.265234225968470128e-01 6.430117035955156268e+01 3.350000000000000000e+02
9.285162503848191307e+00 6.814284734955364797e+01 3.360000000000000000e+02
8.003449124143115156e+00 6.754517619223969405e+01 3.360000000000000000e+02
6.721735744438040783e+00 6.694750503492574012e+01 3.360000000000000000e+02
5.440022364732965521e+00 6.634983387761180040e+01 3.360000000000000000e+02
4.158308985027890259e+00 6.575216272029784648e+01 3.360000000000000000e+02
2.876595605322815441e+00 6.515449156298390676e+01 3.360000000000000000e+02
1.594882225617740179e+00 6.455682040566995283e+01 3.360000000000000000e+02
3.131688459126653612e-01 6.395914924835600601e+01 3.360000000000000000e+02
-9.685445337924099007e-01 6.336147809104205919e+01 3.360000000000000000e+02
9.285162503848191307e+00 6.814284734955364797e+01 3.370000000000000000e+02
8.003449124143115156e+00 6.754517619223969405e+01 3.370000000000000000e+02
6.721735744438040783e+00 6.694750503492574012e+01 3.370000000000000000e+02
5.440022364732965521e+00 6.634983387761180040e+01 3.370000000000000000e+02
4.158308985027890259e+00 6.575216272029784648e+01 3.370000000000000000e+02
2.876595605322815441e+00 6.515449156298390676e+01 3.370000000000000000e+02
1.594882225617740179e+00 6.455682040566995283e+01 3.370000000000000000e+02
3.131688459126653612e-01 6.395914924835600601e+01 3.370000000000000000e+02
-9.685445337924099007e-01 6.336147809104205919e+01 3.370000000000000000e+02
9.285162503848191307e+00 6.814284734955364797e+01 3.380000000000000000e+02
8.003449124143115156e+00 6.754517619223969405e+01 3.380000000000000000e+02
6.721735744438040783e+00 6.694750503492574012e+01 3.380000000000000000e+02
5.440022364732965521e+00 6.634983387761180040e+01 3.380000000000000000e+02
4.158308985027890259e+00 6.575216272029784648e+01 3.380000000000000000e+02
2.876595605322815441e+00 6.515449156298390676e+01 3.380000000000000000e+02
1.594882225617740179e+00 6.455682040566995283e+01 3.380000000000000000e+02
3.131688459126653612e-01 6.395914924835600601e+01 3.380000000000000000e+02
-9.685445337924099007e-01 6.336147809104205919e+01 3.380000000000000000e+02
8.345470235338678933e+00 6.848486846074919754e+01 3.390000000000000000e+02
7.063756855633604559e+00 6.788719730343525782e+01 3.390000000000000000e+02
5.782043475928529297e+00 6.728952614612130390e+01 3.390000000000000000e+02
4.500330096223454035e+00 6.669185498880736418e+01 3.390000000000000000e+02
3.218616716518378773e+00 6.609418383149341025e+01 3.390000000000000000e+02
1.936903336813303511e+00 6.549651267417947054e+01 3.390000000000000000e+02
6.551899571082282492e-01 6.489884151686551661e+01 3.390000000000000000e+02
-6.265234225968470128e-01 6.430117035955156268e+01 3.390000000000000000e+02
8.345470235338678933e+00 6.848486846074919754e+01 3.400000000000000000e+02
7.063756855633604559e+00 6.788719730343525782e+01 3.400000000000000000e+02
5.782043475928529297e+00 6.728952614612130390e+01 3.400000000000000000e+02
4.500330096223454035e+00 6.669185498880736418e+01 3.400000000000000000e+02
3.218616716518378773e+00 6.609418383149341025e+01 3.400000000000000000e+02
1.936903336813303511e+00 6.549651267417947054e+01 3.400000000000000000e+02
6.551899571082282492e-01 6.489884151686551661e+01 3.400000000000000000e+02
8.345470235338678933e+00 6.848486846074919754e+01 3.410000000000000000e+02
7.063756855633604559e+00 6.788719730343525782e+01 3.410000000000000000e+02
5.782043475928529297e+00 6.728952614612130390e+01 3.410000000000000000e+02
4.500330096223454035e+00 6.669185498880736418e+01 3.410000000000000000e+02
3.218616716518378773e+00 6.609418383149341025e+01 3.410000000000000000e+02
1.936903336813303511e+00 6.549651267417947054e+01 3.410000000000000000e+02
6.551899571082282492e-01 6.489884151686551661e+01 3.410000000000000000e+02
8.345470235338678933e+00 6.848486846074919754e+01 3.420000000000000000e+02
7.063756855633604559e+00 6.788719730343525782e+01 3.420000000000000000e+02
5.782043475928529297e+00 6.728952614612130390e+01 3.420000000000000000e+02
4.500330096223454035e+00 6.669185498880736418e+01 3.420000000000000000e+02
3.218616716518378773e+00 6.609418383149341025e+01 3.420000000000000000e+02
1.936903336813303511e+00 6.549651267417947054e+01 3.420000000000000000e+02
6.551899571082282492e-01 6.489884151686551661e+01 3.420000000000000000e+02
8.345470235338678933e+00 6.848486846074919754e+01 3.430000000000000000e+02
7.063756855633604559e+00 6.788719730343525782e+01 3.430000000000000000e+02
5.782043475928529297e+00 6.728952614612130390e+01 3.430000000000000000e+02
4.500330096223454035e+00 6.669185498880736418e+01 3.430000000000000000e+02
3.218616716518378773e+00 6.609418383149341025e+01 3.430000000000000000e+02
1.936903336813303511e+00 6.549651267417947054e+01 3.430000000000000000e+02
6.551899571082282492e-01 6.489884151686551661e+01 3.430000000000000000e+02
8.345470235338678933e+00 6.848486846074919754e+01 3.440000000000000000e+02
7.063756855633604559e+00 6.788719730343525782e+01 3.440000000000000000e+02
5.782043475928529297e+00 6.728952614612130390e+01 3.440000000000000000e+02
4.500330096223454035e+00 6.669185498880736418e+01 3.440000000000000000e+02
3.218616716518378773e+00 6.609418383149341025e+01 3.440000000000000000e+02
1.936903336813303511e+00 6.549651267417947054e+01 3.440000000000000000e+02
6.551899571082282492e-01 6.489884151686551661e+01 3.440000000000000000e+02
8.345470235338678933e+00 6.848486846074919754e+01 3.450000000000000000e+02
7.063756855633604559e+00 6.788719730343525782e+01 3.450000000000000000e+02
5.782043475928529297e+00 6.728952614612130390e+01 3.450000000000000000e+02
4.500330096223454035e+00 6.669185498880736418e+01 3.450000000000000000e+02
3.218616716518378773e+00 6.609418383149341025e+01 3.450000000000000000e+02
1.936903336813303511e+00 6.549651267417947054e+01 3.450000000000000000e+02
6.551899571082282492e-01 6.489884151686551661e+01 3.450000000000000000e+02
8.345470235338678933e+00 6.848486846074919754e+01 3.460000000000000000e+02
7.063756855633604559e+00 6.788719730343525782e+01 3.460000000000000000e+02
5.782043475928529297e+00 6.728952614612130390e+01 3.460000000000000000e+02
4.500330096223454035e+00 6.669185498880736418e+01 3.460000000000000000e+02
3.218616716518378773e+00 6.609418383149341025e+01 3.460000000000000000e+02
1.936903336813303511e+00 6.549651267417947054e+01 3.460000000000000000e+02
6.551899571082282492e-01 6.489884151686551661e+01 3.460000000000000000e+02
9.285162503848191307e+00 6.814284734955364797e+01 3.470000000000000000e+02
8.003449124143115156e+00 6.754517619223969405e+01 3.470000000000000000e+02
6.721735744438040783e+00 6.694750503492574012e+01 3.470000000000000000e+02
5.440022364732965521e+00 6.634983387761180040e+01 3.470000000000000000e+02
4.158308985027890259e+00 6.575216272029784648e+01 3.470000000000000000e+02
2.876595605322815441e+00 6.515449156298390676e+01 3.470000000000000000e+02
1.594882225617740179e+00 6.455682040566995283e+01 3.470000000000000000e+02
3.131688459126653612e-01 6.395914924835600601e+01 3.470000000000000000e+02
-9.685445337924099007e-01 6.336147809104205919e+01 3.470000000000000000e+02
9.285162503848191307e+00 6.814284734955364797e+01 3.480000000000000000e+02
8.003449124143115156e+00 6.754517619223969405e+01 3.480000000000000000e+02
6.721735744438040783e+00 6.694750503492574012e+01 3.480000000000000000e+02
5.440022364732965521e+00 6.634983387761180040e+01 3.480000000000000000e+02
4.158308985027890259e+00 6.575216272029784648e+01 3.480000000000000000e+02
2.876595605322815441e+00 6.515449156298390676e+01 3.480000000000000000e+02
1.594882225617740179e+00 6.455682040566995283e+01 3.480000000000000000e+02
3.131688459126653612e-01 6.395914924835600601e+01 3.480000000000000000e+02
-9.685445337924099007e-01 6.336147809104205919e+01 3.480000000000000000e+02
9.285162503848191307e+00 6.814284734955364797e+01 3.490000000000000000e+02
8.003449124143115156e+00 6.754517619223969405e+01 3.490000000000000000e+02
6.721735744438040783e+00 6.694750503492574012e+01 3.490000000000000000e+02
5.440022364732965521e+00 6.634983387761180040e+01 3.490000000000000000e+02
4.158308985027890259e+00 6.575216272029784648e+01 3.490000000000000000e+02
2.876595605322815441e+00 6.515449156298390676e+01 3.490000000000000000e+02
1.594882225617740179e+00 6.455682040566995283e+01 3.490000000000000000e+02
3.131688459126653612e-01 6.395914924835600601e+01 3.490000000000000000e+02
-9.685445337924099007e-01 6.336147809104205919e+01 3.490000000000000000e+02
9.285162503848191307e+00 6.814284734955364797e+01 3.500000000000000000e+02
8.003449124143115156e+00 6.754517619223969405e+01 3.500000000000000000e+02
6.721735744438040783e+00 6.694750503492574012e+01 3.500000000000000000e+02
5.440022364732965521e+00 6.634983387761180040e+01 3.500000000000000000e+02
4.158308985027890259e+00 6.575216272029784648e+01 3.500000000000000000e+02
2.876595605322815441e+00 6.515449156298390676e+01 3.500000000000000000e+02
1.594882225617740179e+00 6.455682040566995283e+01 3.500000000000000000e+02
3.131688459126653612e-01 6.395914924835600601e+01 3.500000000000000000e+02
9.285162503848191307e+00 6.814284734955364797e+01 3.510000000000000000e+02
8.003449124143115156e+00 6.754517619223969405e+01 3.510000000000000000e+02
6.721735744438040783e+00 6.694750503492574012e+01 3.510000000000000000e+02
5.440022364732965521e+00 6.634983387761180040e+01 3.510000000000000000e+02
4.158308985027890259e+00 6.575216272029784648e+01 3.510000000000000000e+02
2.876595605322815441e+00 6.515449156298390676e+01 3.510000000000000000e+02
1.594882225617740179e+00 6.455682040566995283e+01 3.510000000000000000e+02
3.131688459126653612e-01 6.395914924835600601e+01 3.510000000000000000e+02
9.285162503848191307e+00 6.814284734955364797e+01 3.520000000000000000e+02
8.003449124143115156e+00 6.754517619223969405e+01 3.520000000000000000e+02
6.721735744438040783e+00 6.694750503492574012e+01 3.520000000000000000e+02
5.440022364732965521e+00 6.634983387761180040e+01 3.520000000000000000e+02
4.158308985027890259e+00 6.575216272029784648e+01 3.520000000000000000e+02
2.876595605322815441e+00 6.515449156298390676e+01 3.520000000000000000e+02
1.594882225617740179e+00 6.455682040566995283e+01 3.520000000000000000e+02
3.131688459126653612e-01 6.395914924835600601e+01 3.520000000000000000e+02
-9.685445337924099007e-01 6.336147809104205919e+01 3.520000000000000000e+02
9.285162503848191307e+00 6.814284734955364797e+01 3.530000000000000000e+02
8.003449124143115156e+00 6.754517619223969405e+01 3.530000000000000000e+02
6.721735744438040783e+00 6.694750503492574012e+01 3.530000000000000000e+02
5.440022364732965521e+00 6.634983387761180040e+01 3.530000000000000000e+02
4.158308985027890259e+00 6.575216272029784648e+01 3.530000000000000000e+02
2.876595605322815441e+00 6.515449156298390676e+01 3.530000000000000000e+02
1.594882225617740179e+00 6.455682040566995283e+01 3.530000000000000000e+02
3.131688459126653612e-01 6.395914924835600601e+01 3.530000000000000000e+02
-9.685445337924099007e-01 6.336147809104205919e+01 3.530000000000000000e+02
9.285162503848191307e+00 6.814284734955364797e+01 3.540000000000000000e+02
8.003449124143115156e+00 6.754517619223969405e+01 3.540000000000000000e+02
6.721735744438040783e+00 6.694750503492574012e+01 3.540000000000000000e+02
5.440022364732965521e+00 6.634983387761180040e+01 3.540000000000000000e+02
4.158308985027890259e+00 6.575216272029784648e+01 3.540000000000000000e+02
2.876595605322815441e+00 6.515449156298390676e+01 3.540000000000000000e+02
1.594882225617740179e+00 6.455682040566995283e+01 3.540000000000000000e+02
3.131688459126653612e-01 6.395914924835600601e+01 3.540000000000000000e+02
-9.685445337924099007e-01 6.336147809104205919e+01 3.540000000000000000e+02
9.285162503848191307e+00 6.814284734955364797e+01 3.550000000000000000e+02
8.003449124143115156e+00 6.754517619223969405e+01 3.550000000000000000e+02
6.721735744438040783e+00 6.694750503492574012e+01 3.550000000000000000e+02
5.440022364732965521e+00 6.634983387761180040e+01 3.550000000000000000e+02
4.158308985027890259e+00 6.575216272029784648e+01 3.550000000000000000e+02
2.876595605322815441e+00 6.515449156298390676e+01 3.550000000000000000e+02
1.594882225617740179e+00 6.455682040566995283e+01 3.550000000000000000e+02
3.131688459126653612e-01 6.395914924835600601e+01 3.550000000000000000e+02
-9.685445337924099007e-01 6.336147809104205919e+01 3.550000000000000000e+02
9.285162503848191307e+00 6.814284734955364797e+01 3.560000000000000000e+02
8.003449124143115156e+00 6.754517619223969405e+01 3.560000000000000000e+02
6.721735744438040783e+00 6.694750503492574012e+01 3.560000000000000000e+02
5.440022364732965521e+00 6.634983387761180040e+01 3.560000000000000000e+02
4.158308985027890259e+00 6.575216272029784648e+01 3.560000000000000000e+02
2.876595605322815441e+00 6.515449156298390676e+01 3.560000000000000000e+02
1.594882225617740179e+00 6.455682040566995283e+01 3.560000000000000000e+02
3.131688459126653612e-01 6.395914924835600601e+01 3.560000000000000000e+02
-9.685445337924099007e-01 6.336147809104205919e+01 3.560000000000000000e+02
9.285162503848191307e+00 6.814284734955364797e+01 3.570000000000000000e+02
8.003449124143115156e+00 6.754517619223969405e+01 3.570000000000000000e+02
6.721735744438040783e+00 6.694750503492574012e+01 3.570000000000000000e+02
5.440022364732965521e+00 6.634983387761180040e+01 3.570000000000000000e+02
4.158308985027890259e+00 6.575216272029784648e+01 3.570000000000000000e+02
2.876595605322815441e+00 6.515449156298390676e+01 3.570000000000000000e+02
1.594882225617740179e+00 6.455682040566995283e+01 3.570000000000000000e+02
3.131688459126653612e-01 6.395914924835600601e+01 3.570000000000000000e+02
9.285162503848191307e+00 6.814284734955364797e+01 3.580000000000000000e+02
8.003449124143115156e+00 6.754517619223969405e+01 3.580000000000000000e+02
6.721735744438040783e+00 6.694750503492574012e+01 3.580000000000000000e+02
5.440022364732965521e+00 6.634983387761180040e+01 3.580000000000000000e+02
4.158308985027890259e+00 6.575216272029784648e+01 3.580000000000000000e+02
2.876595605322815441e+00 6.515449156298390676e+01 3.580000000000000000e+02
1.594882225617740179e+00 6.455682040566995283e+01 3.580000000000000000e+02
3.131688459126653612e-01 6.395914924835600601e+01 3.580000000000000000e+02
9.285162503848191307e+00 6.814284734955364797e+01 3.590000000000000000e+02
8.003449124143115156e+00 6.754517619223969405e+01 3.590000000000000000e+02
6.721735744438040783e+00 6.694750503492574012e+01 3.590000000000000000e+02
5.440022364732965521e+00 6.634983387761180040e+01 3.590000000000000000e+02
4.158308985027890259e+00 6.575216272029784648e+01 3.590000000000000000e+02
2.876595605322815441e+00 6.515449156298390676e+01 3.590000000000000000e+02
1.594882225617740179e+00 6.455682040566995283e+01 3.590000000000000000e+02
3.131688459126653612e-01 6.395914924835600601e+01 3.590000000000000000e+02
9.285162503848191307e+00 6.814284734955364797e+01 3.600000000000000000e+02
8.003449124143115156e+00 6.754517619223969405e+01 3.600000000000000000e+02
6.721735744438040783e+00 6.694750503492574012e+01 3.600000000000000000e+02
5.440022364732965521e+00 6.634983387761180040e+01 3.600000000000000000e+02
4.158308985027890259e+00 6.575216272029784648e+01 3.600000000000000000e+02
2.876595605322815441e+00 6.515449156298390676e+01 3.600000000000000000e+02
1.594882225617740179e+00 6.455682040566995283e+01 3.600000000000000000e+02
3.131688459126653612e-01 6.395914924835600601e+01 3.600000000000000000e+02
-9.685445337924099007e-01 6.336147809104205919e+01 3.600000000000000000e+02
9.285162503848191307e+00 6.814284734955364797e+01 3.610000000000000000e+02
8.003449124143115156e+00 6.754517619223969405e+01 3.610000000000000000e+02
6.721735744438040783e+00 6.694750503492574012e+01 3.610000000000000000e+02
5.440022364732965521e+00 6.634983387761180040e+01 3.610000000000000000e+02
4.158308985027890259e+00 6.575216272029784648e+01 3.610000000000000000e+02
2.876595605322815441e+00 6.515449156298390676e+01 3.610000000000000000e+02
1.594882225617740179e+00 6.455682040566995283e+01 3.610000000000000000e+02
3.131688459126653612e-01 6.395914924835600601e+01 3.610000000000000000e+02
-9.685445337924099007e-01 6.336147809104205919e+01 3.610000000000000000e+02
9.285162503848191307e+00 6.814284734955364797e+01 3.620000000000000000e+02
8.003449124143115156e+00 6.754517619223969405e+01 3.620000000000000000e+02
6.721735744438040783e+00 6.694750503492574012e+01 3.620000000000000000e+02
5.440022364732965521e+00 6.634983387761180040e+01 3.620000000000000000e+02
4.158308985027890259e+00 6.575216272029784648e+01 3.620000000000000000e+02
2.876595605322815441e+00 6.515449156298390676e+01 3.620000000000000000e+02
1.594882225617740179e+00 6.455682040566995283e+01 3.620000000000000000e+02
3.131688459126653612e-01 6.395914924835600601e+01 3.620000000000000000e+02
8.345470235338678933e+00 6.848486846074919754e+01 3.630000000000000000e+02
7.063756855633604559e+00 6.788719730343525782e+01 3.630000000000000000e+02
5.782043475928529297e+00 6.728952614612130390e+01 3.630000000000000000e+02
4.500330096223454035e+00 6.669185498880736418e+01 3.630000000000000000e+02
3.218616716518378773e+00 6.609418383149341025e+01 3.630000000000000000e+02
1.936903336813303511e+00 6.549651267417947054e+01 3.630000000000000000e+02
6.551899571082282492e-01 6.489884151686551661e+01 3.630000000000000000e+02
9.285162503848191307e+00 6.814284734955364797e+01 3.640000000000000000e+02
8.003449124143115156e+00 6.754517619223969405e+01 3.640000000000000000e+02
6.721735744438040783e+00 6.694750503492574012e+01 3.640000000000000000e+02
5.440022364732965521e+00 6.634983387761180040e+01 3.640000000000000000e+02
4.158308985027890259e+00 6.575216272029784648e+01 3.640000000000000000e+02
2.876595605322815441e+00 6.515449156298390676e+01 3.640000000000000000e+02
1.594882225617740179e+00 6.455682040566995283e+01 3.640000000000000000e+02
3.131688459126653612e-01 6.395914924835600601e+01 3.640000000000000000e+02
-9.685445337924099007e-01 6.336147809104205919e+01 3.640000000000000000e+02
9.285162503848191307e+00 6.814284734955364797e+01 3.650000000000000000e+02
8.003449124143115156e+00 6.754517619223969405e+01 3.650000000000000000e+02
6.721735744438040783e+00 6.694750503492574012e+01 3.650000000000000000e+02
5.440022364732965521e+00 6.634983387761180040e+01 3.650000000000000000e+02
4.158308985027890259e+00 6.575216272029784648e+01 3.650000000000000000e+02
2.876595605322815441e+00 6.515449156298390676e+01 3.650000000000000000e+02
1.594882225617740179e+00 6.455682040566995283e+01 3.650000000000000000e+02
3.131688459126653612e-01 6.395914924835600601e+01 3.650000000000000000e+02
-9.685445337924099007e-01 6.336147809104205919e+01 3.650000000000000000e+02
9.285162503848191307e+00 6.814284734955364797e+01 3.660000000000000000e+02
8.003449124143115156e+00 6.754517619223969405e+01 3.660000000000000000e+02
6.721735744438040783e+00 6.694750503492574012e+01 3.660000000000000000e+02
5.440022364732965521e+00 6.634983387761180040e+01 3.660000000000000000e+02
4.158308985027890259e+00 6.575216272029784648e+01 3.660000000000000000e+02
2.876595605322815441e+00 6.515449156298390676e+01 3.660000000000000000e+02
1.594882225617740179e+00 6.455682040566995283e+01 3.660000000000000000e+02
3.131688459126653612e-01 6.395914924835600601e+01 3.660000000000000000e+02
9.285162503848191307e+00 6.814284734955364797e+01 3.670000000000000000e+02
8.003449124143115156e+00 6.754517619223969405e+01 3.670000000000000000e+02
6.721735744438040783e+00 6.694750503492574012e+01 3.670000000000000000e+02
5.440022364732965521e+00 6.634983387761180040e+01 3.670000000000000000e+02
4.158308985027890259e+00 6.575216272029784648e+01 3.670000000000000000e+02
2.876595605322815441e+00 6.515449156298390676e+01 3.670000000000000000e+02
1.594882225617740179e+00 6.455682040566995283e+01 3.670000000000000000e+02
3.131688459126653612e-01 6.395914924835600601e+01 3.670000000000000000e+02
9.285162503848191307e+00 6.814284734955364797e+01 3.680000000000000000e+02
8.003449124143115156e+00 6.754517619223969405e+01 3.680000000000000000e+02
6.721735744438040783e+00 6.694750503492574012e+01 3.680000000000000000e+02
5.440022364732965521e+00 6.634983387761180040e+01 3.680000000000000000e+02
4.158308985027890259e+00 6.575216272029784648e+01 3.680000000000000000e+02
2.876595605322815441e+00 6.515449156298390676e+01 3.680000000000000000e+02
1.594882225617740179e+00 6.455682040566995283e+01 3.680000000000000000e+02
3.131688459126653612e-01 6.395914924835600601e+01 3.680000000000000000e+02
9.285162503848191307e+00 6.814284734955364797e+01 3.690000000000000000e+02
8.003449124143115156e+00 6.754517619223969405e+01 3.690000000000000000e+02
6.721735744438040783e+00 6.694750503492574012e+01 3.690000000000000000e+02
5.440022364732965521e+00 6.634983387761180040e+01 3.690000000000000000e+02
4.158308985027890259e+00 6.575216272029784648e+01 3.690000000000000000e+02
2.876595605322815441e+00 6.515449156298390676e+01 3.690000000000000000e+02
1.594882225617740179e+00 6.455682040566995283e+01 3.690000000000000000e+02
3.131688459126653612e-01 6.395914924835600601e+01 3.690000000000000000e+02
9.285162503848191307e+00 6.814284734955364797e+01 3.700000000000000000e+02
8.003449124143115156e+00 6.754517619223969405e+01 3.700000000000000000e+02
6.721735744438040783e+00 6.694750503492574012e+01 3.700000000000000000e+02
5.440022364732965521e+00 6.634983387761180040e+01 3.700000000000000000e+02
4.158308985027890259e+00 6.575216272029784648e+01 3.700000000000000000e+02
2.876595605322815441e+00 6.515449156298390676e+01 3.700000000000000000e+02
1.594882225617740179e+00 6.455682040566995283e+01 3.700000000000000000e+02
3.131688459126653612e-01 6.395914924835600601e+01 3.700000000000000000e+02
9.285162503848191307e+00 6.814284734955364797e+01 3.710000000000000000e+02
8.003449124143115156e+00 6.754517619223969405e+01 3.710000000000000000e+02
6.721735744438040783e+00 6.694750503492574012e+01 3.710000000000000000e+02
5.440022364732965521e+00 6.634983387761180040e+01 3.710000000000000000e+02
4.158308985027890259e+00 6.575216272029784648e+01 3.710000000000000000e+02
2.876595605322815441e+00 6.515449156298390676e+01 3.710000000000000000e+02
1.594882225617740179e+00 6.455682040566995283e+01 3.710000000000000000e+02
3.131688459126653612e-01 6.395914924835600601e+01 3.710000000000000000e+02
9.285162503848191307e+00 6.814284734955364797e+01 3.720000000000000000e+02
8.003449124143115156e+00 6.754517619223969405e+01 3.720000000000000000e+02
6.721735744438040783e+00 6.694750503492574012e+01 3.720000000000000000e+02
5.440022364732965521e+00 6.634983387761180040e+01 3.720000000000000000e+02
4.158308985027890259e+00 6.575216272029784648e+01 3.720000000000000000e+02
2.876595605322815441e+00 6.515449156298390676e+01 3.720000000000000000e+02
1.594882225617740179e+00 6.455682040566995283e+01 3.720000000000000000e+02
3.131688459126653612e-01 6.395914924835600601e+01 3.720000000000000000e+02
9.285162503848191307e+00 6.814284734955364797e+01 3.730000000000000000e+02
8.003449124143115156e+00 6.754517619223969405e+01 3.730000000000000000e+02
6.721735744438040783e+00 6.694750503492574012e+01 3.730000000000000000e+02
5.440022364732965521e+00 6.634983387761180040e+01 3.730000000000000000e+02
4.158308985027890259e+00 6.575216272029784648e+01 3.730000000000000000e+02
2.876595605322815441e+00 6.515449156298390676e+01 3.730000000000000000e+02
1.594882225617740179e+00 6.455682040566995283e+01 3.730000000000000000e+02
3.131688459126653612e-01 6.395914924835600601e+01 3.730000000000000000e+02
9.285162503848191307e+00 6.814284734955364797e+01 3.740000000000000000e+02
8.003449124143115156e+00 6.754517619223969405e+01 3.740000000000000000e+02
6.721735744438040783e+00 6.694750503492574012e+01 3.740000000000000000e+02
5.440022364732965521e+00 6.634983387761180040e+01 3.740000000000000000e+02
4.158308985027890259e+00 6.575216272029784648e+01 3.740000000000000000e+02
2.876595605322815441e+00 6.515449156298390676e+01 3.740000000000000000e+02
1.594882225617740179e+00 6.455682040566995283e+01 3.740000000000000000e+02
3.131688459126653612e-01 6.395914924835600601e+01 3.740000000000000000e+02
9.285162503848191307e+00 6.814284734955364797e+01 3.750000000000000000e+02
8.003449124143115156e+00 6.754517619223969405e+01 3.750000000000000000e+02
6.721735744438040783e+00 6.694750503492574012e+01 3.750000000000000000e+02
5.440022364732965521e+00 6.634983387761180040e+01 3.750000000000000000e+02
4.158308985027890259e+00 6.575216272029784648e+01 3.750000000000000000e+02
2.876595605322815441e+00 6.515449156298390676e+01 3.750000000000000000e+02
1.594882225617740179e+00 6.455682040566995283e+01 3.750000000000000000e+02
3.131688459126653612e-01 6.395914924835600601e+01 3.750000000000000000e+02
9.285162503848191307e+00 6.814284734955364797e+01 3.760000000000000000e+02
8.003449124143115156e+00 6.754517619223969405e+01 3.760000000000000000e+02
6.721735744438040783e+00 6.694750503492574012e+01 3.760000000000000000e+02
5.440022364732965521e+00 6.634983387761180040e+01 3.760000000000000000e+02
4.158308985027890259e+00 6.575216272029784648e+01 3.760000000000000000e+02
2.876595605322815441e+00 6.515449156298390676e+01 3.760000000000000000e+02
1.594882225617740179e+00 6.455682040566995283e+01 3.760000000000000000e+02
3.131688459126653612e-01 6.395914924835600601e+01 3.760000000000000000e+02
9.285162503848191307e+00 6.814284734955364797e+01 3.770000000000000000e+02
8.003449124143115156e+00 6.754517619223969405e+01 3.770000000000000000e+02
6.721735744438040783e+00 6.694750503492574012e+01 3.770000000000000000e+02
5.440022364732965521e+00 6.634983387761180040e+01 3.770000000000000000e+02
4.158308985027890259e+00 6.575216272029784648e+01 3.770000000000000000e+02
2.876595605322815441e+00 6.515449156298390676e+01 3.770000000000000000e+02
1.594882225617740179e+00 6.455682040566995283e+01 3.770000000000000000e+02
3.131688459126653612e-01 6.395914924835600601e+01 3.770000000000000000e+02
9.285162503848191307e+00 6.814284734955364797e+01 3.780000000000000000e+02
8.003449124143115156e+00 6.754517619223969405e+01 3.780000000000000000e+02
6.721735744438040783e+00 6.694750503492574012e+01 3.780000000000000000e+02
5.440022364732965521e+00 6.634983387761180040e+01 3.780000000000000000e+02
4.158308985027890259e+00 6.575216272029784648e+01 3.780000000000000000e+02
2.876595605322815441e+00 6.515449156298390676e+01 3.780000000000000000e+02
1.594882225617740179e+00 6.455682040566995283e+01 3.780000000000000000e+02
3.131688459126653612e-01 6.395914924835600601e+01 3.780000000000000000e+02
9.285162503848191307e+00 6.814284734955364797e+01 3.790000000000000000e+02
8.003449124143115156e+00 6.754517619223969405e+01 3.790000000000000000e+02
6.721735744438040783e+00 6.694750503492574012e+01 3.790000000000000000e+02
5.440022364732965521e+00 6.634983387761180040e+01 3.790000000000000000e+02
4.158308985027890259e+00 6.575216272029784648e+01 3.790000000000000000e+02
2.876595605322815441e+00 6.515449156298390676e+01 3.790000000000000000e+02
1.594882225617740179e+00 6.455682040566995283e+01 3.790000000000000000e+02
3.131688459126653612e-01 6.395914924835600601e+01 3.790000000000000000e+02
9.285162503848191307e+00 6.814284734955364797e+01 3.800000000000000000e+02
8.003449124143115156e+00 6.754517619223969405e+01 3.800000000000000000e+02
6.721735744438040783e+00 6.694750503492574012e+01 3.800000000000000000e+02
5.440022364732965521e+00 6.634983387761180040e+01 3.800000000000000000e+02
4.158308985027890259e+00 6.575216272029784648e+01 3.800000000000000000e+02
2.876595605322815441e+00 6.515449156298390676e+01 3.800000000000000000e+02
1.594882225617740179e+00 6.455682040566995283e+01 3.800000000000000000e+02
3.131688459126653612e-01 6.395914924835600601e+01 3.800000000000000000e+02
9.285162503848191307e+00 6.814284734955364797e+01 3.810000000000000000e+02
8.003449124143115156e+00 6.754517619223969405e+01 3.810000000000000000e+02
6.721735744438040783e+00 6.694750503492574012e+01 3.810000000000000000e+02
5.440022364732965521e+00 6.634983387761180040e+01 3.810000000000000000e+02
4.158308985027890259e+00 6.575216272029784648e+01 3.810000000000000000e+02
2.876595605322815441e+00 6.515449156298390676e+01 3.810000000000000000e+02
1.594882225617740179e+00 6.455682040566995283e+01 3.810000000000000000e+02
3.131688459126653612e-01 6.395914924835600601e+01 3.810000000000000000e+02
9.285162503848191307e+00 6.814284734955364797e+01 3.820000000000000000e+02
8.003449124143115156e+00 6.754517619223969405e+01 3.820000000000000000e+02
6.721735744438040783e+00 6.694750503492574012e+01 3.820000000000000000e+02
5.440022364732965521e+00 6.634983387761180040e+01 3.820000000000000000e+02
4.158308985027890259e+00 6.575216272029784648e+01 3.820000000000000000e+02
2.876595605322815441e+00 6.515449156298390676e+01 3.820000000000000000e+02
1.594882225617740179e+00 6.455682040566995283e+01 3.820000000000000000e+02
3.131688459126653612e-01 6.395914924835600601e+01 3.820000000000000000e+02
9.285162503848191307e+00 6.814284734955364797e+01 3.830000000000000000e+02
8.003449124143115156e+00 6.754517619223969405e+01 3.830000000000000000e+02
6.721735744438040783e+00 6.694750503492574012e+01 3.830000000000000000e+02
5.440022364732965521e+00 6.634983387761180040e+01 3.830000000000000000e+02
4.158308985027890259e+00 6.575216272029784648e+01 3.830000000000000000e+02
2.876595605322815441e+00 6.515449156298390676e+01 3.830000000000000000e+02
1.594882225617740179e+00 6.455682040566995283e+01 3.830000000000000000e+02
3.131688459126653612e-01 6.395914924835600601e+01 3.830000000000000000e+02
9.285162503848191307e+00 6.814284734955364797e+01 3.840000000000000000e+02
8.003449124143115156e+00 6.754517619223969405e+01 3.840000000000000000e+02
6.721735744438040783e+00 6.694750503492574012e+01 3.840000000000000000e+02
5.440022364732965521e+00 6.634983387761180040e+01 3.840000000000000000e+02
4.158308985027890259e+00 6.575216272029784648e+01 3.840000000000000000e+02
2.876595605322815441e+00 6.515449156298390676e+01 3.840000000000000000e+02
1.594882225617740179e+00 6.455682040566995283e+01 3.840000000000000000e+02
3.131688459126653612e-01 6.395914924835600601e+01 3.840000000000000000e+02
9.285162503848191307e+00 6.814284734955364797e+01 3.850000000000000000e+02
8.003449124143115156e+00 6.754517619223969405e+01 3.850000000000000000e+02
6.721735744438040783e+00 6.694750503492574012e+01 3.850000000000000000e+02
5.440022364732965521e+00 6.634983387761180040e+01 3.850000000000000000e+02
4.158308985027890259e+00 6.575216272029784648e+01 3.850000000000000000e+02
2.876595605322815441e+00 6.515449156298390676e+01 3.850000000000000000e+02
1.594882225617740179e+00 6.455682040566995283e+01 3.850000000000000000e+02
3.131688459126653612e-01 6.395914924835600601e+01 3.850000000000000000e+02
8.345470235338678933e+00 6.848486846074919754e+01 3.860000000000000000e+02
7.063756855633604559e+00 6.788719730343525782e+01 3.860000000000000000e+02
5.782043475928529297e+00 6.728952614612130390e+01 3.860000000000000000e+02
4.500330096223454035e+00 6.669185498880736418e+01 3.860000000000000000e+02
3.218616716518378773e+00 6.609418383149341025e+01 3.860000000000000000e+02
1.936903336813303511e+00 6.549651267417947054e+01 3.860000000000000000e+02
6.551899571082282492e-01 6.489884151686551661e+01 3.860000000000000000e+02
8.345470235338678933e+00 6.848486846074919754e+01 3.870000000000000000e+02
7.063756855633604559e+00 6.788719730343525782e+01 3.870000000000000000e+02
5.782043475928529297e+00 6.728952614612130390e+01 3.870000000000000000e+02
4.500330096223454035e+00 6.669185498880736418e+01 3.870000000000000000e+02
3.218616716518378773e+00 6.609418383149341025e+01 3.870000000000000000e+02
1.936903336813303511e+00 6.549651267417947054e+01 3.870000000000000000e+02
6.551899571082282492e-01 6.489884151686551661e+01 3.870000000000000000e+02
9.285162503848191307e+00 6.814284734955364797e+01 3.880000000000000000e+02
8.003449124143115156e+00 6.754517619223969405e+01 3.880000000000000000e+02
6.721735744438040783e+00 6.694750503492574012e+01 3.880000000000000000e+02
5.440022364732965521e+00 6.634983387761180040e+01 3.880000000000000000e+02
4.158308985027890259e+00 6.575216272029784648e+01 3.880000000000000000e+02
2.876595605322815441e+00 6.515449156298390676e+01 3.880000000000000000e+02
1.594882225617740179e+00 6.455682040566995283e+01 3.880000000000000000e+02
3.131688459126653612e-01 6.395914924835600601e+01 3.880000000000000000e+02
9.285162503848191307e+00 6.814284734955364797e+01 3.890000000000000000e+02
8.003449124143115156e+00 6.754517619223969405e+01 3.890000000000000000e+02
6.721735744438040783e+00 6.694750503492574012e+01 3.890000000000000000e+02
5.440022364732965521e+00 6.634983387761180040e+01 3.890000000000000000e+02
4.158308985027890259e+00 6.575216272029784648e+01 3.890000000000000000e+02
2.876595605322815441e+00 6.515449156298390676e+01 3.890000000000000000e+02
1.594882225617740179e+00 6.455682040566995283e+01 3.890000000000000000e+02
3.131688459126653612e-01 6.395914924835600601e+01 3.890000000000000000e+02
9.285162503848191307e+00 6.814284734955364797e+01 3.900000000000000000e+02
8.003449124143115156e+00 6.754517619223969405e+01 3.900000000000000000e+02
6.721735744438040783e+00 6.694750503492574012e+01 3.900000000000000000e+02
5.440022364732965521e+00 6.634983387761180040e+01 3.900000000000000000e+02
4.158308985027890259e+00 6.575216272029784648e+01 3.900000000000000000e+02
2.876595605322815441e+00 6.515449156298390676e+01 3.900000000000000000e+02
1.594882225617740179e+00 6.455682040566995283e+01 3.900000000000000000e+02
3.131688459126653612e-01 6.395914924835600601e+01 3.900000000000000000e+02
9.285162503848191307e+00 6.814284734955364797e+01 3.910000000000000000e+02
8.003449124143115156e+00 6.754517619223969405e+01 3.910000000000000000e+02
6.721735744438040783e+00 6.694750503492574012e+01 3.910000000000000000e+02
5.440022364732965521e+00 6.634983387761180040e+01 3.910000000000000000e+02
4.158308985027890259e+00 6.575216272029784648e+01 3.910000000000000000e+02
2.876595605322815441e+00 6.515449156298390676e+01 3.910000000000000000e+02
1.594882225617740179e+00 6.455682040566995283e+01 3.910000000000000000e+02
3.131688459126653612e-01 6.395914924835600601e+01 3.910000000000000000e+02
9.285162503848191307e+00 6.814284734955364797e+01 3.920000000000000000e+02
8.003449124143115156e+00 6.754517619223969405e+01 3.920000000000000000e+02
6.721735744438040783e+00 6.694750503492574012e+01 3.920000000000000000e+02
5.440022364732965521e+00 6.634983387761180040e+01 3.920000000000000000e+02
4.158308985027890259e+00 6.575216272029784648e+01 3.920000000000000000e+02
2.876595605322815441e+00 6.515449156298390676e+01 3.920000000000000000e+02
1.594882225617740179e+00 6.455682040566995283e+01 3.920000000000000000e+02
3.131688459126653612e-01 6.395914924835600601e+01 3.920000000000000000e+02
9.285162503848191307e+00 6.814284734955364797e+01 3.930000000000000000e+02
8.003449124143115156e+00 6.754517619223969405e+01 3.930000000000000000e+02
6.721735744438040783e+00 6.694750503492574012e+01 3.930000000000000000e+02
5.440022364732965521e+00 6.634983387761180040e+01 3.930000000000000000e+02
4.158308985027890259e+00 6.575216272029784648e+01 3.930000000000000000e+02
2.876595605322815441e+00 6.515449156298390676e+01 3.930000000000000000e+02
1.594882225617740179e+00 6.455682040566995283e+01 3.930000000000000000e+02
3.131688459126653612e-01 6.395914924835600601e+01 3.930000000000000000e+02
9.285162503848191307e+00 6.814284734955364797e+01 3.940000000000000000e+02
8.003449124143115156e+00 6.754517619223969405e+01 3.940000000000000000e+02
6.721735744438040783e+00 6.694750503492574012e+01 3.940000000000000000e+02
5.440022364732965521e+00 6.634983387761180040e+01 3.940000000000000000e+02
4.158308985027890259e+00 6.575216272029784648e+01 3.940000000000000000e+02
2.876595605322815441e+00 6.515449156298390676e+01 3.940000000000000000e+02
1.594882225617740179e+00 6.455682040566995283e+01 3.940000000000000000e+02
3.131688459126653612e-01 6.395914924835600601e+01 3.940000000000000000e+02
9.285162503848191307e+00 6.814284734955364797e+01 3.950000000000000000e+02
8.003449124143115156e+00 6.754517619223969405e+01 3.950000000000000000e+02
6.721735744438040783e+00 6.694750503492574012e+01 3.950000000000000000e+02
5.440022364732965521e+00 6.634983387761180040e+01 3.950000000000000000e+02
4.158308985027890259e+00 6.575216272029784648e+01 3.950000000000000000e+02
2.876595605322815441e+00 6.515449156298390676e+01 3.950000000000000000e+02
1.594882225617740179e+00 6.455682040566995283e+01 3.950000000000000000e+02
3.131688459126653612e-01 6.395914924835600601e+01 3.950000000000000000e+02
9.285162503848191307e+00 6.814284734955364797e+01 3.960000000000000000e+02
8.003449124143115156e+00 6.754517619223969405e+01 3.960000000000000000e+02
6.721735744438040783e+00 6.694750503492574012e+01 3.960000000000000000e+02
5.440022364732965521e+00 6.634983387761180040e+01 3.960000000000000000e+02
4.158308985027890259e+00 6.575216272029784648e+01 3.960000000000000000e+02
2.876595605322815441e+00 6.515449156298390676e+01 3.960000000000000000e+02
1.594882225617740179e+00 6.455682040566995283e+01 3.960000000000000000e+02
3.131688459126653612e-01 6.395914924835600601e+01 3.960000000000000000e+02
9.285162503848191307e+00 6.814284734955364797e+01 3.970000000000000000e+02
8.003449124143115156e+00 6.754517619223969405e+01 3.970000000000000000e+02
6.721735744438040783e+00 6.694750503492574012e+01 3.970000000000000000e+02
5.440022364732965521e+00 6.634983387761180040e+01 3.970000000000000000e+02
4.158308985027890259e+00 6.575216272029784648e+01 3.970000000000000000e+02
2.876595605322815441e+00 6.515449156298390676e+01 3.970000000000000000e+02
1.594882225617740179e+00 6.455682040566995283e+01 3.970000000000000000e+02
3.131688459126653612e-01 6.395914924835600601e+01 3.970000000000000000e+02
9.285162503848191307e+00 6.814284734955364797e+01 3.980000000000000000e+02
8.003449124143115156e+00 6.754517619223969405e+01 3.980000000000000000e+02
6.721735744438040783e+00 6.694750503492574012e+01 3.980000000000000000e+02
5.440022364732965521e+00 6.634983387761180040e+01 3.980000000000000000e+02
4.158308985027890259e+00 6.575216272029784648e+01 3.980000000000000000e+02
2.876595605322815441e+00 6.515449156298390676e+01 3.980000000000000000e+02
1.594882225617740179e+00 6.455682040566995283e+01 3.980000000000000000e+02
3.131688459126653612e-01 6.395914924835600601e+01 3.980000000000000000e+02
9.285162503848191307e+00 6.814284734955364797e+01 3.990000000000000000e+02
8.003449124143115156e+00 6.754517619223969405e+01 3.990000000000000000e+02
6.721735744438040783e+00 6.694750503492574012e+01 3.990000000000000000e+02
5.440022364732965521e+00 6.634983387761180040e+01 3.990000000000000000e+02
4.158308985027890259e+00 6.575216272029784648e+01 3.990000000000000000e+02
2.876595605322815441e+00 6.515449156298390676e+01 3.990000000000000000e+02
1.594882225617740179e+00 6.455682040566995283e+01 3.990000000000000000e+02
3.131688459126653612e-01 6.395914924835600601e+01 3.990000000000000000e+02
9.285162503848191307e+00 6.814284734955364797e+01 4.000000000000000000e+02
8.003449124143115156e+00 6.754517619223969405e+01 4.000000000000000000e+02
6.721735744438040783e+00 6.694750503492574012e+01 4.000000000000000000e+02
5.440022364732965521e+00 6.634983387761180040e+01 4.000000000000000000e+02
4.158308985027890259e+00 6.575216272029784648e+01 4.000000000000000000e+02
2.876595605322815441e+00 6.515449156298390676e+01 4.000000000000000000e+02
1.594882225617740179e+00 6.455682040566995283e+01 4.000000000000000000e+02
3.131688459126653612e-01 6.395914924835600601e+01 4.000000000000000000e+02
9.285162503848191307e+00 6.814284734955364797e+01 4.010000000000000000e+02
8.003449124143115156e+00 6.754517619223969405e+01 4.010000000000000000e+02
6.721735744438040783e+00 6.694750503492574012e+01 4.010000000000000000e+02
5.440022364732965521e+00 6.634983387761180040e+01 4.010000000000000000e+02
4.158308985027890259e+00 6.575216272029784648e+01 4.010000000000000000e+02
2.876595605322815441e+00 6.515449156298390676e+01 4.010000000000000000e+02
1.594882225617740179e+00 6.455682040566995283e+01 4.010000000000000000e+02
3.131688459126653612e-01 6.395914924835600601e+01 4.010000000000000000e+02
8.345470235338678933e+00 6.848486846074919754e+01 4.020000000000000000e+02
7.063756855633604559e+00 6.788719730343525782e+01 4.020000000000000000e+02
5.782043475928529297e+00 6.728952614612130390e+01 4.020000000000000000e+02
4.500330096223454035e+00 6.669185498880736418e+01 4.020000000000000000e+02
3.218616716518378773e+00 6.609418383149341025e+01 4.020000000000000000e+02
1.936903336813303511e+00 6.549651267417947054e+01 4.020000000000000000e+02
6.551899571082282492e-01 6.489884151686551661e+01 4.020000000000000000e+02
8.345470235338678933e+00 6.848486846074919754e+01 4.030000000000000000e+02
7.063756855633604559e+00 6.788719730343525782e+01 4.030000000000000000e+02
5.782043475928529297e+00 6.728952614612130390e+01 4.030000000000000000e+02
4.500330096223454035e+00 6.669185498880736418e+01 4.030000000000000000e+02
3.218616716518378773e+00 6.609418383149341025e+01 4.030000000000000000e+02
1.936903336813303511e+00 6.549651267417947054e+01 4.030000000000000000e+02
6.551899571082282492e-01 6.489884151686551661e+01 4.030000000000000000e+02
9.285162503848191307e+00 6.814284734955364797e+01 4.040000000000000000e+02
8.003449124143115156e+00 6.754517619223969405e+01 4.040000000000000000e+02
6.721735744438040783e+00 6.694750503492574012e+01 4.040000000000000000e+02
5.440022364732965521e+00 6.634983387761180040e+01 4.040000000000000000e+02
4.158308985027890259e+00 6.575216272029784648e+01 4.040000000000000000e+02
2.876595605322815441e+00 6.515449156298390676e+01 4.040000000000000000e+02
1.594882225617740179e+00 6.455682040566995283e+01 4.040000000000000000e+02
3.131688459126653612e-01 6.395914924835600601e+01 4.040000000000000000e+02
9.285162503848191307e+00 6.814284734955364797e+01 4.050000000000000000e+02
8.003449124143115156e+00 6.754517619223969405e+01 4.050000000000000000e+02
6.721735744438040783e+00 6.694750503492574012e+01 4.050000000000000000e+02
5.440022364732965521e+00 6.634983387761180040e+01 4.050000000000000000e+02
4.158308985027890259e+00 6.575216272029784648e+01 4.050000000000000000e+02
2.876595605322815441e+00 6.515449156298390676e+01 4.050000000000000000e+02
1.594882225617740179e+00 6.455682040566995283e+01 4.050000000000000000e+02
3.131688459126653612e-01 6.395914924835600601e+01 4.050000000000000000e+02
9.285162503848191307e+00 6.814284734955364797e+01 4.060000000000000000e+02
8.003449124143115156e+00 6.754517619223969405e+01 4.060000000000000000e+02
6.721735744438040783e+00 6.694750503492574012e+01 4.060000000000000000e+02
5.440022364732965521e+00 6.634983387761180040e+01 4.060000000000000000e+02
4.158308985027890259e+00 6.575216272029784648e+01 4.060000000000000000e+02
2.876595605322815441e+00 6.515449156298390676e+01 4.060000000000000000e+02
1.594882225617740179e+00 6.455682040566995283e+01 4.060000000000000000e+02
3.131688459126653612e-01 6.395914924835600601e+01 4.060000000000000000e+02
9.285162503848191307e+00 6.814284734955364797e+01 4.070000000000000000e+02
8.003449124143115156e+00 6.754517619223969405e+01 4.070000000000000000e+02
6.721735744438040783e+00 6.694750503492574012e+01 4.070000000000000000e+02
5.440022364732965521e+00 6.634983387761180040e+01 4.070000000000000000e+02
4.158308985027890259e+00 6.575216272029784648e+01 4.070000000000000000e+02
2.876595605322815441e+00 6.515449156298390676e+01 4.070000000000000000e+02
1.594882225617740179e+00 6.455682040566995283e+01 4.070000000000000000e+02
3.131688459126653612e-01 6.395914924835600601e+01 4.070000000000000000e+02
9.285162503848191307e+00 6.814284734955364797e+01 4.080000000000000000e+02
8.003449124143115156e+00 6.754517619223969405e+01 4.080000000000000000e+02
6.721735744438040783e+00 6.694750503492574012e+01 4.080000000000000000e+02
5.440022364732965521e+00 6.634983387761180040e+01 4.080000000000000000e+02
4.158308985027890259e+00 6.575216272029784648e+01 4.080000000000000000e+02
2.876595605322815441e+00 6.515449156298390676e+01 4.080000000000000000e+02
1.594882225617740179e+00 6.455682040566995283e+01 4.080000000000000000e+02
3.131688459126653612e-01 6.395914924835600601e+01 4.080000000000000000e+02
9.285162503848191307e+00 6.814284734955364797e+01 4.090000000000000000e+02
8.003449124143115156e+00 6.754517619223969405e+01 4.090000000000000000e+02
6.721735744438040783e+00 6.694750503492574012e+01 4.090000000000000000e+02
5.440022364732965521e+00 6.634983387761180040e+01 4.090000000000000000e+02
4.158308985027890259e+00 6.575216272029784648e+01 4.090000000000000000e+02
2.876595605322815441e+00 6.515449156298390676e+01 4.090000000000000000e+02
1.594882225617740179e+00 6.455682040566995283e+01 4.090000000000000000e+02
3.131688459126653612e-01 6.395914924835600601e+01 4.090000000000000000e+02
9.285162503848191307e+00 6.814284734955364797e+01 4.100000000000000000e+02
8.003449124143115156e+00 6.754517619223969405e+01 4.100000000000000000e+02
6.721735744438040783e+00 6.694750503492574012e+01 4.100000000000000000e+02
5.440022364732965521e+00 6.634983387761180040e+01 4.100000000000000000e+02
4.158308985027890259e+00 6.575216272029784648e+01 4.100000000000000000e+02
2.876595605322815441e+00 6.515449156298390676e+01 4.100000000000000000e+02
1.594882225617740179e+00 6.455682040566995283e+01 4.100000000000000000e+02
3.131688459126653612e-01 6.395914924835600601e+01 4.100000000000000000e+02
9.285162503848191307e+00 6.814284734955364797e+01 4.110000000000000000e+02
8.003449124143115156e+00 6.754517619223969405e+01 4.110000000000000000e+02
6.721735744438040783e+00 6.694750503492574012e+01 4.110000000000000000e+02
5.440022364732965521e+00 6.634983387761180040e+01 4.110000000000000000e+02
4.158308985027890259e+00 6.575216272029784648e+01 4.110000000000000000e+02
2.876595605322815441e+00 6.515449156298390676e+01 4.110000000000000000e+02
1.594882225617740179e+00 6.455682040566995283e+01 4.110000000000000000e+02
3.131688459126653612e-01 6.395914924835600601e+01 4.110000000000000000e+02
9.285162503848191307e+00 6.814284734955364797e+01 4.120000000000000000e+02
8.003449124143115156e+00 6.754517619223969405e+01 4.120000000000000000e+02
6.721735744438040783e+00 6.694750503492574012e+01 4.120000000000000000e+02
