3.420256564482125228e+00 6.788762384851837339e+01 3.560000000000000000e+02
4.798224520831627871e+00 6.820575009904474939e+01 3.560000000000000000e+02
6.176192477181129625e+00 6.852387634957113960e+01 3.560000000000000000e+02
7.554160433530631380e+00 6.884200260009752981e+01 3.560000000000000000e+02
8.932128389880134023e+00 6.916012885062390581e+01 3.560000000000000000e+02
1.031009634622963489e+01 6.947825510115029601e+01 3.560000000000000000e+02
1.168806430257913931e+01 6.979638135167668622e+01 3.560000000000000000e+02
1.343997988715628367e-01 6.640332424402765810e+01 3.570000000000000000e+02
1.512367755221064591e+00 6.672145049455403409e+01 3.570000000000000000e+02
2.890335711570567234e+00 6.703957674508042430e+01 3.570000000000000000e+02
4.268303667920068989e+00 6.735770299560681451e+01 3.570000000000000000e+02
5.646271624269571632e+00 6.767582924613319051e+01 3.570000000000000000e+02
7.024239580619073386e+00 6.799395549665958072e+01 3.570000000000000000e+02
8.402207536968575141e+00 6.831208174718597093e+01 3.570000000000000000e+02
9.780175493318077784e+00 6.863020799771234692e+01 3.570000000000000000e+02
1.115814344966758043e+01 6.894833424823873713e+01 3.570000000000000000e+02
-7.136473045663809245e-01 6.693324509693921698e+01 3.580000000000000000e+02
6.643206517831208302e-01 6.725137134746559298e+01 3.580000000000000000e+02
2.042288608132623473e+00 6.756949759799198318e+01 3.580000000000000000e+02
3.420256564482125228e+00 6.788762384851837339e+01 3.580000000000000000e+02
4.798224520831627871e+00 6.820575009904474939e+01 3.580000000000000000e+02
6.176192477181129625e+00 6.852387634957113960e+01 3.580000000000000000e+02
7.554160433530631380e+00 6.884200260009752981e+01 3.580000000000000000e+02
8.932128389880134023e+00 6.916012885062390581e+01 3.580000000000000000e+02
1.031009634622963489e+01 6.947825510115029601e+01 3.580000000000000000e+02
1.168806430257913931e+01 6.979638135167668622e+01 3.580000000000000000e+02
1.343997988715628367e-01 6.640332424402765810e+01 3.590000000000000000e+02
1.512367755221064591e+00 6.672145049455403409e+01 3.590000000000000000e+02
2.890335711570567234e+00 6.703957674508042430e+01 3.590000000000000000e+02
4.268303667920068989e+00 6.735770299560681451e+01 3.590000000000000000e+02
5.646271624269571632e+00 6.767582924613319051e+01 3.590000000000000000e+02
7.024239580619073386e+00 6.799395549665958072e+01 3.590000000000000000e+02
8.402207536968575141e+00 6.831208174718597093e+01 3.590000000000000000e+02
9.780175493318077784e+00 6.863020799771234692e+01 3.590000000000000000e+02
1.115814344966758043e+01 6.894833424823873713e+01 3.590000000000000000e+02
-7.136473045663809245e-01 6.693324509693921698e+01 3.600000000000000000e+02
6.643206517831208302e-01 6.725137134746559298e+01 3.600000000000000000e+02
2.042288608132623473e+00 6.756949759799198318e+01 3.600000000000000000e+02
3.420256564482125228e+00 6.788762384851837339e+01 3.600000000000000000e+02
4.798224520831627871e+00 6.820575009904474939e+01 3.600000000000000000e+02
6.176192477181129625e+00 6.852387634957113960e+01 3.600000000000000000e+02
7.554160433530631380e+00 6.884200260009752981e+01 3.600000000000000000e+02
8.932128389880134023e+00 6.916012885062390581e+01 3.600000000000000000e+02
1.031009634622963489e+01 6.947825510115029601e+01 3.600000000000000000e+02
1.168806430257913931e+01 6.979638135167668622e+01 3.600000000000000000e+02
-7.136473045663809245e-01 6.693324509693921698e+01 3.610000000000000000e+02
6.643206517831208302e-01 6.725137134746559298e+01 3.610000000000000000e+02
2.042288608132623473e+00 6.756949759799198318e+01 3.610000000000000000e+02
3.420256564482125228e+00 6.788762384851837339e+01 3.610000000000000000e+02
4.798224520831627871e+00 6.820575009904474939e+01 3.610000000000000000e+02
6.176192477181129625e+00 6.852387634957113960e+01 3.610000000000000000e+02
7.554160433530631380e+00 6.884200260009752981e+01 3.610000000000000000e+02
8.932128389880134023e+00 6.916012885062390581e+01 3.610000000000000000e+02
1.031009634622963489e+01 6.947825510115029601e+01 3.610000000000000000e+02
1.168806430257913931e+01 6.979638135167668622e+01 3.610000000000000000e+02
1.343997988715628367e-01 6.640332424402765810e+01 3.620000000000000000e+02
1.512367755221064591e+00 6.672145049455403409e+01 3.620000000000000000e+02
2.890335711570567234e+00 6.703957674508042430e+01 3.620000000000000000e+02
4.268303667920068989e+00 6.735770299560681451e+01 3.620000000000000000e+02
5.646271624269571632e+00 6.767582924613319051e+01 3.620000000000000000e+02
7.024239580619073386e+00 6.799395549665958072e+01 3.620000000000000000e+02
8.402207536968575141e+00 6.831208174718597093e+01 3.620000000000000000e+02
9.780175493318077784e+00 6.863020799771234692e+01 3.620000000000000000e+02
1.115814344966758043e+01 6.894833424823873713e+01 3.620000000000000000e+02
1.343997988715628367e-01 6.640332424402765810e+01 3.630000000000000000e+02
1.512367755221064591e+00 6.672145049455403409e+01 3.630000000000000000e+02
2.890335711570567234e+00 6.703957674508042430e+01 3.630000000000000000e+02
4.268303667920068989e+00 6.735770299560681451e+01 3.630000000000000000e+02
5.646271624269571632e+00 6.767582924613319051e+01 3.630000000000000000e+02
7.024239580619073386e+00 6.799395549665958072e+01 3.630000000000000000e+02
8.402207536968575141e+00 6.831208174718597093e+01 3.630000000000000000e+02
9.780175493318077784e+00 6.863020799771234692e+01 3.630000000000000000e+02
1.115814344966758043e+01 6.894833424823873713e+01 3.630000000000000000e+02
1.343997988715628367e-01 6.640332424402765810e+01 3.640000000000000000e+02
1.512367755221064591e+00 6.672145049455403409e+01 3.640000000000000000e+02
2.890335711570567234e+00 6.703957674508042430e+01 3.640000000000000000e+02
4.268303667920068989e+00 6.735770299560681451e+01 3.640000000000000000e+02
5.646271624269571632e+00 6.767582924613319051e+01 3.640000000000000000e+02
7.024239580619073386e+00 6.799395549665958072e+01 3.640000000000000000e+02
8.402207536968575141e+00 6.831208174718597093e+01 3.640000000000000000e+02
9.780175493318077784e+00 6.863020799771234692e+01 3.640000000000000000e+02
1.115814344966758043e+01 6.894833424823873713e+01 3.640000000000000000e+02
1.343997988715628367e-01 6.640332424402765810e+01 3.650000000000000000e+02
1.512367755221064591e+00 6.672145049455403409e+01 3.650000000000000000e+02
2.890335711570567234e+00 6.703957674508042430e+01 3.650000000000000000e+02
4.268303667920068989e+00 6.735770299560681451e+01 3.650000000000000000e+02
5.646271624269571632e+00 6.767582924613319051e+01 3.650000000000000000e+02
7.024239580619073386e+00 6.799395549665958072e+01 3.650000000000000000e+02
8.402207536968575141e+00 6.831208174718597093e+01 3.650000000000000000e+02
9.780175493318077784e+00 6.863020799771234692e+01 3.650000000000000000e+02
1.115814344966758043e+01 6.894833424823873713e+01 3.650000000000000000e+02
1.343997988715628367e-01 6.640332424402765810e+01 3.660000000000000000e+02
1.512367755221064591e+00 6.672145049455403409e+01 3.660000000000000000e+02
2.890335711570567234e+00 6.703957674508042430e+01 3.660000000000000000e+02
4.268303667920068989e+00 6.735770299560681451e+01 3.660000000000000000e+02
5.646271624269571632e+00 6.767582924613319051e+01 3.660000000000000000e+02
7.024239580619073386e+00 6.799395549665958072e+01 3.660000000000000000e+02
8.402207536968575141e+00 6.831208174718597093e+01 3.660000000000000000e+02
9.780175493318077784e+00 6.863020799771234692e+01 3.660000000000000000e+02
1.115814344966758043e+01 6.894833424823873713e+01 3.660000000000000000e+02
-7.136473045663809245e-01 6.693324509693921698e+01 3.670000000000000000e+02
6.643206517831208302e-01 6.725137134746559298e+01 3.670000000000000000e+02
2.042288608132623473e+00 6.756949759799198318e+01 3.670000000000000000e+02
3.420256564482125228e+00 6.788762384851837339e+01 3.670000000000000000e+02
4.798224520831627871e+00 6.820575009904474939e+01 3.670000000000000000e+02
6.176192477181129625e+00 6.852387634957113960e+01 3.670000000000000000e+02
7.554160433530631380e+00 6.884200260009752981e+01 3.670000000000000000e+02
8.932128389880134023e+00 6.916012885062390581e+01 3.670000000000000000e+02
1.031009634622963489e+01 6.947825510115029601e+01 3.670000000000000000e+02
1.168806430257913931e+01 6.979638135167668622e+01 3.670000000000000000e+02
-7.136473045663809245e-01 6.693324509693921698e+01 3.680000000000000000e+02
6.643206517831208302e-01 6.725137134746559298e+01 3.680000000000000000e+02
2.042288608132623473e+00 6.756949759799198318e+01 3.680000000000000000e+02
3.420256564482125228e+00 6.788762384851837339e+01 3.680000000000000000e+02
4.798224520831627871e+00 6.820575009904474939e+01 3.680000000000000000e+02
6.176192477181129625e+00 6.852387634957113960e+01 3.680000000000000000e+02
7.554160433530631380e+00 6.884200260009752981e+01 3.680000000000000000e+02
8.932128389880134023e+00 6.916012885062390581e+01 3.680000000000000000e+02
1.031009634622963489e+01 6.947825510115029601e+01 3.680000000000000000e+02
1.168806430257913931e+01 6.979638135167668622e+01 3.680000000000000000e+02
-7.136473045663809245e-01 6.693324509693921698e+01 3.690000000000000000e+02
6.643206517831208302e-01 6.725137134746559298e+01 3.690000000000000000e+02
2.042288608132623473e+00 6.756949759799198318e+01 3.690000000000000000e+02
3.420256564482125228e+00 6.788762384851837339e+01 3.690000000000000000e+02
4.798224520831627871e+00 6.820575009904474939e+01 3.690000000000000000e+02
6.176192477181129625e+00 6.852387634957113960e+01 3.690000000000000000e+02
7.554160433530631380e+00 6.884200260009752981e+01 3.690000000000000000e+02
8.932128389880134023e+00 6.916012885062390581e+01 3.690000000000000000e+02
1.031009634622963489e+01 6.947825510115029601e+01 3.690000000000000000e+02
1.168806430257913931e+01 6.979638135167668622e+01 3.690000000000000000e+02
-7.136473045663809245e-01 6.693324509693921698e+01 3.700000000000000000e+02
6.643206517831208302e-01 6.725137134746559298e+01 3.700000000000000000e+02
2.042288608132623473e+00 6.756949759799198318e+01 3.700000000000000000e+02
3.420256564482125228e+00 6.788762384851837339e+01 3.700000000000000000e+02
4.798224520831627871e+00 6.820575009904474939e+01 3.700000000000000000e+02
6.176192477181129625e+00 6.852387634957113960e+01 3.700000000000000000e+02
7.554160433530631380e+00 6.884200260009752981e+01 3.700000000000000000e+02
8.932128389880134023e+00 6.916012885062390581e+01 3.700000000000000000e+02
1.031009634622963489e+01 6.947825510115029601e+01 3.700000000000000000e+02
1.168806430257913931e+01 6.979638135167668622e+01 3.700000000000000000e+02
1.343997988715628367e-01 6.640332424402765810e+01 3.710000000000000000e+02
1.512367755221064591e+00 6.672145049455403409e+01 3.710000000000000000e+02
2.890335711570567234e+00 6.703957674508042430e+01 3.710000000000000000e+02
4.268303667920068989e+00 6.735770299560681451e+01 3.710000000000000000e+02
5.646271624269571632e+00 6.767582924613319051e+01 3.710000000000000000e+02
7.024239580619073386e+00 6.799395549665958072e+01 3.710000000000000000e+02
8.402207536968575141e+00 6.831208174718597093e+01 3.710000000000000000e+02
9.780175493318077784e+00 6.863020799771234692e+01 3.710000000000000000e+02
1.115814344966758043e+01 6.894833424823873713e+01 3.710000000000000000e+02
1.343997988715628367e-01 6.640332424402765810e+01 3.720000000000000000e+02
1.512367755221064591e+00 6.672145049455403409e+01 3.720000000000000000e+02
2.890335711570567234e+00 6.703957674508042430e+01 3.720000000000000000e+02
4.268303667920068989e+00 6.735770299560681451e+01 3.720000000000000000e+02
5.646271624269571632e+00 6.767582924613319051e+01 3.720000000000000000e+02
7.024239580619073386e+00 6.799395549665958072e+01 3.720000000000000000e+02
8.402207536968575141e+00 6.831208174718597093e+01 3.720000000000000000e+02
9.780175493318077784e+00 6.863020799771234692e+01 3.720000000000000000e+02
1.115814344966758043e+01 6.894833424823873713e+01 3.720000000000000000e+02
1.343997988715628367e-01 6.640332424402765810e+01 3.730000000000000000e+02
1.512367755221064591e+00 6.672145049455403409e+01 3.730000000000000000e+02
2.890335711570567234e+00 6.703957674508042430e+01 3.730000000000000000e+02
4.268303667920068989e+00 6.735770299560681451e+01 3.730000000000000000e+02
5.646271624269571632e+00 6.767582924613319051e+01 3.730000000000000000e+02
7.024239580619073386e+00 6.799395549665958072e+01 3.730000000000000000e+02
8.402207536968575141e+00 6.831208174718597093e+01 3.730000000000000000e+02
9.780175493318077784e+00 6.863020799771234692e+01 3.730000000000000000e+02
1.115814344966758043e+01 6.894833424823873713e+01 3.730000000000000000e+02
1.343997988715628367e-01 6.640332424402765810e+01 3.740000000000000000e+02
1.512367755221064591e+00 6.672145049455403409e+01 3.740000000000000000e+02
2.890335711570567234e+00 6.703957674508042430e+01 3.740000000000000000e+02
4.268303667920068989e+00 6.735770299560681451e+01 3.740000000000000000e+02
5.646271624269571632e+00 6.767582924613319051e+01 3.740000000000000000e+02
7.024239580619073386e+00 6.799395549665958072e+01 3.740000000000000000e+02
8.402207536968575141e+00 6.831208174718597093e+01 3.740000000000000000e+02
9.780175493318077784e+00 6.863020799771234692e+01 3.740000000000000000e+02
1.115814344966758043e+01 6.894833424823873713e+01 3.740000000000000000e+02
1.343997988715628367e-01 6.640332424402765810e+01 3.750000000000000000e+02
1.512367755221064591e+00 6.672145049455403409e+01 3.750000000000000000e+02
2.890335711570567234e+00 6.703957674508042430e+01 3.750000000000000000e+02
4.268303667920068989e+00 6.735770299560681451e+01 3.750000000000000000e+02
5.646271624269571632e+00 6.767582924613319051e+01 3.750000000000000000e+02
7.024239580619073386e+00 6.799395549665958072e+01 3.750000000000000000e+02
8.402207536968575141e+00 6.831208174718597093e+01 3.750000000000000000e+02
9.780175493318077784e+00 6.863020799771234692e+01 3.750000000000000000e+02
1.115814344966758043e+01 6.894833424823873713e+01 3.750000000000000000e+02
1.343997988715628367e-01 6.640332424402765810e+01 3.760000000000000000e+02
1.512367755221064591e+00 6.672145049455403409e+01 3.760000000000000000e+02
2.890335711570567234e+00 6.703957674508042430e+01 3.760000000000000000e+02
4.268303667920068989e+00 6.735770299560681451e+01 3.760000000000000000e+02
5.646271624269571632e+00 6.767582924613319051e+01 3.760000000000000000e+02
7.024239580619073386e+00 6.799395549665958072e+01 3.760000000000000000e+02
8.402207536968575141e+00 6.831208174718597093e+01 3.760000000000000000e+02
9.780175493318077784e+00 6.863020799771234692e+01 3.760000000000000000e+02
1.115814344966758043e+01 6.894833424823873713e+01 3.760000000000000000e+02
1.343997988715628367e-01 6.640332424402765810e+01 3.770000000000000000e+02
1.512367755221064591e+00 6.672145049455403409e+01 3.770000000000000000e+02
2.890335711570567234e+00 6.703957674508042430e+01 3.770000000000000000e+02
4.268303667920068989e+00 6.735770299560681451e+01 3.770000000000000000e+02
5.646271624269571632e+00 6.767582924613319051e+01 3.770000000000000000e+02
7.024239580619073386e+00 6.799395549665958072e+01 3.770000000000000000e+02
8.402207536968575141e+00 6.831208174718597093e+01 3.770000000000000000e+02
9.780175493318077784e+00 6.863020799771234692e+01 3.770000000000000000e+02
1.115814344966758043e+01 6.894833424823873713e+01 3.770000000000000000e+02
1.343997988715628367e-01 6.640332424402765810e+01 3.780000000000000000e+02
1.512367755221064591e+00 6.672145049455403409e+01 3.780000000000000000e+02
2.890335711570567234e+00 6.703957674508042430e+01 3.780000000000000000e+02
4.268303667920068989e+00 6.735770299560681451e+01 3.780000000000000000e+02
5.646271624269571632e+00 6.767582924613319051e+01 3.780000000000000000e+02
7.024239580619073386e+00 6.799395549665958072e+01 3.780000000000000000e+02
8.402207536968575141e+00 6.831208174718597093e+01 3.780000000000000000e+02
9.780175493318077784e+00 6.863020799771234692e+01 3.780000000000000000e+02
1.115814344966758043e+01 6.894833424823873713e+01 3.780000000000000000e+02
1.343997988715628367e-01 6.640332424402765810e+01 3.790000000000000000e+02
1.512367755221064591e+00 6.672145049455403409e+01 3.790000000000000000e+02
2.890335711570567234e+00 6.703957674508042430e+01 3.790000000000000000e+02
4.268303667920068989e+00 6.735770299560681451e+01 3.790000000000000000e+02
5.646271624269571632e+00 6.767582924613319051e+01 3.790000000000000000e+02
7.024239580619073386e+00 6.799395549665958072e+01 3.790000000000000000e+02
8.402207536968575141e+00 6.831208174718597093e+01 3.790000000000000000e+02
9.780175493318077784e+00 6.863020799771234692e+01 3.790000000000000000e+02
1.115814344966758043e+01 6.894833424823873713e+01 3.790000000000000000e+02
1.343997988715628367e-01 6.640332424402765810e+01 3.800000000000000000e+02
1.512367755221064591e+00 6.672145049455403409e+01 3.800000000000000000e+02
2.890335711570567234e+00 6.703957674508042430e+01 3.800000000000000000e+02
4.268303667920068989e+00 6.735770299560681451e+01 3.800000000000000000e+02
5.646271624269571632e+00 6.767582924613319051e+01 3.800000000000000000e+02
7.024239580619073386e+00 6.799395549665958072e+01 3.800000000000000000e+02
8.402207536968575141e+00 6.831208174718597093e+01 3.800000000000000000e+02
9.780175493318077784e+00 6.863020799771234692e+01 3.800000000000000000e+02
1.115814344966758043e+01 6.894833424823873713e+01 3.800000000000000000e+02
1.343997988715628367e-01 6.640332424402765810e+01 3.810000000000000000e+02
1.512367755221064591e+00 6.672145049455403409e+01 3.810000000000000000e+02
2.890335711570567234e+00 6.703957674508042430e+01 3.810000000000000000e+02
4.268303667920068989e+00 6.735770299560681451e+01 3.810000000000000000e+02
5.646271624269571632e+00 6.767582924613319051e+01 3.810000000000000000e+02
7.024239580619073386e+00 6.799395549665958072e+01 3.810000000000000000e+02
8.402207536968575141e+00 6.831208174718597093e+01 3.810000000000000000e+02
9.780175493318077784e+00 6.863020799771234692e+01 3.810000000000000000e+02
1.115814344966758043e+01 6.894833424823873713e+01 3.810000000000000000e+02
1.343997988715628367e-01 6.640332424402765810e+01 3.820000000000000000e+02
1.512367755221064591e+00 6.672145049455403409e+01 3.820000000000000000e+02
2.890335711570567234e+00 6.703957674508042430e+01 3.820000000000000000e+02
4.268303667920068989e+00 6.735770299560681451e+01 3.820000000000000000e+02
5.646271624269571632e+00 6.767582924613319051e+01 3.820000000000000000e+02
7.024239580619073386e+00 6.799395549665958072e+01 3.820000000000000000e+02
8.402207536968575141e+00 6.831208174718597093e+01 3.820000000000000000e+02
9.780175493318077784e+00 6.863020799771234692e+01 3.820000000000000000e+02
1.115814344966758043e+01 6.894833424823873713e+01 3.820000000000000000e+02
1.343997988715628367e-01 6.640332424402765810e+01 3.830000000000000000e+02
1.512367755221064591e+00 6.672145049455403409e+01 3.830000000000000000e+02
2.890335711570567234e+00 6.703957674508042430e+01 3.830000000000000000e+02
4.268303667920068989e+00 6.735770299560681451e+01 3.830000000000000000e+02
5.646271624269571632e+00 6.767582924613319051e+01 3.830000000000000000e+02
7.024239580619073386e+00 6.799395549665958072e+01 3.830000000000000000e+02
8.402207536968575141e+00 6.831208174718597093e+01 3.830000000000000000e+02
9.780175493318077784e+00 6.863020799771234692e+01 3.830000000000000000e+02
1.115814344966758043e+01 6.894833424823873713e+01 3.830000000000000000e+02
1.343997988715628367e-01 6.640332424402765810e+01 3.840000000000000000e+02
1.512367755221064591e+00 6.672145049455403409e+01 3.840000000000000000e+02
2.890335711570567234e+00 6.703957674508042430e+01 3.840000000000000000e+02
4.268303667920068989e+00 6.735770299560681451e+01 3.840000000000000000e+02
5.646271624269571632e+00 6.767582924613319051e+01 3.840000000000000000e+02
7.024239580619073386e+00 6.799395549665958072e+01 3.840000000000000000e+02
8.402207536968575141e+00 6.831208174718597093e+01 3.840000000000000000e+02
9.780175493318077784e+00 6.863020799771234692e+01 3.840000000000000000e+02
1.115814344966758043e+01 6.894833424823873713e+01 3.840000000000000000e+02
1.343997988715628367e-01 6.640332424402765810e+01 3.850000000000000000e+02
1.512367755221064591e+00 6.672145049455403409e+01 3.850000000000000000e+02
2.890335711570567234e+00 6.703957674508042430e+01 3.850000000000000000e+02
4.268303667920068989e+00 6.735770299560681451e+01 3.850000000000000000e+02
5.646271624269571632e+00 6.767582924613319051e+01 3.850000000000000000e+02
7.024239580619073386e+00 6.799395549665958072e+01 3.850000000000000000e+02
8.402207536968575141e+00 6.831208174718597093e+01 3.850000000000000000e+02
9.780175493318077784e+00 6.863020799771234692e+01 3.850000000000000000e+02
1.343997988715628367e-01 6.640332424402765810e+01 3.860000000000000000e+02
1.512367755221064591e+00 6.672145049455403409e+01 3.860000000000000000e+02
2.890335711570567234e+00 6.703957674508042430e+01 3.860000000000000000e+02
4.268303667920068989e+00 6.735770299560681451e+01 3.860000000000000000e+02
5.646271624269571632e+00 6.767582924613319051e+01 3.860000000000000000e+02
7.024239580619073386e+00 6.799395549665958072e+01 3.860000000000000000e+02
8.402207536968575141e+00 6.831208174718597093e+01 3.860000000000000000e+02
9.780175493318077784e+00 6.863020799771234692e+01 3.860000000000000000e+02
1.343997988715628367e-01 6.640332424402765810e+01 3.870000000000000000e+02
1.512367755221064591e+00 6.672145049455403409e+01 3.870000000000000000e+02
2.890335711570567234e+00 6.703957674508042430e+01 3.870000000000000000e+02
4.268303667920068989e+00 6.735770299560681451e+01 3.870000000000000000e+02
5.646271624269571632e+00 6.767582924613319051e+01 3.870000000000000000e+02
7.024239580619073386e+00 6.799395549665958072e+01 3.870000000000000000e+02
8.402207536968575141e+00 6.831208174718597093e+01 3.870000000000000000e+02
9.780175493318077784e+00 6.863020799771234692e+01 3.870000000000000000e+02
1.115814344966758043e+01 6.894833424823873713e+01 3.870000000000000000e+02
1.343997988715628367e-01 6.640332424402765810e+01 3.880000000000000000e+02
1.512367755221064591e+00 6.672145049455403409e+01 3.880000000000000000e+02
2.890335711570567234e+00 6.703957674508042430e+01 3.880000000000000000e+02
4.268303667920068989e+00 6.735770299560681451e+01 3.880000000000000000e+02
5.646271624269571632e+00 6.767582924613319051e+01 3.880000000000000000e+02
7.024239580619073386e+00 6.799395549665958072e+01 3.880000000000000000e+02
8.402207536968575141e+00 6.831208174718597093e+01 3.880000000000000000e+02
9.780175493318077784e+00 6.863020799771234692e+01 3.880000000000000000e+02
1.115814344966758043e+01 6.894833424823873713e+01 3.880000000000000000e+02
1.343997988715628367e-01 6.640332424402765810e+01 3.890000000000000000e+02
1.512367755221064591e+00 6.672145049455403409e+01 3.890000000000000000e+02
2.890335711570567234e+00 6.703957674508042430e+01 3.890000000000000000e+02
4.268303667920068989e+00 6.735770299560681451e+01 3.890000000000000000e+02
5.646271624269571632e+00 6.767582924613319051e+01 3.890000000000000000e+02
7.024239580619073386e+00 6.799395549665958072e+01 3.890000000000000000e+02
8.402207536968575141e+00 6.831208174718597093e+01 3.890000000000000000e+02
9.780175493318077784e+00 6.863020799771234692e+01 3.890000000000000000e+02
1.115814344966758043e+01 6.894833424823873713e+01 3.890000000000000000e+02
1.343997988715628367e-01 6.640332424402765810e+01 3.900000000000000000e+02
1.512367755221064591e+00 6.672145049455403409e+01 3.900000000000000000e+02
2.890335711570567234e+00 6.703957674508042430e+01 3.900000000000000000e+02
4.268303667920068989e+00 6.735770299560681451e+01 3.900000000000000000e+02
5.646271624269571632e+00 6.767582924613319051e+01 3.900000000000000000e+02
7.024239580619073386e+00 6.799395549665958072e+01 3.900000000000000000e+02
8.402207536968575141e+00 6.831208174718597093e+01 3.900000000000000000e+02
9.780175493318077784e+00 6.863020799771234692e+01 3.900000000000000000e+02
1.115814344966758043e+01 6.894833424823873713e+01 3.900000000000000000e+02
1.343997988715628367e-01 6.640332424402765810e+01 3.910000000000000000e+02
1.512367755221064591e+00 6.672145049455403409e+01 3.910000000000000000e+02
2.890335711570567234e+00 6.703957674508042430e+01 3.910000000000000000e+02
4.268303667920068989e+00 6.735770299560681451e+01 3.910000000000000000e+02
5.646271624269571632e+00 6.767582924613319051e+01 3.910000000000000000e+02
7.024239580619073386e+00 6.799395549665958072e+01 3.910000000000000000e+02
8.402207536968575141e+00 6.831208174718597093e+01 3.910000000000000000e+02
9.780175493318077784e+00 6.863020799771234692e+01 3.910000000000000000e+02
1.115814344966758043e+01 6.894833424823873713e+01 3.910000000000000000e+02
1.343997988715628367e-01 6.640332424402765810e+01 3.920000000000000000e+02
1.512367755221064591e+00 6.672145049455403409e+01 3.920000000000000000e+02
2.890335711570567234e+00 6.703957674508042430e+01 3.920000000000000000e+02
4.268303667920068989e+00 6.735770299560681451e+01 3.920000000000000000e+02
5.646271624269571632e+00 6.767582924613319051e+01 3.920000000000000000e+02
7.024239580619073386e+00 6.799395549665958072e+01 3.920000000000000000e+02
8.402207536968575141e+00 6.831208174718597093e+01 3.920000000000000000e+02
9.780175493318077784e+00 6.863020799771234692e+01 3.920000000000000000e+02
1.115814344966758043e+01 6.894833424823873713e+01 3.920000000000000000e+02
1.343997988715628367e-01 6.640332424402765810e+01 3.930000000000000000e+02
1.512367755221064591e+00 6.672145049455403409e+01 3.930000000000000000e+02
2.890335711570567234e+00 6.703957674508042430e+01 3.930000000000000000e+02
4.268303667920068989e+00 6.735770299560681451e+01 3.930000000000000000e+02
5.646271624269571632e+00 6.767582924613319051e+01 3.930000000000000000e+02
7.024239580619073386e+00 6.799395549665958072e+01 3.930000000000000000e+02
8.402207536968575141e+00 6.831208174718597093e+01 3.930000000000000000e+02
9.780175493318077784e+00 6.863020799771234692e+01 3.930000000000000000e+02
1.115814344966758043e+01 6.894833424823873713e+01 3.930000000000000000e+02
1.343997988715628367e-01 6.640332424402765810e+01 3.940000000000000000e+02
1.512367755221064591e+00 6.672145049455403409e+01 3.940000000000000000e+02
2.890335711570567234e+00 6.703957674508042430e+01 3.940000000000000000e+02
4.268303667920068989e+00 6.735770299560681451e+01 3.940000000000000000e+02
5.646271624269571632e+00 6.767582924613319051e+01 3.940000000000000000e+02
7.024239580619073386e+00 6.799395549665958072e+01 3.940000000000000000e+02
8.402207536968575141e+00 6.831208174718597093e+01 3.940000000000000000e+02
9.780175493318077784e+00 6.863020799771234692e+01 3.940000000000000000e+02
1.115814344966758043e+01 6.894833424823873713e+01 3.940000000000000000e+02
1.343997988715628367e-01 6.640332424402765810e+01 3.950000000000000000e+02
1.512367755221064591e+00 6.672145049455403409e+01 3.950000000000000000e+02
2.890335711570567234e+00 6.703957674508042430e+01 3.950000000000000000e+02
4.268303667920068989e+00 6.735770299560681451e+01 3.950000000000000000e+02
5.646271624269571632e+00 6.767582924613319051e+01 3.950000000000000000e+02
7.024239580619073386e+00 6.799395549665958072e+01 3.950000000000000000e+02
8.402207536968575141e+00 6.831208174718597093e+01 3.950000000000000000e+02
9.780175493318077784e+00 6.863020799771234692e+01 3.950000000000000000e+02
1.115814344966758043e+01 6.894833424823873713e+01 3.950000000000000000e+02
1.343997988715628367e-01 6.640332424402765810e+01 3.960000000000000000e+02
1.512367755221064591e+00 6.672145049455403409e+01 3.960000000000000000e+02
2.890335711570567234e+00 6.703957674508042430e+01 3.960000000000000000e+02
4.268303667920068989e+00 6.735770299560681451e+01 3.960000000000000000e+02
5.646271624269571632e+00 6.767582924613319051e+01 3.960000000000000000e+02
7.024239580619073386e+00 6.799395549665958072e+01 3.960000000000000000e+02
8.402207536968575141e+00 6.831208174718597093e+01 3.960000000000000000e+02
9.780175493318077784e+00 6.863020799771234692e+01 3.960000000000000000e+02
1.115814344966758043e+01 6.894833424823873713e+01 3.960000000000000000e+02
1.343997988715628367e-01 6.640332424402765810e+01 3.970000000000000000e+02
1.512367755221064591e+00 6.672145049455403409e+01 3.970000000000000000e+02
2.890335711570567234e+00 6.703957674508042430e+01 3.970000000000000000e+02
4.268303667920068989e+00 6.735770299560681451e+01 3.970000000000000000e+02
5.646271624269571632e+00 6.767582924613319051e+01 3.970000000000000000e+02
7.024239580619073386e+00 6.799395549665958072e+01 3.970000000000000000e+02
8.402207536968575141e+00 6.831208174718597093e+01 3.970000000000000000e+02
9.780175493318077784e+00 6.863020799771234692e+01 3.970000000000000000e+02
1.115814344966758043e+01 6.894833424823873713e+01 3.970000000000000000e+02
1.343997988715628367e-01 6.640332424402765810e+01 3.980000000000000000e+02
1.512367755221064591e+00 6.672145049455403409e+01 3.980000000000000000e+02
2.890335711570567234e+00 6.703957674508042430e+01 3.980000000000000000e+02
4.268303667920068989e+00 6.735770299560681451e+01 3.980000000000000000e+02
5.646271624269571632e+00 6.767582924613319051e+01 3.980000000000000000e+02
7.024239580619073386e+00 6.799395549665958072e+01 3.980000000000000000e+02
8.402207536968575141e+00 6.831208174718597093e+01 3.980000000000000000e+02
9.780175493318077784e+00 6.863020799771234692e+01 3.980000000000000000e+02
1.115814344966758043e+01 6.894833424823873713e+01 3.980000000000000000e+02
1.253611140601708129e+01 6.926646049876512734e+01 3.980000000000000000e+02
-7.136473045663809245e-01 6.693324509693921698e+01 3.990000000000000000e+02
6.643206517831208302e-01 6.725137134746559298e+01 3.990000000000000000e+02
2.042288608132623473e+00 6.756949759799198318e+01 3.990000000000000000e+02
3.420256564482125228e+00 6.788762384851837339e+01 3.990000000000000000e+02
4.798224520831627871e+00 6.820575009904474939e+01 3.990000000000000000e+02
6.176192477181129625e+00 6.852387634957113960e+01 3.990000000000000000e+02
7.554160433530631380e+00 6.884200260009752981e+01 3.990000000000000000e+02
8.932128389880134023e+00 6.916012885062390581e+01 3.990000000000000000e+02
1.031009634622963489e+01 6.947825510115029601e+01 3.990000000000000000e+02
1.168806430257913931e+01 6.979638135167668622e+01 3.990000000000000000e+02
1.306603225892864018e+01 7.011450760220306222e+01 3.990000000000000000e+02
-7.136473045663809245e-01 6.693324509693921698e+01 4.000000000000000000e+02
6.643206517831208302e-01 6.725137134746559298e+01 4.000000000000000000e+02
2.042288608132623473e+00 6.756949759799198318e+01 4.000000000000000000e+02
3.420256564482125228e+00 6.788762384851837339e+01 4.000000000000000000e+02
4.798224520831627871e+00 6.820575009904474939e+01 4.000000000000000000e+02
6.176192477181129625e+00 6.852387634957113960e+01 4.000000000000000000e+02
7.554160433530631380e+00 6.884200260009752981e+01 4.000000000000000000e+02
8.932128389880134023e+00 6.916012885062390581e+01 4.000000000000000000e+02
1.031009634622963489e+01 6.947825510115029601e+01 4.000000000000000000e+02
1.168806430257913931e+01 6.979638135167668622e+01 4.000000000000000000e+02
1.306603225892864018e+01 7.011450760220306222e+01 4.000000000000000000e+02
-7.136473045663809245e-01 6.693324509693921698e+01 4.010000000000000000e+02
6.643206517831208302e-01 6.725137134746559298e+01 4.010000000000000000e+02
2.042288608132623473e+00 6.756949759799198318e+01 4.010000000000000000e+02
3.420256564482125228e+00 6.788762384851837339e+01 4.010000000000000000e+02
4.798224520831627871e+00 6.820575009904474939e+01 4.010000000000000000e+02
6.176192477181129625e+00 6.852387634957113960e+01 4.010000000000000000e+02
7.554160433530631380e+00 6.884200260009752981e+01 4.010000000000000000e+02
8.932128389880134023e+00 6.916012885062390581e+01 4.010000000000000000e+02
1.031009634622963489e+01 6.947825510115029601e+01 4.010000000000000000e+02
1.168806430257913931e+01 6.979638135167668622e+01 4.010000000000000000e+02
1.343997988715628367e-01 6.640332424402765810e+01 4.020000000000000000e+02
1.512367755221064591e+00 6.672145049455403409e+01 4.020000000000000000e+02
2.890335711570567234e+00 6.703957674508042430e+01 4.020000000000000000e+02
4.268303667920068989e+00 6.735770299560681451e+01 4.020000000000000000e+02
5.646271624269571632e+00 6.767582924613319051e+01 4.020000000000000000e+02
7.024239580619073386e+00 6.799395549665958072e+01 4.020000000000000000e+02
8.402207536968575141e+00 6.831208174718597093e+01 4.020000000000000000e+02
9.780175493318077784e+00 6.863020799771234692e+01 4.020000000000000000e+02
1.115814344966758043e+01 6.894833424823873713e+01 4.020000000000000000e+02
-7.136473045663809245e-01 6.693324509693921698e+01 4.030000000000000000e+02
6.643206517831208302e-01 6.725137134746559298e+01 4.030000000000000000e+02
2.042288608132623473e+00 6.756949759799198318e+01 4.030000000000000000e+02
3.420256564482125228e+00 6.788762384851837339e+01 4.030000000000000000e+02
4.798224520831627871e+00 6.820575009904474939e+01 4.030000000000000000e+02
6.176192477181129625e+00 6.852387634957113960e+01 4.030000000000000000e+02
7.554160433530631380e+00 6.884200260009752981e+01 4.030000000000000000e+02
8.932128389880134023e+00 6.916012885062390581e+01 4.030000000000000000e+02
1.031009634622963489e+01 6.947825510115029601e+01 4.030000000000000000e+02
1.168806430257913931e+01 6.979638135167668622e+01 4.030000000000000000e+02
-7.136473045663809245e-01 6.693324509693921698e+01 4.040000000000000000e+02
6.643206517831208302e-01 6.725137134746559298e+01 4.040000000000000000e+02
2.042288608132623473e+00 6.756949759799198318e+01 4.040000000000000000e+02
3.420256564482125228e+00 6.788762384851837339e+01 4.040000000000000000e+02
4.798224520831627871e+00 6.820575009904474939e+01 4.040000000000000000e+02
6.176192477181129625e+00 6.852387634957113960e+01 4.040000000000000000e+02
7.554160433530631380e+00 6.884200260009752981e+01 4.040000000000000000e+02
8.932128389880134023e+00 6.916012885062390581e+01 4.040000000000000000e+02
1.031009634622963489e+01 6.947825510115029601e+01 4.040000000000000000e+02
1.168806430257913931e+01 6.979638135167668622e+01 4.040000000000000000e+02
-7.136473045663809245e-01 6.693324509693921698e+01 4.050000000000000000e+02
6.643206517831208302e-01 6.725137134746559298e+01 4.050000000000000000e+02
2.042288608132623473e+00 6.756949759799198318e+01 4.050000000000000000e+02
3.420256564482125228e+00 6.788762384851837339e+01 4.050000000000000000e+02
4.798224520831627871e+00 6.820575009904474939e+01 4.050000000000000000e+02
6.176192477181129625e+00 6.852387634957113960e+01 4.050000000000000000e+02
7.554160433530631380e+00 6.884200260009752981e+01 4.050000000000000000e+02
8.932128389880134023e+00 6.916012885062390581e+01 4.050000000000000000e+02
1.031009634622963489e+01 6.947825510115029601e+01 4.050000000000000000e+02
1.168806430257913931e+01 6.979638135167668622e+01 4.050000000000000000e+02
-7.136473045663809245e-01 6.693324509693921698e+01 4.060000000000000000e+02
6.643206517831208302e-01 6.725137134746559298e+01 4.060000000000000000e+02
2.042288608132623473e+00 6.756949759799198318e+01 4.060000000000000000e+02
3.420256564482125228e+00 6.788762384851837339e+01 4.060000000000000000e+02
4.798224520831627871e+00 6.820575009904474939e+01 4.060000000000000000e+02
6.176192477181129625e+00 6.852387634957113960e+01 4.060000000000000000e+02
7.554160433530631380e+00 6.884200260009752981e+01 4.060000000000000000e+02
8.932128389880134023e+00 6.916012885062390581e+01 4.060000000000000000e+02
1.031009634622963489e+01 6.947825510115029601e+01 4.060000000000000000e+02
1.168806430257913931e+01 6.979638135167668622e+01 4.060000000000000000e+02
-7.136473045663809245e-01 6.693324509693921698e+01 4.070000000000000000e+02
6.643206517831208302e-01 6.725137134746559298e+01 4.070000000000000000e+02
2.042288608132623473e+00 6.756949759799198318e+01 4.070000000000000000e+02
3.420256564482125228e+00 6.788762384851837339e+01 4.070000000000000000e+02
4.798224520831627871e+00 6.820575009904474939e+01 4.070000000000000000e+02
6.176192477181129625e+00 6.852387634957113960e+01 4.070000000000000000e+02
7.554160433530631380e+00 6.884200260009752981e+01 4.070000000000000000e+02
8.932128389880134023e+00 6.916012885062390581e+01 4.070000000000000000e+02
1.031009634622963489e+01 6.947825510115029601e+01 4.070000000000000000e+02
1.168806430257913931e+01 6.979638135167668622e+01 4.070000000000000000e+02
-7.136473045663809245e-01 6.693324509693921698e+01 4.080000000000000000e+02
6.643206517831208302e-01 6.725137134746559298e+01 4.080000000000000000e+02
2.042288608132623473e+00 6.756949759799198318e+01 4.080000000000000000e+02
3.420256564482125228e+00 6.788762384851837339e+01 4.080000000000000000e+02
4.798224520831627871e+00 6.820575009904474939e+01 4.080000000000000000e+02
6.176192477181129625e+00 6.852387634957113960e+01 4.080000000000000000e+02
7.554160433530631380e+00 6.884200260009752981e+01 4.080000000000000000e+02
8.932128389880134023e+00 6.916012885062390581e+01 4.080000000000000000e+02
1.031009634622963489e+01 6.947825510115029601e+01 4.080000000000000000e+02
1.168806430257913931e+01 6.979638135167668622e+01 4.080000000000000000e+02
-7.136473045663809245e-01 6.693324509693921698e+01 4.090000000000000000e+02
6.643206517831208302e-01 6.725137134746559298e+01 4.090000000000000000e+02
2.042288608132623473e+00 6.756949759799198318e+01 4.090000000000000000e+02
3.420256564482125228e+00 6.788762384851837339e+01 4.090000000000000000e+02
4.798224520831627871e+00 6.820575009904474939e+01 4.090000000000000000e+02
6.176192477181129625e+00 6.852387634957113960e+01 4.090000000000000000e+02
7.554160433530631380e+00 6.884200260009752981e+01 4.090000000000000000e+02
8.932128389880134023e+00 6.916012885062390581e+01 4.090000000000000000e+02
1.031009634622963489e+01 6.947825510115029601e+01 4.090000000000000000e+02
1.168806430257913931e+01 6.979638135167668622e+01 4.090000000000000000e+02
1.343997988715628367e-01 6.640332424402765810e+01 4.100000000000000000e+02
1.512367755221064591e+00 6.672145049455403409e+01 4.100000000000000000e+02
2.890335711570567234e+00 6.703957674508042430e+01 4.100000000000000000e+02
4.268303667920068989e+00 6.735770299560681451e+01 4.100000000000000000e+02
5.646271624269571632e+00 6.767582924613319051e+01 4.100000000000000000e+02
7.024239580619073386e+00 6.799395549665958072e+01 4.100000000000000000e+02
8.402207536968575141e+00 6.831208174718597093e+01 4.100000000000000000e+02
9.780175493318077784e+00 6.863020799771234692e+01 4.100000000000000000e+02
1.115814344966758043e+01 6.894833424823873713e+01 4.100000000000000000e+02
1.253611140601708129e+01 6.926646049876512734e+01 4.100000000000000000e+02
1.343997988715628367e-01 6.640332424402765810e+01 4.110000000000000000e+02
1.512367755221064591e+00 6.672145049455403409e+01 4.110000000000000000e+02
2.890335711570567234e+00 6.703957674508042430e+01 4.110000000000000000e+02
4.268303667920068989e+00 6.735770299560681451e+01 4.110000000000000000e+02
5.646271624269571632e+00 6.767582924613319051e+01 4.110000000000000000e+02
7.024239580619073386e+00 6.799395549665958072e+01 4.110000000000000000e+02
8.402207536968575141e+00 6.831208174718597093e+01 4.110000000000000000e+02
9.780175493318077784e+00 6.863020799771234692e+01 4.110000000000000000e+02
1.115814344966758043e+01 6.894833424823873713e+01 4.110000000000000000e+02
1.253611140601708129e+01 6.926646049876512734e+01 4.110000000000000000e+02
1.343997988715628367e-01 6.640332424402765810e+01 4.120000000000000000e+02
1.512367755221064591e+00 6.672145049455403409e+01 4.120000000000000000e+02
2.890335711570567234e+00 6.703957674508042430e+01 4.120000000000000000e+02
4.268303667920068989e+00 6.735770299560681451e+01 4.120000000000000000e+02
5.646271624269571632e+00 6.767582924613319051e+01 4.120000000000000000e+02
7.024239580619073386e+00 6.799395549665958072e+01 4.120000000000000000e+02
8.402207536968575141e+00 6.831208174718597093e+01 4.120000000000000000e+02
9.780175493318077784e+00 6.863020799771234692e+01 4.120000000000000000e+02
1.115814344966758043e+01 6.894833424823873713e+01 4.120000000000000000e+02
1.253611140601708129e+01 6.926646049876512734e+01 4.120000000000000000e+02
1.343997988715628367e-01 6.640332424402765810e+01 4.130000000000000000e+02
1.512367755221064591e+00 6.672145049455403409e+01 4.130000000000000000e+02
2.890335711570567234e+00 6.703957674508042430e+01 4.130000000000000000e+02
4.268303667920068989e+00 6.735770299560681451e+01 4.130000000000000000e+02
5.646271624269571632e+00 6.767582924613319051e+01 4.130000000000000000e+02
7.024239580619073386e+00 6.799395549665958072e+01 4.130000000000000000e+02
8.402207536968575141e+00 6.831208174718597093e+01 4.130000000000000000e+02
9.780175493318077784e+00 6.863020799771234692e+01 4.130000000000000000e+02
1.115814344966758043e+01 6.894833424823873713e+01 4.130000000000000000e+02
1.253611140601708129e+01 6.926646049876512734e+01 4.130000000000000000e+02
1.343997988715628367e-01 6.640332424402765810e+01 4.140000000000000000e+02
1.512367755221064591e+00 6.672145049455403409e+01 4.140000000000000000e+02
2.890335711570567234e+00 6.703957674508042430e+01 4.140000000000000000e+02
4.268303667920068989e+00 6.735770299560681451e+01 4.140000000000000000e+02
5.646271624269571632e+00 6.767582924613319051e+01 4.140000000000000000e+02
7.024239580619073386e+00 6.799395549665958072e+01 4.140000000000000000e+02
8.402207536968575141e+00 6.831208174718597093e+01 4.140000000000000000e+02
9.780175493318077784e+00 6.863020799771234692e+01 4.140000000000000000e+02
1.115814344966758043e+01 6.894833424823873713e+01 4.140000000000000000e+02
1.253611140601708129e+01 6.926646049876512734e+01 4.140000000000000000e+02
1.343997988715628367e-01 6.640332424402765810e+01 4.150000000000000000e+02
1.512367755221064591e+00 6.672145049455403409e+01 4.150000000000000000e+02
2.890335711570567234e+00 6.703957674508042430e+01 4.150000000000000000e+02
4.268303667920068989e+00 6.735770299560681451e+01 4.150000000000000000e+02
5.646271624269571632e+00 6.767582924613319051e+01 4.150000000000000000e+02
7.024239580619073386e+00 6.799395549665958072e+01 4.150000000000000000e+02
8.402207536968575141e+00 6.831208174718597093e+01 4.150000000000000000e+02
9.780175493318077784e+00 6.863020799771234692e+01 4.150000000000000000e+02
1.115814344966758043e+01 6.894833424823873713e+01 4.150000000000000000e+02
1.253611140601708129e+01 6.926646049876512734e+01 4.150000000000000000e+02
1.343997988715628367e-01 6.640332424402765810e+01 4.160000000000000000e+02
1.512367755221064591e+00 6.672145049455403409e+01 4.160000000000000000e+02
2.890335711570567234e+00 6.703957674508042430e+01 4.160000000000000000e+02
4.268303667920068989e+00 6.735770299560681451e+01 4.160000000000000000e+02
5.646271624269571632e+00 6.767582924613319051e+01 4.160000000000000000e+02
7.024239580619073386e+00 6.799395549665958072e+01 4.160000000000000000e+02
8.402207536968575141e+00 6.831208174718597093e+01 4.160000000000000000e+02
9.780175493318077784e+00 6.863020799771234692e+01 4.160000000000000000e+02
1.115814344966758043e+01 6.894833424823873713e+01 4.160000000000000000e+02
1.253611140601708129e+01 6.926646049876512734e+01 4.160000000000000000e+02
1.343997988715628367e-01 6.640332424402765810e+01 4.170000000000000000e+02
1.512367755221064591e+00 6.672145049455403409e+01 4.170000000000000000e+02
2.890335711570567234e+00 6.703957674508042430e+01 4.170000000000000000e+02
4.268303667920068989e+00 6.735770299560681451e+01 4.170000000000000000e+02
5.646271624269571632e+00 6.767582924613319051e+01 4.170000000000000000e+02
7.024239580619073386e+00 6.799395549665958072e+01 4.170000000000000000e+02
8.402207536968575141e+00 6.831208174718597093e+01 4.170000000000000000e+02
9.780175493318077784e+00 6.863020799771234692e+01 4.170000000000000000e+02
1.115814344966758043e+01 6.894833424823873713e+01 4.170000000000000000e+02
1.253611140601708129e+01 6.926646049876512734e+01 4.170000000000000000e+02
1.343997988715628367e-01 6.640332424402765810e+01 4.180000000000000000e+02
1.512367755221064591e+00 6.672145049455403409e+01 4.180000000000000000e+02
2.890335711570567234e+00 6.703957674508042430e+01 4.180000000000000000e+02
4.268303667920068989e+00 6.735770299560681451e+01 4.180000000000000000e+02
5.646271624269571632e+00 6.767582924613319051e+01 4.180000000000000000e+02
7.024239580619073386e+00 6.799395549665958072e+01 4.180000000000000000e+02
8.402207536968575141e+00 6.831208174718597093e+01 4.180000000000000000e+02
9.780175493318077784e+00 6.863020799771234692e+01 4.180000000000000000e+02
1.115814344966758043e+01 6.894833424823873713e+01 4.180000000000000000e+02
1.343997988715628367e-01 6.640332424402765810e+01 4.190000000000000000e+02
1.512367755221064591e+00 6.672145049455403409e+01 4.190000000000000000e+02
2.890335711570567234e+00 6.703957674508042430e+01 4.190000000000000000e+02
4.268303667920068989e+00 6.735770299560681451e+01 4.190000000000000000e+02
5.646271624269571632e+00 6.767582924613319051e+01 4.190000000000000000e+02
7.024239580619073386e+00 6.799395549665958072e+01 4.190000000000000000e+02
8.402207536968575141e+00 6.831208174718597093e+01 4.190000000000000000e+02
9.780175493318077784e+00 6.863020799771234692e+01 4.190000000000000000e+02
1.115814344966758043e+01 6.894833424823873713e+01 4.190000000000000000e+02
1.343997988715628367e-01 6.640332424402765810e+01 4.200000000000000000e+02
1.512367755221064591e+00 6.672145049455403409e+01 4.200000000000000000e+02
2.890335711570567234e+00 6.703957674508042430e+01 4.200000000000000000e+02
4.268303667920068989e+00 6.735770299560681451e+01 4.200000000000000000e+02
5.646271624269571632e+00 6.767582924613319051e+01 4.200000000000000000e+02
7.024239580619073386e+00 6.799395549665958072e+01 4.200000000000000000e+02
8.402207536968575141e+00 6.831208174718597093e+01 4.200000000000000000e+02
9.780175493318077784e+00 6.863020799771234692e+01 4.200000000000000000e+02
1.115814344966758043e+01 6.894833424823873713e+01 4.200000000000000000e+02
1.343997988715628367e-01 6.640332424402765810e+01 4.210000000000000000e+02
1.512367755221064591e+00 6.672145049455403409e+01 4.210000000000000000e+02
2.890335711570567234e+00 6.703957674508042430e+01 4.210000000000000000e+02
4.268303667920068989e+00 6.735770299560681451e+01 4.210000000000000000e+02
5.646271624269571632e+00 6.767582924613319051e+01 4.210000000000000000e+02
7.024239580619073386e+00 6.799395549665958072e+01 4.210000000000000000e+02
8.402207536968575141e+00 6.831208174718597093e+01 4.210000000000000000e+02
9.780175493318077784e+00 6.863020799771234692e+01 4.210000000000000000e+02
1.115814344966758043e+01 6.894833424823873713e+01 4.210000000000000000e+02
1.343997988715628367e-01 6.640332424402765810e+01 4.220000000000000000e+02
1.512367755221064591e+00 6.672145049455403409e+01 4.220000000000000000e+02
2.890335711570567234e+00 6.703957674508042430e+01 4.220000000000000000e+02
4.268303667920068989e+00 6.735770299560681451e+01 4.220000000000000000e+02
5.646271624269571632e+00 6.767582924613319051e+01 4.220000000000000000e+02
7.024239580619073386e+00 6.799395549665958072e+01 4.220000000000000000e+02
8.402207536968575141e+00 6.831208174718597093e+01 4.220000000000000000e+02
9.780175493318077784e+00 6.863020799771234692e+01 4.220000000000000000e+02
1.115814344966758043e+01 6.894833424823873713e+01 4.220000000000000000e+02
1.253611140601708129e+01 6.926646049876512734e+01 4.220000000000000000e+02
1.343997988715628367e-01 6.640332424402765810e+01 4.230000000000000000e+02
1.512367755221064591e+00 6.672145049455403409e+01 4.230000000000000000e+02
2.890335711570567234e+00 6.703957674508042430e+01 4.230000000000000000e+02
4.268303667920068989e+00 6.735770299560681451e+01 4.230000000000000000e+02
5.646271624269571632e+00 6.767582924613319051e+01 4.230000000000000000e+02
7.024239580619073386e+00 6.799395549665958072e+01 4.230000000000000000e+02
8.402207536968575141e+00 6.831208174718597093e+01 4.230000000000000000e+02
9.780175493318077784e+00 6.863020799771234692e+01 4.230000000000000000e+02
1.115814344966758043e+01 6.894833424823873713e+01 4.230000000000000000e+02
1.253611140601708129e+01 6.926646049876512734e+01 4.230000000000000000e+02
-7.136473045663809245e-01 6.693324509693921698e+01 4.240000000000000000e+02
