7.984312589548538952e+00 6.582187734826941039e+01 3.130000000000000000e+02
9.321476994069390898e+00 6.536145215859968971e+01 3.130000000000000000e+02
1.065864139859024107e+01 6.490102696892996903e+01 3.130000000000000000e+02
1.199580580311109479e+01 6.444060177926024835e+01 3.130000000000000000e+02
-3.867383757657005816e-02 6.858442848628772026e+01 3.140000000000000000e+02
1.298490566944281888e+00 6.812400329661799958e+01 3.140000000000000000e+02
2.635654971465132945e+00 6.766357810694827890e+01 3.140000000000000000e+02
3.972819375985984891e+00 6.720315291727855822e+01 3.140000000000000000e+02
5.309983780506835949e+00 6.674272772760883754e+01 3.140000000000000000e+02
6.647148185027687894e+00 6.628230253793913107e+01 3.140000000000000000e+02
7.984312589548538952e+00 6.582187734826941039e+01 3.140000000000000000e+02
9.321476994069390898e+00 6.536145215859968971e+01 3.140000000000000000e+02
1.065864139859024107e+01 6.490102696892996903e+01 3.140000000000000000e+02
-3.867383757657005816e-02 6.858442848628772026e+01 3.150000000000000000e+02
1.298490566944281888e+00 6.812400329661799958e+01 3.150000000000000000e+02
2.635654971465132945e+00 6.766357810694827890e+01 3.150000000000000000e+02
3.972819375985984891e+00 6.720315291727855822e+01 3.150000000000000000e+02
5.309983780506835949e+00 6.674272772760883754e+01 3.150000000000000000e+02
6.647148185027687894e+00 6.628230253793913107e+01 3.150000000000000000e+02
7.984312589548538952e+00 6.582187734826941039e+01 3.150000000000000000e+02
9.321476994069390898e+00 6.536145215859968971e+01 3.150000000000000000e+02
1.065864139859024107e+01 6.490102696892996903e+01 3.150000000000000000e+02
1.199580580311109479e+01 6.444060177926024835e+01 3.150000000000000000e+02
-3.867383757657005816e-02 6.858442848628772026e+01 3.160000000000000000e+02
1.298490566944281888e+00 6.812400329661799958e+01 3.160000000000000000e+02
2.635654971465132945e+00 6.766357810694827890e+01 3.160000000000000000e+02
3.972819375985984891e+00 6.720315291727855822e+01 3.160000000000000000e+02
5.309983780506835949e+00 6.674272772760883754e+01 3.160000000000000000e+02
6.647148185027687894e+00 6.628230253793913107e+01 3.160000000000000000e+02
7.984312589548538952e+00 6.582187734826941039e+01 3.160000000000000000e+02
9.321476994069390898e+00 6.536145215859968971e+01 3.160000000000000000e+02
1.065864139859024107e+01 6.490102696892996903e+01 3.160000000000000000e+02
1.199580580311109479e+01 6.444060177926024835e+01 3.160000000000000000e+02
-3.867383757657005816e-02 6.858442848628772026e+01 3.170000000000000000e+02
1.298490566944281888e+00 6.812400329661799958e+01 3.170000000000000000e+02
2.635654971465132945e+00 6.766357810694827890e+01 3.170000000000000000e+02
3.972819375985984891e+00 6.720315291727855822e+01 3.170000000000000000e+02
5.309983780506835949e+00 6.674272772760883754e+01 3.170000000000000000e+02
6.647148185027687894e+00 6.628230253793913107e+01 3.170000000000000000e+02
7.984312589548538952e+00 6.582187734826941039e+01 3.170000000000000000e+02
9.321476994069390898e+00 6.536145215859968971e+01 3.170000000000000000e+02
1.065864139859024107e+01 6.490102696892996903e+01 3.170000000000000000e+02
1.199580580311109479e+01 6.444060177926024835e+01 3.170000000000000000e+02
-3.867383757657005816e-02 6.858442848628772026e+01 3.180000000000000000e+02
1.298490566944281888e+00 6.812400329661799958e+01 3.180000000000000000e+02
2.635654971465132945e+00 6.766357810694827890e+01 3.180000000000000000e+02
3.972819375985984891e+00 6.720315291727855822e+01 3.180000000000000000e+02
5.309983780506835949e+00 6.674272772760883754e+01 3.180000000000000000e+02
6.647148185027687894e+00 6.628230253793913107e+01 3.180000000000000000e+02
7.984312589548538952e+00 6.582187734826941039e+01 3.180000000000000000e+02
9.321476994069390898e+00 6.536145215859968971e+01 3.180000000000000000e+02
1.065864139859024107e+01 6.490102696892996903e+01 3.180000000000000000e+02
1.199580580311109479e+01 6.444060177926024835e+01 3.180000000000000000e+02
-3.867383757657005816e-02 6.858442848628772026e+01 3.190000000000000000e+02
1.298490566944281888e+00 6.812400329661799958e+01 3.190000000000000000e+02
2.635654971465132945e+00 6.766357810694827890e+01 3.190000000000000000e+02
3.972819375985984891e+00 6.720315291727855822e+01 3.190000000000000000e+02
5.309983780506835949e+00 6.674272772760883754e+01 3.190000000000000000e+02
6.647148185027687894e+00 6.628230253793913107e+01 3.190000000000000000e+02
7.984312589548538952e+00 6.582187734826941039e+01 3.190000000000000000e+02
9.321476994069390898e+00 6.536145215859968971e+01 3.190000000000000000e+02
1.065864139859024107e+01 6.490102696892996903e+01 3.190000000000000000e+02
1.199580580311109479e+01 6.444060177926024835e+01 3.190000000000000000e+02
-3.867383757657005816e-02 6.858442848628772026e+01 3.200000000000000000e+02
1.298490566944281888e+00 6.812400329661799958e+01 3.200000000000000000e+02
2.635654971465132945e+00 6.766357810694827890e+01 3.200000000000000000e+02
3.972819375985984891e+00 6.720315291727855822e+01 3.200000000000000000e+02
5.309983780506835949e+00 6.674272772760883754e+01 3.200000000000000000e+02
6.647148185027687894e+00 6.628230253793913107e+01 3.200000000000000000e+02
7.984312589548538952e+00 6.582187734826941039e+01 3.200000000000000000e+02
9.321476994069390898e+00 6.536145215859968971e+01 3.200000000000000000e+02
1.065864139859024107e+01 6.490102696892996903e+01 3.200000000000000000e+02
1.199580580311109479e+01 6.444060177926024835e+01 3.200000000000000000e+02
-3.867383757657005816e-02 6.858442848628772026e+01 3.210000000000000000e+02
1.298490566944281888e+00 6.812400329661799958e+01 3.210000000000000000e+02
2.635654971465132945e+00 6.766357810694827890e+01 3.210000000000000000e+02
3.972819375985984891e+00 6.720315291727855822e+01 3.210000000000000000e+02
5.309983780506835949e+00 6.674272772760883754e+01 3.210000000000000000e+02
6.647148185027687894e+00 6.628230253793913107e+01 3.210000000000000000e+02
7.984312589548538952e+00 6.582187734826941039e+01 3.210000000000000000e+02
9.321476994069390898e+00 6.536145215859968971e+01 3.210000000000000000e+02
1.065864139859024107e+01 6.490102696892996903e+01 3.210000000000000000e+02
1.199580580311109479e+01 6.444060177926024835e+01 3.210000000000000000e+02
-3.867383757657005816e-02 6.858442848628772026e+01 3.220000000000000000e+02
1.298490566944281888e+00 6.812400329661799958e+01 3.220000000000000000e+02
2.635654971465132945e+00 6.766357810694827890e+01 3.220000000000000000e+02
3.972819375985984891e+00 6.720315291727855822e+01 3.220000000000000000e+02
5.309983780506835949e+00 6.674272772760883754e+01 3.220000000000000000e+02
6.647148185027687894e+00 6.628230253793913107e+01 3.220000000000000000e+02
7.984312589548538952e+00 6.582187734826941039e+01 3.220000000000000000e+02
9.321476994069390898e+00 6.536145215859968971e+01 3.220000000000000000e+02
1.065864139859024107e+01 6.490102696892996903e+01 3.220000000000000000e+02
1.199580580311109479e+01 6.444060177926024835e+01 3.220000000000000000e+02
-3.867383757657005816e-02 6.858442848628772026e+01 3.230000000000000000e+02
1.298490566944281888e+00 6.812400329661799958e+01 3.230000000000000000e+02
2.635654971465132945e+00 6.766357810694827890e+01 3.230000000000000000e+02
3.972819375985984891e+00 6.720315291727855822e+01 3.230000000000000000e+02
5.309983780506835949e+00 6.674272772760883754e+01 3.230000000000000000e+02
6.647148185027687894e+00 6.628230253793913107e+01 3.230000000000000000e+02
7.984312589548538952e+00 6.582187734826941039e+01 3.230000000000000000e+02
9.321476994069390898e+00 6.536145215859968971e+01 3.230000000000000000e+02
1.065864139859024107e+01 6.490102696892996903e+01 3.230000000000000000e+02
1.199580580311109479e+01 6.444060177926024835e+01 3.230000000000000000e+02
-3.867383757657005816e-02 6.858442848628772026e+01 3.240000000000000000e+02
1.298490566944281888e+00 6.812400329661799958e+01 3.240000000000000000e+02
2.635654971465132945e+00 6.766357810694827890e+01 3.240000000000000000e+02
3.972819375985984891e+00 6.720315291727855822e+01 3.240000000000000000e+02
5.309983780506835949e+00 6.674272772760883754e+01 3.240000000000000000e+02
6.647148185027687894e+00 6.628230253793913107e+01 3.240000000000000000e+02
7.984312589548538952e+00 6.582187734826941039e+01 3.240000000000000000e+02
9.321476994069390898e+00 6.536145215859968971e+01 3.240000000000000000e+02
1.065864139859024107e+01 6.490102696892996903e+01 3.240000000000000000e+02
1.199580580311109479e+01 6.444060177926024835e+01 3.240000000000000000e+02
-3.867383757657005816e-02 6.858442848628772026e+01 3.250000000000000000e+02
1.298490566944281888e+00 6.812400329661799958e+01 3.250000000000000000e+02
2.635654971465132945e+00 6.766357810694827890e+01 3.250000000000000000e+02
3.972819375985984891e+00 6.720315291727855822e+01 3.250000000000000000e+02
5.309983780506835949e+00 6.674272772760883754e+01 3.250000000000000000e+02
6.647148185027687894e+00 6.628230253793913107e+01 3.250000000000000000e+02
7.984312589548538952e+00 6.582187734826941039e+01 3.250000000000000000e+02
9.321476994069390898e+00 6.536145215859968971e+01 3.250000000000000000e+02
1.065864139859024107e+01 6.490102696892996903e+01 3.250000000000000000e+02
1.199580580311109479e+01 6.444060177926024835e+01 3.250000000000000000e+02
-3.867383757657005816e-02 6.858442848628772026e+01 3.260000000000000000e+02
1.298490566944281888e+00 6.812400329661799958e+01 3.260000000000000000e+02
2.635654971465132945e+00 6.766357810694827890e+01 3.260000000000000000e+02
3.972819375985984891e+00 6.720315291727855822e+01 3.260000000000000000e+02
5.309983780506835949e+00 6.674272772760883754e+01 3.260000000000000000e+02
6.647148185027687894e+00 6.628230253793913107e+01 3.260000000000000000e+02
7.984312589548538952e+00 6.582187734826941039e+01 3.260000000000000000e+02
9.321476994069390898e+00 6.536145215859968971e+01 3.260000000000000000e+02
1.065864139859024107e+01 6.490102696892996903e+01 3.260000000000000000e+02
1.199580580311109479e+01 6.444060177926024835e+01 3.260000000000000000e+02
-3.867383757657005816e-02 6.858442848628772026e+01 3.270000000000000000e+02
1.298490566944281888e+00 6.812400329661799958e+01 3.270000000000000000e+02
2.635654971465132945e+00 6.766357810694827890e+01 3.270000000000000000e+02
3.972819375985984891e+00 6.720315291727855822e+01 3.270000000000000000e+02
5.309983780506835949e+00 6.674272772760883754e+01 3.270000000000000000e+02
6.647148185027687894e+00 6.628230253793913107e+01 3.270000000000000000e+02
7.984312589548538952e+00 6.582187734826941039e+01 3.270000000000000000e+02
9.321476994069390898e+00 6.536145215859968971e+01 3.270000000000000000e+02
1.065864139859024107e+01 6.490102696892996903e+01 3.270000000000000000e+02
1.199580580311109479e+01 6.444060177926024835e+01 3.270000000000000000e+02
-3.867383757657005816e-02 6.858442848628772026e+01 3.280000000000000000e+02
1.298490566944281888e+00 6.812400329661799958e+01 3.280000000000000000e+02
2.635654971465132945e+00 6.766357810694827890e+01 3.280000000000000000e+02
3.972819375985984891e+00 6.720315291727855822e+01 3.280000000000000000e+02
5.309983780506835949e+00 6.674272772760883754e+01 3.280000000000000000e+02
6.647148185027687894e+00 6.628230253793913107e+01 3.280000000000000000e+02
7.984312589548538952e+00 6.582187734826941039e+01 3.280000000000000000e+02
9.321476994069390898e+00 6.536145215859968971e+01 3.280000000000000000e+02
1.065864139859024107e+01 6.490102696892996903e+01 3.280000000000000000e+02
1.199580580311109479e+01 6.444060177926024835e+01 3.280000000000000000e+02
-4.770434450021365791e-01 6.948322328338299769e+01 3.290000000000000000e+02
8.601209595187153667e-01 6.902279809371329122e+01 3.290000000000000000e+02
2.197285364039566424e+00 6.856237290404357054e+01 3.290000000000000000e+02
3.534449768560418370e+00 6.810194771437384986e+01 3.290000000000000000e+02
4.871614173081269428e+00 6.764152252470412918e+01 3.290000000000000000e+02
6.208778577602121374e+00 6.718109733503440850e+01 3.290000000000000000e+02
7.545942982122973319e+00 6.672067214536468782e+01 3.290000000000000000e+02
8.883107386643825265e+00 6.626024695569496714e+01 3.290000000000000000e+02
1.022027179116467543e+01 6.579982176602526067e+01 3.290000000000000000e+02
1.155743619568552738e+01 6.533939657635553999e+01 3.290000000000000000e+02
1.289460060020637933e+01 6.487897138668581931e+01 3.290000000000000000e+02
-4.770434450021365791e-01 6.948322328338299769e+01 3.300000000000000000e+02
8.601209595187153667e-01 6.902279809371329122e+01 3.300000000000000000e+02
2.197285364039566424e+00 6.856237290404357054e+01 3.300000000000000000e+02
3.534449768560418370e+00 6.810194771437384986e+01 3.300000000000000000e+02
4.871614173081269428e+00 6.764152252470412918e+01 3.300000000000000000e+02
6.208778577602121374e+00 6.718109733503440850e+01 3.300000000000000000e+02
7.545942982122973319e+00 6.672067214536468782e+01 3.300000000000000000e+02
8.883107386643825265e+00 6.626024695569496714e+01 3.300000000000000000e+02
1.022027179116467543e+01 6.579982176602526067e+01 3.300000000000000000e+02
1.155743619568552738e+01 6.533939657635553999e+01 3.300000000000000000e+02
1.289460060020637933e+01 6.487897138668581931e+01 3.300000000000000000e+02
-4.770434450021365791e-01 6.948322328338299769e+01 3.310000000000000000e+02
8.601209595187153667e-01 6.902279809371329122e+01 3.310000000000000000e+02
2.197285364039566424e+00 6.856237290404357054e+01 3.310000000000000000e+02
3.534449768560418370e+00 6.810194771437384986e+01 3.310000000000000000e+02
4.871614173081269428e+00 6.764152252470412918e+01 3.310000000000000000e+02
6.208778577602121374e+00 6.718109733503440850e+01 3.310000000000000000e+02
7.545942982122973319e+00 6.672067214536468782e+01 3.310000000000000000e+02
8.883107386643825265e+00 6.626024695569496714e+01 3.310000000000000000e+02
1.022027179116467543e+01 6.579982176602526067e+01 3.310000000000000000e+02
1.155743619568552738e+01 6.533939657635553999e+01 3.310000000000000000e+02
1.289460060020637933e+01 6.487897138668581931e+01 3.310000000000000000e+02
-4.770434450021365791e-01 6.948322328338299769e+01 3.320000000000000000e+02
8.601209595187153667e-01 6.902279809371329122e+01 3.320000000000000000e+02
2.197285364039566424e+00 6.856237290404357054e+01 3.320000000000000000e+02
3.534449768560418370e+00 6.810194771437384986e+01 3.320000000000000000e+02
4.871614173081269428e+00 6.764152252470412918e+01 3.320000000000000000e+02
6.208778577602121374e+00 6.718109733503440850e+01 3.320000000000000000e+02
7.545942982122973319e+00 6.672067214536468782e+01 3.320000000000000000e+02
8.883107386643825265e+00 6.626024695569496714e+01 3.320000000000000000e+02
1.022027179116467543e+01 6.579982176602526067e+01 3.320000000000000000e+02
1.155743619568552738e+01 6.533939657635553999e+01 3.320000000000000000e+02
1.289460060020637933e+01 6.487897138668581931e+01 3.320000000000000000e+02
-3.867383757657005816e-02 6.858442848628772026e+01 3.330000000000000000e+02
1.298490566944281888e+00 6.812400329661799958e+01 3.330000000000000000e+02
2.635654971465132945e+00 6.766357810694827890e+01 3.330000000000000000e+02
3.972819375985984891e+00 6.720315291727855822e+01 3.330000000000000000e+02
5.309983780506835949e+00 6.674272772760883754e+01 3.330000000000000000e+02
6.647148185027687894e+00 6.628230253793913107e+01 3.330000000000000000e+02
7.984312589548538952e+00 6.582187734826941039e+01 3.330000000000000000e+02
9.321476994069390898e+00 6.536145215859968971e+01 3.330000000000000000e+02
1.065864139859024107e+01 6.490102696892996903e+01 3.330000000000000000e+02
1.199580580311109479e+01 6.444060177926024835e+01 3.330000000000000000e+02
-3.867383757657005816e-02 6.858442848628772026e+01 3.340000000000000000e+02
1.298490566944281888e+00 6.812400329661799958e+01 3.340000000000000000e+02
2.635654971465132945e+00 6.766357810694827890e+01 3.340000000000000000e+02
3.972819375985984891e+00 6.720315291727855822e+01 3.340000000000000000e+02
5.309983780506835949e+00 6.674272772760883754e+01 3.340000000000000000e+02
6.647148185027687894e+00 6.628230253793913107e+01 3.340000000000000000e+02
7.984312589548538952e+00 6.582187734826941039e+01 3.340000000000000000e+02
9.321476994069390898e+00 6.536145215859968971e+01 3.340000000000000000e+02
1.065864139859024107e+01 6.490102696892996903e+01 3.340000000000000000e+02
1.199580580311109479e+01 6.444060177926024835e+01 3.340000000000000000e+02
-3.867383757657005816e-02 6.858442848628772026e+01 3.350000000000000000e+02
1.298490566944281888e+00 6.812400329661799958e+01 3.350000000000000000e+02
2.635654971465132945e+00 6.766357810694827890e+01 3.350000000000000000e+02
3.972819375985984891e+00 6.720315291727855822e+01 3.350000000000000000e+02
5.309983780506835949e+00 6.674272772760883754e+01 3.350000000000000000e+02
6.647148185027687894e+00 6.628230253793913107e+01 3.350000000000000000e+02
7.984312589548538952e+00 6.582187734826941039e+01 3.350000000000000000e+02
9.321476994069390898e+00 6.536145215859968971e+01 3.350000000000000000e+02
1.065864139859024107e+01 6.490102696892996903e+01 3.350000000000000000e+02
1.199580580311109479e+01 6.444060177926024835e+01 3.350000000000000000e+02
-3.867383757657005816e-02 6.858442848628772026e+01 3.360000000000000000e+02
1.298490566944281888e+00 6.812400329661799958e+01 3.360000000000000000e+02
2.635654971465132945e+00 6.766357810694827890e+01 3.360000000000000000e+02
3.972819375985984891e+00 6.720315291727855822e+01 3.360000000000000000e+02
5.309983780506835949e+00 6.674272772760883754e+01 3.360000000000000000e+02
6.647148185027687894e+00 6.628230253793913107e+01 3.360000000000000000e+02
7.984312589548538952e+00 6.582187734826941039e+01 3.360000000000000000e+02
9.321476994069390898e+00 6.536145215859968971e+01 3.360000000000000000e+02
1.065864139859024107e+01 6.490102696892996903e+01 3.360000000000000000e+02
1.199580580311109479e+01 6.444060177926024835e+01 3.360000000000000000e+02
-3.867383757657005816e-02 6.858442848628772026e+01 3.370000000000000000e+02
1.298490566944281888e+00 6.812400329661799958e+01 3.370000000000000000e+02
2.635654971465132945e+00 6.766357810694827890e+01 3.370000000000000000e+02
3.972819375985984891e+00 6.720315291727855822e+01 3.370000000000000000e+02
5.309983780506835949e+00 6.674272772760883754e+01 3.370000000000000000e+02
6.647148185027687894e+00 6.628230253793913107e+01 3.370000000000000000e+02
7.984312589548538952e+00 6.582187734826941039e+01 3.370000000000000000e+02
9.321476994069390898e+00 6.536145215859968971e+01 3.370000000000000000e+02
1.065864139859024107e+01 6.490102696892996903e+01 3.370000000000000000e+02
1.199580580311109479e+01 6.444060177926024835e+01 3.370000000000000000e+02
-3.867383757657005816e-02 6.858442848628772026e+01 3.380000000000000000e+02
1.298490566944281888e+00 6.812400329661799958e+01 3.380000000000000000e+02
2.635654971465132945e+00 6.766357810694827890e+01 3.380000000000000000e+02
3.972819375985984891e+00 6.720315291727855822e+01 3.380000000000000000e+02
5.309983780506835949e+00 6.674272772760883754e+01 3.380000000000000000e+02
6.647148185027687894e+00 6.628230253793913107e+01 3.380000000000000000e+02
7.984312589548538952e+00 6.582187734826941039e+01 3.380000000000000000e+02
9.321476994069390898e+00 6.536145215859968971e+01 3.380000000000000000e+02
1.065864139859024107e+01 6.490102696892996903e+01 3.380000000000000000e+02
1.199580580311109479e+01 6.444060177926024835e+01 3.380000000000000000e+02
-3.867383757657005816e-02 6.858442848628772026e+01 3.390000000000000000e+02
1.298490566944281888e+00 6.812400329661799958e+01 3.390000000000000000e+02
2.635654971465132945e+00 6.766357810694827890e+01 3.390000000000000000e+02
3.972819375985984891e+00 6.720315291727855822e+01 3.390000000000000000e+02
5.309983780506835949e+00 6.674272772760883754e+01 3.390000000000000000e+02
6.647148185027687894e+00 6.628230253793913107e+01 3.390000000000000000e+02
7.984312589548538952e+00 6.582187734826941039e+01 3.390000000000000000e+02
9.321476994069390898e+00 6.536145215859968971e+01 3.390000000000000000e+02
1.065864139859024107e+01 6.490102696892996903e+01 3.390000000000000000e+02
1.199580580311109479e+01 6.444060177926024835e+01 3.390000000000000000e+02
-3.867383757657005816e-02 6.858442848628772026e+01 3.400000000000000000e+02
1.298490566944281888e+00 6.812400329661799958e+01 3.400000000000000000e+02
2.635654971465132945e+00 6.766357810694827890e+01 3.400000000000000000e+02
3.972819375985984891e+00 6.720315291727855822e+01 3.400000000000000000e+02
5.309983780506835949e+00 6.674272772760883754e+01 3.400000000000000000e+02
6.647148185027687894e+00 6.628230253793913107e+01 3.400000000000000000e+02
7.984312589548538952e+00 6.582187734826941039e+01 3.400000000000000000e+02
9.321476994069390898e+00 6.536145215859968971e+01 3.400000000000000000e+02
1.065864139859024107e+01 6.490102696892996903e+01 3.400000000000000000e+02
1.199580580311109479e+01 6.444060177926024835e+01 3.400000000000000000e+02
-3.867383757657005816e-02 6.858442848628772026e+01 3.410000000000000000e+02
1.298490566944281888e+00 6.812400329661799958e+01 3.410000000000000000e+02
2.635654971465132945e+00 6.766357810694827890e+01 3.410000000000000000e+02
3.972819375985984891e+00 6.720315291727855822e+01 3.410000000000000000e+02
5.309983780506835949e+00 6.674272772760883754e+01 3.410000000000000000e+02
6.647148185027687894e+00 6.628230253793913107e+01 3.410000000000000000e+02
7.984312589548538952e+00 6.582187734826941039e+01 3.410000000000000000e+02
9.321476994069390898e+00 6.536145215859968971e+01 3.410000000000000000e+02
1.065864139859024107e+01 6.490102696892996903e+01 3.410000000000000000e+02
1.199580580311109479e+01 6.444060177926024835e+01 3.410000000000000000e+02
-3.867383757657005816e-02 6.858442848628772026e+01 3.420000000000000000e+02
1.298490566944281888e+00 6.812400329661799958e+01 3.420000000000000000e+02
2.635654971465132945e+00 6.766357810694827890e+01 3.420000000000000000e+02
3.972819375985984891e+00 6.720315291727855822e+01 3.420000000000000000e+02
5.309983780506835949e+00 6.674272772760883754e+01 3.420000000000000000e+02
6.647148185027687894e+00 6.628230253793913107e+01 3.420000000000000000e+02
7.984312589548538952e+00 6.582187734826941039e+01 3.420000000000000000e+02
9.321476994069390898e+00 6.536145215859968971e+01 3.420000000000000000e+02
1.065864139859024107e+01 6.490102696892996903e+01 3.420000000000000000e+02
1.199580580311109479e+01 6.444060177926024835e+01 3.420000000000000000e+02
-3.867383757657005816e-02 6.858442848628772026e+01 3.430000000000000000e+02
1.298490566944281888e+00 6.812400329661799958e+01 3.430000000000000000e+02
2.635654971465132945e+00 6.766357810694827890e+01 3.430000000000000000e+02
3.972819375985984891e+00 6.720315291727855822e+01 3.430000000000000000e+02
5.309983780506835949e+00 6.674272772760883754e+01 3.430000000000000000e+02
6.647148185027687894e+00 6.628230253793913107e+01 3.430000000000000000e+02
7.984312589548538952e+00 6.582187734826941039e+01 3.430000000000000000e+02
9.321476994069390898e+00 6.536145215859968971e+01 3.430000000000000000e+02
1.065864139859024107e+01 6.490102696892996903e+01 3.430000000000000000e+02
-3.867383757657005816e-02 6.858442848628772026e+01 3.440000000000000000e+02
1.298490566944281888e+00 6.812400329661799958e+01 3.440000000000000000e+02
2.635654971465132945e+00 6.766357810694827890e+01 3.440000000000000000e+02
3.972819375985984891e+00 6.720315291727855822e+01 3.440000000000000000e+02
5.309983780506835949e+00 6.674272772760883754e+01 3.440000000000000000e+02
6.647148185027687894e+00 6.628230253793913107e+01 3.440000000000000000e+02
7.984312589548538952e+00 6.582187734826941039e+01 3.440000000000000000e+02
9.321476994069390898e+00 6.536145215859968971e+01 3.440000000000000000e+02
1.065864139859024107e+01 6.490102696892996903e+01 3.440000000000000000e+02
-3.867383757657005816e-02 6.858442848628772026e+01 3.450000000000000000e+02
1.298490566944281888e+00 6.812400329661799958e+01 3.450000000000000000e+02
2.635654971465132945e+00 6.766357810694827890e+01 3.450000000000000000e+02
3.972819375985984891e+00 6.720315291727855822e+01 3.450000000000000000e+02
5.309983780506835949e+00 6.674272772760883754e+01 3.450000000000000000e+02
6.647148185027687894e+00 6.628230253793913107e+01 3.450000000000000000e+02
7.984312589548538952e+00 6.582187734826941039e+01 3.450000000000000000e+02
9.321476994069390898e+00 6.536145215859968971e+01 3.450000000000000000e+02
1.065864139859024107e+01 6.490102696892996903e+01 3.450000000000000000e+02
1.199580580311109479e+01 6.444060177926024835e+01 3.450000000000000000e+02
-3.867383757657005816e-02 6.858442848628772026e+01 3.460000000000000000e+02
1.298490566944281888e+00 6.812400329661799958e+01 3.460000000000000000e+02
2.635654971465132945e+00 6.766357810694827890e+01 3.460000000000000000e+02
3.972819375985984891e+00 6.720315291727855822e+01 3.460000000000000000e+02
5.309983780506835949e+00 6.674272772760883754e+01 3.460000000000000000e+02
6.647148185027687894e+00 6.628230253793913107e+01 3.460000000000000000e+02
7.984312589548538952e+00 6.582187734826941039e+01 3.460000000000000000e+02
9.321476994069390898e+00 6.536145215859968971e+01 3.460000000000000000e+02
1.065864139859024107e+01 6.490102696892996903e+01 3.460000000000000000e+02
1.199580580311109479e+01 6.444060177926024835e+01 3.460000000000000000e+02
-3.867383757657005816e-02 6.858442848628772026e+01 3.470000000000000000e+02
1.298490566944281888e+00 6.812400329661799958e+01 3.470000000000000000e+02
2.635654971465132945e+00 6.766357810694827890e+01 3.470000000000000000e+02
3.972819375985984891e+00 6.720315291727855822e+01 3.470000000000000000e+02
5.309983780506835949e+00 6.674272772760883754e+01 3.470000000000000000e+02
6.647148185027687894e+00 6.628230253793913107e+01 3.470000000000000000e+02
7.984312589548538952e+00 6.582187734826941039e+01 3.470000000000000000e+02
9.321476994069390898e+00 6.536145215859968971e+01 3.470000000000000000e+02
1.065864139859024107e+01 6.490102696892996903e+01 3.470000000000000000e+02
1.199580580311109479e+01 6.444060177926024835e+01 3.470000000000000000e+02
-3.867383757657005816e-02 6.858442848628772026e+01 3.480000000000000000e+02
1.298490566944281888e+00 6.812400329661799958e+01 3.480000000000000000e+02
2.635654971465132945e+00 6.766357810694827890e+01 3.480000000000000000e+02
3.972819375985984891e+00 6.720315291727855822e+01 3.480000000000000000e+02
5.309983780506835949e+00 6.674272772760883754e+01 3.480000000000000000e+02
6.647148185027687894e+00 6.628230253793913107e+01 3.480000000000000000e+02
7.984312589548538952e+00 6.582187734826941039e+01 3.480000000000000000e+02
9.321476994069390898e+00 6.536145215859968971e+01 3.480000000000000000e+02
1.065864139859024107e+01 6.490102696892996903e+01 3.480000000000000000e+02
1.199580580311109479e+01 6.444060177926024835e+01 3.480000000000000000e+02
-3.867383757657005816e-02 6.858442848628772026e+01 3.490000000000000000e+02
1.298490566944281888e+00 6.812400329661799958e+01 3.490000000000000000e+02
2.635654971465132945e+00 6.766357810694827890e+01 3.490000000000000000e+02
3.972819375985984891e+00 6.720315291727855822e+01 3.490000000000000000e+02
5.309983780506835949e+00 6.674272772760883754e+01 3.490000000000000000e+02
6.647148185027687894e+00 6.628230253793913107e+01 3.490000000000000000e+02
7.984312589548538952e+00 6.582187734826941039e+01 3.490000000000000000e+02
9.321476994069390898e+00 6.536145215859968971e+01 3.490000000000000000e+02
1.065864139859024107e+01 6.490102696892996903e+01 3.490000000000000000e+02
-3.867383757657005816e-02 6.858442848628772026e+01 3.500000000000000000e+02
1.298490566944281888e+00 6.812400329661799958e+01 3.500000000000000000e+02
2.635654971465132945e+00 6.766357810694827890e+01 3.500000000000000000e+02
3.972819375985984891e+00 6.720315291727855822e+01 3.500000000000000000e+02
5.309983780506835949e+00 6.674272772760883754e+01 3.500000000000000000e+02
6.647148185027687894e+00 6.628230253793913107e+01 3.500000000000000000e+02
7.984312589548538952e+00 6.582187734826941039e+01 3.500000000000000000e+02
9.321476994069390898e+00 6.536145215859968971e+01 3.500000000000000000e+02
1.065864139859024107e+01 6.490102696892996903e+01 3.500000000000000000e+02
-4.770434450021365791e-01 6.948322328338299769e+01 3.510000000000000000e+02
8.601209595187153667e-01 6.902279809371329122e+01 3.510000000000000000e+02
2.197285364039566424e+00 6.856237290404357054e+01 3.510000000000000000e+02
3.534449768560418370e+00 6.810194771437384986e+01 3.510000000000000000e+02
4.871614173081269428e+00 6.764152252470412918e+01 3.510000000000000000e+02
6.208778577602121374e+00 6.718109733503440850e+01 3.510000000000000000e+02
7.545942982122973319e+00 6.672067214536468782e+01 3.510000000000000000e+02
8.883107386643825265e+00 6.626024695569496714e+01 3.510000000000000000e+02
1.022027179116467543e+01 6.579982176602526067e+01 3.510000000000000000e+02
1.155743619568552738e+01 6.533939657635553999e+01 3.510000000000000000e+02
-4.770434450021365791e-01 6.948322328338299769e+01 3.520000000000000000e+02
8.601209595187153667e-01 6.902279809371329122e+01 3.520000000000000000e+02
2.197285364039566424e+00 6.856237290404357054e+01 3.520000000000000000e+02
3.534449768560418370e+00 6.810194771437384986e+01 3.520000000000000000e+02
4.871614173081269428e+00 6.764152252470412918e+01 3.520000000000000000e+02
6.208778577602121374e+00 6.718109733503440850e+01 3.520000000000000000e+02
7.545942982122973319e+00 6.672067214536468782e+01 3.520000000000000000e+02
8.883107386643825265e+00 6.626024695569496714e+01 3.520000000000000000e+02
1.022027179116467543e+01 6.579982176602526067e+01 3.520000000000000000e+02
1.155743619568552738e+01 6.533939657635553999e+01 3.520000000000000000e+02
-4.770434450021365791e-01 6.948322328338299769e+01 3.530000000000000000e+02
8.601209595187153667e-01 6.902279809371329122e+01 3.530000000000000000e+02
2.197285364039566424e+00 6.856237290404357054e+01 3.530000000000000000e+02
3.534449768560418370e+00 6.810194771437384986e+01 3.530000000000000000e+02
4.871614173081269428e+00 6.764152252470412918e+01 3.530000000000000000e+02
6.208778577602121374e+00 6.718109733503440850e+01 3.530000000000000000e+02
7.545942982122973319e+00 6.672067214536468782e+01 3.530000000000000000e+02
8.883107386643825265e+00 6.626024695569496714e+01 3.530000000000000000e+02
1.022027179116467543e+01 6.579982176602526067e+01 3.530000000000000000e+02
1.155743619568552738e+01 6.533939657635553999e+01 3.530000000000000000e+02
-4.770434450021365791e-01 6.948322328338299769e+01 3.540000000000000000e+02
8.601209595187153667e-01 6.902279809371329122e+01 3.540000000000000000e+02
2.197285364039566424e+00 6.856237290404357054e+01 3.540000000000000000e+02
3.534449768560418370e+00 6.810194771437384986e+01 3.540000000000000000e+02
4.871614173081269428e+00 6.764152252470412918e+01 3.540000000000000000e+02
6.208778577602121374e+00 6.718109733503440850e+01 3.540000000000000000e+02
7.545942982122973319e+00 6.672067214536468782e+01 3.540000000000000000e+02
8.883107386643825265e+00 6.626024695569496714e+01 3.540000000000000000e+02
1.022027179116467543e+01 6.579982176602526067e+01 3.540000000000000000e+02
1.155743619568552738e+01 6.533939657635553999e+01 3.540000000000000000e+02
1.289460060020637933e+01 6.487897138668581931e+01 3.540000000000000000e+02
-4.770434450021365791e-01 6.948322328338299769e+01 3.550000000000000000e+02
8.601209595187153667e-01 6.902279809371329122e+01 3.550000000000000000e+02
2.197285364039566424e+00 6.856237290404357054e+01 3.550000000000000000e+02
3.534449768560418370e+00 6.810194771437384986e+01 3.550000000000000000e+02
4.871614173081269428e+00 6.764152252470412918e+01 3.550000000000000000e+02
6.208778577602121374e+00 6.718109733503440850e+01 3.550000000000000000e+02
7.545942982122973319e+00 6.672067214536468782e+01 3.550000000000000000e+02
8.883107386643825265e+00 6.626024695569496714e+01 3.550000000000000000e+02
1.022027179116467543e+01 6.579982176602526067e+01 3.550000000000000000e+02
1.155743619568552738e+01 6.533939657635553999e+01 3.550000000000000000e+02
1.289460060020637933e+01 6.487897138668581931e+01 3.550000000000000000e+02
-4.770434450021365791e-01 6.948322328338299769e+01 3.560000000000000000e+02
8.601209595187153667e-01 6.902279809371329122e+01 3.560000000000000000e+02
2.197285364039566424e+00 6.856237290404357054e+01 3.560000000000000000e+02
3.534449768560418370e+00 6.810194771437384986e+01 3.560000000000000000e+02
4.871614173081269428e+00 6.764152252470412918e+01 3.560000000000000000e+02
6.208778577602121374e+00 6.718109733503440850e+01 3.560000000000000000e+02
7.545942982122973319e+00 6.672067214536468782e+01 3.560000000000000000e+02
8.883107386643825265e+00 6.626024695569496714e+01 3.560000000000000000e+02
1.022027179116467543e+01 6.579982176602526067e+01 3.560000000000000000e+02
1.155743619568552738e+01 6.533939657635553999e+01 3.560000000000000000e+02
-4.770434450021365791e-01 6.948322328338299769e+01 3.570000000000000000e+02
8.601209595187153667e-01 6.902279809371329122e+01 3.570000000000000000e+02
2.197285364039566424e+00 6.856237290404357054e+01 3.570000000000000000e+02
3.534449768560418370e+00 6.810194771437384986e+01 3.570000000000000000e+02
4.871614173081269428e+00 6.764152252470412918e+01 3.570000000000000000e+02
6.208778577602121374e+00 6.718109733503440850e+01 3.570000000000000000e+02
7.545942982122973319e+00 6.672067214536468782e+01 3.570000000000000000e+02
8.883107386643825265e+00 6.626024695569496714e+01 3.570000000000000000e+02
1.022027179116467543e+01 6.579982176602526067e+01 3.570000000000000000e+02
1.155743619568552738e+01 6.533939657635553999e+01 3.570000000000000000e+02
-4.770434450021365791e-01 6.948322328338299769e+01 3.580000000000000000e+02
8.601209595187153667e-01 6.902279809371329122e+01 3.580000000000000000e+02
2.197285364039566424e+00 6.856237290404357054e+01 3.580000000000000000e+02
3.534449768560418370e+00 6.810194771437384986e+01 3.580000000000000000e+02
4.871614173081269428e+00 6.764152252470412918e+01 3.580000000000000000e+02
6.208778577602121374e+00 6.718109733503440850e+01 3.580000000000000000e+02
7.545942982122973319e+00 6.672067214536468782e+01 3.580000000000000000e+02
8.883107386643825265e+00 6.626024695569496714e+01 3.580000000000000000e+02
1.022027179116467543e+01 6.579982176602526067e+01 3.580000000000000000e+02
1.155743619568552738e+01 6.533939657635553999e+01 3.580000000000000000e+02
-3.867383757657005816e-02 6.858442848628772026e+01 3.590000000000000000e+02
1.298490566944281888e+00 6.812400329661799958e+01 3.590000000000000000e+02
2.635654971465132945e+00 6.766357810694827890e+01 3.590000000000000000e+02
3.972819375985984891e+00 6.720315291727855822e+01 3.590000000000000000e+02
5.309983780506835949e+00 6.674272772760883754e+01 3.590000000000000000e+02
6.647148185027687894e+00 6.628230253793913107e+01 3.590000000000000000e+02
7.984312589548538952e+00 6.582187734826941039e+01 3.590000000000000000e+02
9.321476994069390898e+00 6.536145215859968971e+01 3.590000000000000000e+02
1.065864139859024107e+01 6.490102696892996903e+01 3.590000000000000000e+02
-3.867383757657005816e-02 6.858442848628772026e+01 3.600000000000000000e+02
1.298490566944281888e+00 6.812400329661799958e+01 3.600000000000000000e+02
2.635654971465132945e+00 6.766357810694827890e+01 3.600000000000000000e+02
3.972819375985984891e+00 6.720315291727855822e+01 3.600000000000000000e+02
5.309983780506835949e+00 6.674272772760883754e+01 3.600000000000000000e+02
6.647148185027687894e+00 6.628230253793913107e+01 3.600000000000000000e+02
7.984312589548538952e+00 6.582187734826941039e+01 3.600000000000000000e+02
9.321476994069390898e+00 6.536145215859968971e+01 3.600000000000000000e+02
1.065864139859024107e+01 6.490102696892996903e+01 3.600000000000000000e+02
-4.770434450021365791e-01 6.948322328338299769e+01 3.610000000000000000e+02
8.601209595187153667e-01 6.902279809371329122e+01 3.610000000000000000e+02
2.197285364039566424e+00 6.856237290404357054e+01 3.610000000000000000e+02
3.534449768560418370e+00 6.810194771437384986e+01 3.610000000000000000e+02
4.871614173081269428e+00 6.764152252470412918e+01 3.610000000000000000e+02
6.208778577602121374e+00 6.718109733503440850e+01 3.610000000000000000e+02
7.545942982122973319e+00 6.672067214536468782e+01 3.610000000000000000e+02
8.883107386643825265e+00 6.626024695569496714e+01 3.610000000000000000e+02
1.022027179116467543e+01 6.579982176602526067e+01 3.610000000000000000e+02
1.155743619568552738e+01 6.533939657635553999e+01 3.610000000000000000e+02
-4.770434450021365791e-01 6.948322328338299769e+01 3.620000000000000000e+02
8.601209595187153667e-01 6.902279809371329122e+01 3.620000000000000000e+02
2.197285364039566424e+00 6.856237290404357054e+01 3.620000000000000000e+02
3.534449768560418370e+00 6.810194771437384986e+01 3.620000000000000000e+02
4.871614173081269428e+00 6.764152252470412918e+01 3.620000000000000000e+02
6.208778577602121374e+00 6.718109733503440850e+01 3.620000000000000000e+02
7.545942982122973319e+00 6.672067214536468782e+01 3.620000000000000000e+02
8.883107386643825265e+00 6.626024695569496714e+01 3.620000000000000000e+02
1.022027179116467543e+01 6.579982176602526067e+01 3.620000000000000000e+02
1.155743619568552738e+01 6.533939657635553999e+01 3.620000000000000000e+02
-4.770434450021365791e-01 6.948322328338299769e+01 3.630000000000000000e+02
8.601209595187153667e-01 6.902279809371329122e+01 3.630000000000000000e+02
2.197285364039566424e+00 6.856237290404357054e+01 3.630000000000000000e+02
3.534449768560418370e+00 6.810194771437384986e+01 3.630000000000000000e+02
4.871614173081269428e+00 6.764152252470412918e+01 3.630000000000000000e+02
6.208778577602121374e+00 6.718109733503440850e+01 3.630000000000000000e+02
7.545942982122973319e+00 6.672067214536468782e+01 3.630000000000000000e+02
8.883107386643825265e+00 6.626024695569496714e+01 3.630000000000000000e+02
1.022027179116467543e+01 6.579982176602526067e+01 3.630000000000000000e+02
1.155743619568552738e+01 6.533939657635553999e+01 3.630000000000000000e+02
1.289460060020637933e+01 6.487897138668581931e+01 3.630000000000000000e+02
-3.867383757657005816e-02 6.858442848628772026e+01 3.640000000000000000e+02
1.298490566944281888e+00 6.812400329661799958e+01 3.640000000000000000e+02
2.635654971465132945e+00 6.766357810694827890e+01 3.640000000000000000e+02
3.972819375985984891e+00 6.720315291727855822e+01 3.640000000000000000e+02
5.309983780506835949e+00 6.674272772760883754e+01 3.640000000000000000e+02
6.647148185027687894e+00 6.628230253793913107e+01 3.640000000000000000e+02
7.984312589548538952e+00 6.582187734826941039e+01 3.640000000000000000e+02
9.321476994069390898e+00 6.536145215859968971e+01 3.640000000000000000e+02
1.065864139859024107e+01 6.490102696892996903e+01 3.640000000000000000e+02
1.199580580311109479e+01 6.444060177926024835e+01 3.640000000000000000e+02
-3.867383757657005816e-02 6.858442848628772026e+01 3.650000000000000000e+02
1.298490566944281888e+00 6.812400329661799958e+01 3.650000000000000000e+02
2.635654971465132945e+00 6.766357810694827890e+01 3.650000000000000000e+02
3.972819375985984891e+00 6.720315291727855822e+01 3.650000000000000000e+02
5.309983780506835949e+00 6.674272772760883754e+01 3.650000000000000000e+02
6.647148185027687894e+00 6.628230253793913107e+01 3.650000000000000000e+02
7.984312589548538952e+00 6.582187734826941039e+01 3.650000000000000000e+02
9.321476994069390898e+00 6.536145215859968971e+01 3.650000000000000000e+02
1.065864139859024107e+01 6.490102696892996903e+01 3.650000000000000000e+02
-4.770434450021365791e-01 6.948322328338299769e+01 3.660000000000000000e+02
8.601209595187153667e-01 6.902279809371329122e+01 3.660000000000000000e+02
2.197285364039566424e+00 6.856237290404357054e+01 3.660000000000000000e+02
3.534449768560418370e+00 6.810194771437384986e+01 3.660000000000000000e+02
4.871614173081269428e+00 6.764152252470412918e+01 3.660000000000000000e+02
6.208778577602121374e+00 6.718109733503440850e+01 3.660000000000000000e+02
7.545942982122973319e+00 6.672067214536468782e+01 3.660000000000000000e+02
8.883107386643825265e+00 6.626024695569496714e+01 3.660000000000000000e+02
1.022027179116467543e+01 6.579982176602526067e+01 3.660000000000000000e+02
1.155743619568552738e+01 6.533939657635553999e+01 3.660000000000000000e+02
-4.770434450021365791e-01 6.948322328338299769e+01 3.670000000000000000e+02
8.601209595187153667e-01 6.902279809371329122e+01 3.670000000000000000e+02
2.197285364039566424e+00 6.856237290404357054e+01 3.670000000000000000e+02
3.534449768560418370e+00 6.810194771437384986e+01 3.670000000000000000e+02
4.871614173081269428e+00 6.764152252470412918e+01 3.670000000000000000e+02
6.208778577602121374e+00 6.718109733503440850e+01 3.670000000000000000e+02
7.545942982122973319e+00 6.672067214536468782e+01 3.670000000000000000e+02
8.883107386643825265e+00 6.626024695569496714e+01 3.670000000000000000e+02
1.022027179116467543e+01 6.579982176602526067e+01 3.670000000000000000e+02
1.155743619568552738e+01 6.533939657635553999e+01 3.670000000000000000e+02
-3.867383757657005816e-02 6.858442848628772026e+01 3.680000000000000000e+02
1.298490566944281888e+00 6.812400329661799958e+01 3.680000000000000000e+02
2.635654971465132945e+00 6.766357810694827890e+01 3.680000000000000000e+02
3.972819375985984891e+00 6.720315291727855822e+01 3.680000000000000000e+02
5.309983780506835949e+00 6.674272772760883754e+01 3.680000000000000000e+02
6.647148185027687894e+00 6.628230253793913107e+01 3.680000000000000000e+02
7.984312589548538952e+00 6.582187734826941039e+01 3.680000000000000000e+02
9.321476994069390898e+00 6.536145215859968971e+01 3.680000000000000000e+02
1.065864139859024107e+01 6.490102696892996903e+01 3.680000000000000000e+02
-3.867383757657005816e-02 6.858442848628772026e+01 3.690000000000000000e+02
1.298490566944281888e+00 6.812400329661799958e+01 3.690000000000000000e+02
2.635654971465132945e+00 6.766357810694827890e+01 3.690000000000000000e+02
3.972819375985984891e+00 6.720315291727855822e+01 3.690000000000000000e+02
5.309983780506835949e+00 6.674272772760883754e+01 3.690000000000000000e+02
6.647148185027687894e+00 6.628230253793913107e+01 3.690000000000000000e+02
7.984312589548538952e+00 6.582187734826941039e+01 3.690000000000000000e+02
9.321476994069390898e+00 6.536145215859968971e+01 3.690000000000000000e+02
1.065864139859024107e+01 6.490102696892996903e+01 3.690000000000000000e+02
-3.867383757657005816e-02 6.858442848628772026e+01 3.700000000000000000e+02
1.298490566944281888e+00 6.812400329661799958e+01 3.700000000000000000e+02
2.635654971465132945e+00 6.766357810694827890e+01 3.700000000000000000e+02
3.972819375985984891e+00 6.720315291727855822e+01 3.700000000000000000e+02
5.309983780506835949e+00 6.674272772760883754e+01 3.700000000000000000e+02
6.647148185027687894e+00 6.628230253793913107e+01 3.700000000000000000e+02
7.984312589548538952e+00 6.582187734826941039e+01 3.700000000000000000e+02
9.321476994069390898e+00 6.536145215859968971e+01 3.700000000000000000e+02
1.065864139859024107e+01 6.490102696892996903e+01 3.700000000000000000e+02
-4.770434450021365791e-01 6.948322328338299769e+01 3.710000000000000000e+02
8.601209595187153667e-01 6.902279809371329122e+01 3.710000000000000000e+02
2.197285364039566424e+00 6.856237290404357054e+01 3.710000000000000000e+02
3.534449768560418370e+00 6.810194771437384986e+01 3.710000000000000000e+02
4.871614173081269428e+00 6.764152252470412918e+01 3.710000000000000000e+02
6.208778577602121374e+00 6.718109733503440850e+01 3.710000000000000000e+02
7.545942982122973319e+00 6.672067214536468782e+01 3.710000000000000000e+02
8.883107386643825265e+00 6.626024695569496714e+01 3.710000000000000000e+02
1.022027179116467543e+01 6.579982176602526067e+01 3.710000000000000000e+02
1.155743619568552738e+01 6.533939657635553999e+01 3.710000000000000000e+02
-4.770434450021365791e-01 6.948322328338299769e+01 3.720000000000000000e+02
8.601209595187153667e-01 6.902279809371329122e+01 3.720000000000000000e+02
2.197285364039566424e+00 6.856237290404357054e+01 3.720000000000000000e+02
3.534449768560418370e+00 6.810194771437384986e+01 3.720000000000000000e+02
4.871614173081269428e+00 6.764152252470412918e+01 3.720000000000000000e+02
6.208778577602121374e+00 6.718109733503440850e+01 3.720000000000000000e+02
7.545942982122973319e+00 6.672067214536468782e+01 3.720000000000000000e+02
8.883107386643825265e+00 6.626024695569496714e+01 3.720000000000000000e+02
1.022027179116467543e+01 6.579982176602526067e+01 3.720000000000000000e+02
1.155743619568552738e+01 6.533939657635553999e+01 3.720000000000000000e+02
-4.770434450021365791e-01 6.948322328338299769e+01 3.730000000000000000e+02
8.601209595187153667e-01 6.902279809371329122e+01 3.730000000000000000e+02
2.197285364039566424e+00 6.856237290404357054e+01 3.730000000000000000e+02
3.534449768560418370e+00 6.810194771437384986e+01 3.730000000000000000e+02
4.871614173081269428e+00 6.764152252470412918e+01 3.730000000000000000e+02
6.208778577602121374e+00 6.718109733503440850e+01 3.730000000000000000e+02
7.545942982122973319e+00 6.672067214536468782e+01 3.730000000000000000e+02
8.883107386643825265e+00 6.626024695569496714e+01 3.730000000000000000e+02
1.022027179116467543e+01 6.579982176602526067e+01 3.730000000000000000e+02
1.155743619568552738e+01 6.533939657635553999e+01 3.730000000000000000e+02
-4.770434450021365791e-01 6.948322328338299769e+01 3.740000000000000000e+02
8.601209595187153667e-01 6.902279809371329122e+01 3.740000000000000000e+02
2.197285364039566424e+00 6.856237290404357054e+01 3.740000000000000000e+02
3.534449768560418370e+00 6.810194771437384986e+01 3.740000000000000000e+02
4.871614173081269428e+00 6.764152252470412918e+01 3.740000000000000000e+02
6.208778577602121374e+00 6.718109733503440850e+01 3.740000000000000000e+02
7.545942982122973319e+00 6.672067214536468782e+01 3.740000000000000000e+02
8.883107386643825265e+00 6.626024695569496714e+01 3.740000000000000000e+02
1.022027179116467543e+01 6.579982176602526067e+01 3.740000000000000000e+02
1.155743619568552738e+01 6.533939657635553999e+01 3.740000000000000000e+02
1.289460060020637933e+01 6.487897138668581931e+01 3.740000000000000000e+02
-3.867383757657005816e-02 6.858442848628772026e+01 3.750000000000000000e+02
1.298490566944281888e+00 6.812400329661799958e+01 3.750000000000000000e+02
2.635654971465132945e+00 6.766357810694827890e+01 3.750000000000000000e+02
3.972819375985984891e+00 6.720315291727855822e+01 3.750000000000000000e+02
5.309983780506835949e+00 6.674272772760883754e+01 3.750000000000000000e+02
6.647148185027687894e+00 6.628230253793913107e+01 3.750000000000000000e+02
7.984312589548538952e+00 6.582187734826941039e+01 3.750000000000000000e+02
9.321476994069390898e+00 6.536145215859968971e+01 3.750000000000000000e+02
1.065864139859024107e+01 6.490102696892996903e+01 3.750000000000000000e+02
1.199580580311109479e+01 6.444060177926024835e+01 3.750000000000000000e+02
-3.867383757657005816e-02 6.858442848628772026e+01 3.760000000000000000e+02
1.298490566944281888e+00 6.812400329661799958e+01 3.760000000000000000e+02
2.635654971465132945e+00 6.766357810694827890e+01 3.760000000000000000e+02
3.972819375985984891e+00 6.720315291727855822e+01 3.760000000000000000e+02
5.309983780506835949e+00 6.674272772760883754e+01 3.760000000000000000e+02
6.647148185027687894e+00 6.628230253793913107e+01 3.760000000000000000e+02
7.984312589548538952e+00 6.582187734826941039e+01 3.760000000000000000e+02
9.321476994069390898e+00 6.536145215859968971e+01 3.760000000000000000e+02
1.065864139859024107e+01 6.490102696892996903e+01 3.760000000000000000e+02
1.199580580311109479e+01 6.444060177926024835e+01 3.760000000000000000e+02
-3.867383757657005816e-02 6.858442848628772026e+01 3.770000000000000000e+02
1.298490566944281888e+00 6.812400329661799958e+01 3.770000000000000000e+02
2.635654971465132945e+00 6.766357810694827890e+01 3.770000000000000000e+02
3.972819375985984891e+00 6.720315291727855822e+01 3.770000000000000000e+02
5.309983780506835949e+00 6.674272772760883754e+01 3.770000000000000000e+02
6.647148185027687894e+00 6.628230253793913107e+01 3.770000000000000000e+02
7.984312589548538952e+00 6.582187734826941039e+01 3.770000000000000000e+02
9.321476994069390898e+00 6.536145215859968971e+01 3.770000000000000000e+02
