5.069403898990035295e-02 4.248784225849569829e+00 3.340000000000000000e+02
2.414134066089451969e-01 5.650078671287428023e+00 3.340000000000000000e+02
-1.284341534343412583e+00 -5.560276892215429534e+00 3.350000000000000000e+02
-1.093622166724367961e+00 -4.158982446777573116e+00 3.350000000000000000e+02
-9.029027991053230062e-01 -2.757688001339716255e+00 3.350000000000000000e+02
-7.121834314862786064e-01 -1.356393555901858949e+00 3.350000000000000000e+02
-5.214640638672338735e-01 4.490088953599841171e-02 3.350000000000000000e+02
-3.307446962481890851e-01 1.446195334973855440e+00 3.350000000000000000e+02
-1.400253286291442689e-01 2.847489780411712967e+00 3.350000000000000000e+02
5.069403898990035295e-02 4.248784225849569829e+00 3.350000000000000000e+02
2.414134066089451969e-01 5.650078671287428023e+00 3.350000000000000000e+02
-1.284341534343412583e+00 -5.560276892215429534e+00 3.360000000000000000e+02
-1.093622166724367961e+00 -4.158982446777573116e+00 3.360000000000000000e+02
-9.029027991053230062e-01 -2.757688001339716255e+00 3.360000000000000000e+02
-7.121834314862786064e-01 -1.356393555901858949e+00 3.360000000000000000e+02
-5.214640638672338735e-01 4.490088953599841171e-02 3.360000000000000000e+02
-3.307446962481890851e-01 1.446195334973855440e+00 3.360000000000000000e+02
-1.400253286291442689e-01 2.847489780411712967e+00 3.360000000000000000e+02
5.069403898990035295e-02 4.248784225849569829e+00 3.360000000000000000e+02
2.414134066089451969e-01 5.650078671287428023e+00 3.360000000000000000e+02
-1.284341534343412583e+00 -5.560276892215429534e+00 3.370000000000000000e+02
-1.093622166724367961e+00 -4.158982446777573116e+00 3.370000000000000000e+02
-9.029027991053230062e-01 -2.757688001339716255e+00 3.370000000000000000e+02
-7.121834314862786064e-01 -1.356393555901858949e+00 3.370000000000000000e+02
-5.214640638672338735e-01 4.490088953599841171e-02 3.370000000000000000e+02
-3.307446962481890851e-01 1.446195334973855440e+00 3.370000000000000000e+02
-1.400253286291442689e-01 2.847489780411712967e+00 3.370000000000000000e+02
5.069403898990035295e-02 4.248784225849569829e+00 3.370000000000000000e+02
2.414134066089451969e-01 5.650078671287428023e+00 3.370000000000000000e+02
-1.284341534343412583e+00 -5.560276892215429534e+00 3.380000000000000000e+02
-1.093622166724367961e+00 -4.158982446777573116e+00 3.380000000000000000e+02
-9.029027991053230062e-01 -2.757688001339716255e+00 3.380000000000000000e+02
-7.121834314862786064e-01 -1.356393555901858949e+00 3.380000000000000000e+02
-5.214640638672338735e-01 4.490088953599841171e-02 3.380000000000000000e+02
-3.307446962481890851e-01 1.446195334973855440e+00 3.380000000000000000e+02
-1.400253286291442689e-01 2.847489780411712967e+00 3.380000000000000000e+02
5.069403898990035295e-02 4.248784225849569829e+00 3.380000000000000000e+02
2.414134066089451969e-01 5.650078671287428023e+00 3.380000000000000000e+02
-1.284341534343412583e+00 -5.560276892215429534e+00 3.390000000000000000e+02
-1.093622166724367961e+00 -4.158982446777573116e+00 3.390000000000000000e+02
-9.029027991053230062e-01 -2.757688001339716255e+00 3.390000000000000000e+02
-7.121834314862786064e-01 -1.356393555901858949e+00 3.390000000000000000e+02
-5.214640638672338735e-01 4.490088953599841171e-02 3.390000000000000000e+02
-3.307446962481890851e-01 1.446195334973855440e+00 3.390000000000000000e+02
-1.400253286291442689e-01 2.847489780411712967e+00 3.390000000000000000e+02
5.069403898990035295e-02 4.248784225849569829e+00 3.390000000000000000e+02
2.414134066089451969e-01 5.650078671287428023e+00 3.390000000000000000e+02
-1.284341534343412583e+00 -5.560276892215429534e+00 3.400000000000000000e+02
-1.093622166724367961e+00 -4.158982446777573116e+00 3.400000000000000000e+02
-9.029027991053230062e-01 -2.757688001339716255e+00 3.400000000000000000e+02
-7.121834314862786064e-01 -1.356393555901858949e+00 3.400000000000000000e+02
-5.214640638672338735e-01 4.490088953599841171e-02 3.400000000000000000e+02
-3.307446962481890851e-01 1.446195334973855440e+00 3.400000000000000000e+02
-1.400253286291442689e-01 2.847489780411712967e+00 3.400000000000000000e+02
5.069403898990035295e-02 4.248784225849569829e+00 3.400000000000000000e+02
2.414134066089451969e-01 5.650078671287428023e+00 3.400000000000000000e+02
-1.284341534343412583e+00 -5.560276892215429534e+00 3.410000000000000000e+02
-1.093622166724367961e+00 -4.158982446777573116e+00 3.410000000000000000e+02
-9.029027991053230062e-01 -2.757688001339716255e+00 3.410000000000000000e+02
-7.121834314862786064e-01 -1.356393555901858949e+00 3.410000000000000000e+02
-5.214640638672338735e-01 4.490088953599841171e-02 3.410000000000000000e+02
-3.307446962481890851e-01 1.446195334973855440e+00 3.410000000000000000e+02
-1.400253286291442689e-01 2.847489780411712967e+00 3.410000000000000000e+02
5.069403898990035295e-02 4.248784225849569829e+00 3.410000000000000000e+02
2.414134066089451969e-01 5.650078671287428023e+00 3.410000000000000000e+02
-1.284341534343412583e+00 -5.560276892215429534e+00 3.420000000000000000e+02
-1.093622166724367961e+00 -4.158982446777573116e+00 3.420000000000000000e+02
-9.029027991053230062e-01 -2.757688001339716255e+00 3.420000000000000000e+02
-7.121834314862786064e-01 -1.356393555901858949e+00 3.420000000000000000e+02
-5.214640638672338735e-01 4.490088953599841171e-02 3.420000000000000000e+02
-3.307446962481890851e-01 1.446195334973855440e+00 3.420000000000000000e+02
-1.400253286291442689e-01 2.847489780411712967e+00 3.420000000000000000e+02
5.069403898990035295e-02 4.248784225849569829e+00 3.420000000000000000e+02
2.414134066089451969e-01 5.650078671287428023e+00 3.420000000000000000e+02
-4.883346278149619524e-01 -4.954989353306023858e+00 3.430000000000000000e+02
-2.976152601959168864e-01 -3.553694907868166997e+00 3.430000000000000000e+02
-1.068958925768722368e-01 -2.152400462430309691e+00 3.430000000000000000e+02
8.382347504217238510e-02 -7.511060169924526075e-01 3.430000000000000000e+02
2.745428426612170902e-01 6.501884284454046981e-01 3.430000000000000000e+02
4.652622102802618231e-01 2.051482873883261782e+00 3.430000000000000000e+02
6.559815778993066671e-01 3.452777319321119087e+00 3.430000000000000000e+02
8.467009455183515110e-01 4.854071764758976393e+00 3.430000000000000000e+02
1.037420313137396466e+00 6.255366210196834587e+00 3.430000000000000000e+02
-4.883346278149619524e-01 -4.954989353306023858e+00 3.440000000000000000e+02
-2.976152601959168864e-01 -3.553694907868166997e+00 3.440000000000000000e+02
-1.068958925768722368e-01 -2.152400462430309691e+00 3.440000000000000000e+02
8.382347504217238510e-02 -7.511060169924526075e-01 3.440000000000000000e+02
2.745428426612170902e-01 6.501884284454046981e-01 3.440000000000000000e+02
4.652622102802618231e-01 2.051482873883261782e+00 3.440000000000000000e+02
6.559815778993066671e-01 3.452777319321119087e+00 3.440000000000000000e+02
8.467009455183515110e-01 4.854071764758976393e+00 3.440000000000000000e+02
1.037420313137396466e+00 6.255366210196834587e+00 3.440000000000000000e+02
-4.883346278149619524e-01 -4.954989353306023858e+00 3.450000000000000000e+02
-2.976152601959168864e-01 -3.553694907868166997e+00 3.450000000000000000e+02
-1.068958925768722368e-01 -2.152400462430309691e+00 3.450000000000000000e+02
8.382347504217238510e-02 -7.511060169924526075e-01 3.450000000000000000e+02
2.745428426612170902e-01 6.501884284454046981e-01 3.450000000000000000e+02
4.652622102802618231e-01 2.051482873883261782e+00 3.450000000000000000e+02
6.559815778993066671e-01 3.452777319321119087e+00 3.450000000000000000e+02
8.467009455183515110e-01 4.854071764758976393e+00 3.450000000000000000e+02
1.037420313137396466e+00 6.255366210196834587e+00 3.450000000000000000e+02
-1.284341534343412583e+00 -5.560276892215429534e+00 3.460000000000000000e+02
-1.093622166724367961e+00 -4.158982446777573116e+00 3.460000000000000000e+02
-9.029027991053230062e-01 -2.757688001339716255e+00 3.460000000000000000e+02
-7.121834314862786064e-01 -1.356393555901858949e+00 3.460000000000000000e+02
-5.214640638672338735e-01 4.490088953599841171e-02 3.460000000000000000e+02
-3.307446962481890851e-01 1.446195334973855440e+00 3.460000000000000000e+02
-1.400253286291442689e-01 2.847489780411712967e+00 3.460000000000000000e+02
5.069403898990035295e-02 4.248784225849569829e+00 3.460000000000000000e+02
2.414134066089451969e-01 5.650078671287428023e+00 3.460000000000000000e+02
4.321327742279902351e-01 7.051373116725285328e+00 3.460000000000000000e+02
-1.284341534343412583e+00 -5.560276892215429534e+00 3.470000000000000000e+02
-1.093622166724367961e+00 -4.158982446777573116e+00 3.470000000000000000e+02
-9.029027991053230062e-01 -2.757688001339716255e+00 3.470000000000000000e+02
-7.121834314862786064e-01 -1.356393555901858949e+00 3.470000000000000000e+02
-5.214640638672338735e-01 4.490088953599841171e-02 3.470000000000000000e+02
-3.307446962481890851e-01 1.446195334973855440e+00 3.470000000000000000e+02
-1.400253286291442689e-01 2.847489780411712967e+00 3.470000000000000000e+02
5.069403898990035295e-02 4.248784225849569829e+00 3.470000000000000000e+02
2.414134066089451969e-01 5.650078671287428023e+00 3.470000000000000000e+02
4.321327742279902351e-01 7.051373116725285328e+00 3.470000000000000000e+02
-4.883346278149619524e-01 -4.954989353306023858e+00 3.480000000000000000e+02
-2.976152601959168864e-01 -3.553694907868166997e+00 3.480000000000000000e+02
-1.068958925768722368e-01 -2.152400462430309691e+00 3.480000000000000000e+02
8.382347504217238510e-02 -7.511060169924526075e-01 3.480000000000000000e+02
2.745428426612170902e-01 6.501884284454046981e-01 3.480000000000000000e+02
4.652622102802618231e-01 2.051482873883261782e+00 3.480000000000000000e+02
6.559815778993066671e-01 3.452777319321119087e+00 3.480000000000000000e+02
8.467009455183515110e-01 4.854071764758976393e+00 3.480000000000000000e+02
-4.883346278149619524e-01 -4.954989353306023858e+00 3.490000000000000000e+02
-2.976152601959168864e-01 -3.553694907868166997e+00 3.490000000000000000e+02
-1.068958925768722368e-01 -2.152400462430309691e+00 3.490000000000000000e+02
8.382347504217238510e-02 -7.511060169924526075e-01 3.490000000000000000e+02
2.745428426612170902e-01 6.501884284454046981e-01 3.490000000000000000e+02
4.652622102802618231e-01 2.051482873883261782e+00 3.490000000000000000e+02
6.559815778993066671e-01 3.452777319321119087e+00 3.490000000000000000e+02
8.467009455183515110e-01 4.854071764758976393e+00 3.490000000000000000e+02
-4.883346278149619524e-01 -4.954989353306023858e+00 3.500000000000000000e+02
-2.976152601959168864e-01 -3.553694907868166997e+00 3.500000000000000000e+02
-1.068958925768722368e-01 -2.152400462430309691e+00 3.500000000000000000e+02
8.382347504217238510e-02 -7.511060169924526075e-01 3.500000000000000000e+02
2.745428426612170902e-01 6.501884284454046981e-01 3.500000000000000000e+02
4.652622102802618231e-01 2.051482873883261782e+00 3.500000000000000000e+02
6.559815778993066671e-01 3.452777319321119087e+00 3.500000000000000000e+02
8.467009455183515110e-01 4.854071764758976393e+00 3.500000000000000000e+02
-1.284341534343412583e+00 -5.560276892215429534e+00 3.510000000000000000e+02
-1.093622166724367961e+00 -4.158982446777573116e+00 3.510000000000000000e+02
-9.029027991053230062e-01 -2.757688001339716255e+00 3.510000000000000000e+02
-7.121834314862786064e-01 -1.356393555901858949e+00 3.510000000000000000e+02
-5.214640638672338735e-01 4.490088953599841171e-02 3.510000000000000000e+02
-3.307446962481890851e-01 1.446195334973855440e+00 3.510000000000000000e+02
-1.400253286291442689e-01 2.847489780411712967e+00 3.510000000000000000e+02
5.069403898990035295e-02 4.248784225849569829e+00 3.510000000000000000e+02
2.414134066089451969e-01 5.650078671287428023e+00 3.510000000000000000e+02
4.321327742279902351e-01 7.051373116725285328e+00 3.510000000000000000e+02
-1.284341534343412583e+00 -5.560276892215429534e+00 3.520000000000000000e+02
-1.093622166724367961e+00 -4.158982446777573116e+00 3.520000000000000000e+02
-9.029027991053230062e-01 -2.757688001339716255e+00 3.520000000000000000e+02
-7.121834314862786064e-01 -1.356393555901858949e+00 3.520000000000000000e+02
-5.214640638672338735e-01 4.490088953599841171e-02 3.520000000000000000e+02
-3.307446962481890851e-01 1.446195334973855440e+00 3.520000000000000000e+02
-1.400253286291442689e-01 2.847489780411712967e+00 3.520000000000000000e+02
5.069403898990035295e-02 4.248784225849569829e+00 3.520000000000000000e+02
2.414134066089451969e-01 5.650078671287428023e+00 3.520000000000000000e+02
4.321327742279902351e-01 7.051373116725285328e+00 3.520000000000000000e+02
-1.284341534343412583e+00 -5.560276892215429534e+00 3.530000000000000000e+02
-1.093622166724367961e+00 -4.158982446777573116e+00 3.530000000000000000e+02
-9.029027991053230062e-01 -2.757688001339716255e+00 3.530000000000000000e+02
-7.121834314862786064e-01 -1.356393555901858949e+00 3.530000000000000000e+02
-5.214640638672338735e-01 4.490088953599841171e-02 3.530000000000000000e+02
-3.307446962481890851e-01 1.446195334973855440e+00 3.530000000000000000e+02
-1.400253286291442689e-01 2.847489780411712967e+00 3.530000000000000000e+02
5.069403898990035295e-02 4.248784225849569829e+00 3.530000000000000000e+02
2.414134066089451969e-01 5.650078671287428023e+00 3.530000000000000000e+02
4.321327742279902351e-01 7.051373116725285328e+00 3.530000000000000000e+02
-4.883346278149619524e-01 -4.954989353306023858e+00 3.540000000000000000e+02
-2.976152601959168864e-01 -3.553694907868166997e+00 3.540000000000000000e+02
-1.068958925768722368e-01 -2.152400462430309691e+00 3.540000000000000000e+02
8.382347504217238510e-02 -7.511060169924526075e-01 3.540000000000000000e+02
2.745428426612170902e-01 6.501884284454046981e-01 3.540000000000000000e+02
4.652622102802618231e-01 2.051482873883261782e+00 3.540000000000000000e+02
6.559815778993066671e-01 3.452777319321119087e+00 3.540000000000000000e+02
8.467009455183515110e-01 4.854071764758976393e+00 3.540000000000000000e+02
1.037420313137396466e+00 6.255366210196834587e+00 3.540000000000000000e+02
-4.883346278149619524e-01 -4.954989353306023858e+00 3.550000000000000000e+02
-2.976152601959168864e-01 -3.553694907868166997e+00 3.550000000000000000e+02
-1.068958925768722368e-01 -2.152400462430309691e+00 3.550000000000000000e+02
8.382347504217238510e-02 -7.511060169924526075e-01 3.550000000000000000e+02
2.745428426612170902e-01 6.501884284454046981e-01 3.550000000000000000e+02
4.652622102802618231e-01 2.051482873883261782e+00 3.550000000000000000e+02
6.559815778993066671e-01 3.452777319321119087e+00 3.550000000000000000e+02
8.467009455183515110e-01 4.854071764758976393e+00 3.550000000000000000e+02
1.037420313137396466e+00 6.255366210196834587e+00 3.550000000000000000e+02
-4.883346278149619524e-01 -4.954989353306023858e+00 3.560000000000000000e+02
-2.976152601959168864e-01 -3.553694907868166997e+00 3.560000000000000000e+02
-1.068958925768722368e-01 -2.152400462430309691e+00 3.560000000000000000e+02
8.382347504217238510e-02 -7.511060169924526075e-01 3.560000000000000000e+02
2.745428426612170902e-01 6.501884284454046981e-01 3.560000000000000000e+02
4.652622102802618231e-01 2.051482873883261782e+00 3.560000000000000000e+02
6.559815778993066671e-01 3.452777319321119087e+00 3.560000000000000000e+02
8.467009455183515110e-01 4.854071764758976393e+00 3.560000000000000000e+02
1.037420313137396466e+00 6.255366210196834587e+00 3.560000000000000000e+02
-4.883346278149619524e-01 -4.954989353306023858e+00 3.570000000000000000e+02
-2.976152601959168864e-01 -3.553694907868166997e+00 3.570000000000000000e+02
-1.068958925768722368e-01 -2.152400462430309691e+00 3.570000000000000000e+02
8.382347504217238510e-02 -7.511060169924526075e-01 3.570000000000000000e+02
2.745428426612170902e-01 6.501884284454046981e-01 3.570000000000000000e+02
4.652622102802618231e-01 2.051482873883261782e+00 3.570000000000000000e+02
6.559815778993066671e-01 3.452777319321119087e+00 3.570000000000000000e+02
8.467009455183515110e-01 4.854071764758976393e+00 3.570000000000000000e+02
1.037420313137396466e+00 6.255366210196834587e+00 3.570000000000000000e+02
-1.284341534343412583e+00 -5.560276892215429534e+00 3.580000000000000000e+02
-1.093622166724367961e+00 -4.158982446777573116e+00 3.580000000000000000e+02
-9.029027991053230062e-01 -2.757688001339716255e+00 3.580000000000000000e+02
-7.121834314862786064e-01 -1.356393555901858949e+00 3.580000000000000000e+02
-5.214640638672338735e-01 4.490088953599841171e-02 3.580000000000000000e+02
-3.307446962481890851e-01 1.446195334973855440e+00 3.580000000000000000e+02
-1.400253286291442689e-01 2.847489780411712967e+00 3.580000000000000000e+02
5.069403898990035295e-02 4.248784225849569829e+00 3.580000000000000000e+02
2.414134066089451969e-01 5.650078671287428023e+00 3.580000000000000000e+02
4.321327742279902351e-01 7.051373116725285328e+00 3.580000000000000000e+02
-1.284341534343412583e+00 -5.560276892215429534e+00 3.590000000000000000e+02
-1.093622166724367961e+00 -4.158982446777573116e+00 3.590000000000000000e+02
-9.029027991053230062e-01 -2.757688001339716255e+00 3.590000000000000000e+02
-7.121834314862786064e-01 -1.356393555901858949e+00 3.590000000000000000e+02
-5.214640638672338735e-01 4.490088953599841171e-02 3.590000000000000000e+02
-3.307446962481890851e-01 1.446195334973855440e+00 3.590000000000000000e+02
-1.400253286291442689e-01 2.847489780411712967e+00 3.590000000000000000e+02
5.069403898990035295e-02 4.248784225849569829e+00 3.590000000000000000e+02
2.414134066089451969e-01 5.650078671287428023e+00 3.590000000000000000e+02
4.321327742279902351e-01 7.051373116725285328e+00 3.590000000000000000e+02
-4.883346278149619524e-01 -4.954989353306023858e+00 3.600000000000000000e+02
-2.976152601959168864e-01 -3.553694907868166997e+00 3.600000000000000000e+02
-1.068958925768722368e-01 -2.152400462430309691e+00 3.600000000000000000e+02
8.382347504217238510e-02 -7.511060169924526075e-01 3.600000000000000000e+02
2.745428426612170902e-01 6.501884284454046981e-01 3.600000000000000000e+02
4.652622102802618231e-01 2.051482873883261782e+00 3.600000000000000000e+02
6.559815778993066671e-01 3.452777319321119087e+00 3.600000000000000000e+02
8.467009455183515110e-01 4.854071764758976393e+00 3.600000000000000000e+02
1.037420313137396466e+00 6.255366210196834587e+00 3.600000000000000000e+02
-4.883346278149619524e-01 -4.954989353306023858e+00 3.610000000000000000e+02
-2.976152601959168864e-01 -3.553694907868166997e+00 3.610000000000000000e+02
-1.068958925768722368e-01 -2.152400462430309691e+00 3.610000000000000000e+02
8.382347504217238510e-02 -7.511060169924526075e-01 3.610000000000000000e+02
2.745428426612170902e-01 6.501884284454046981e-01 3.610000000000000000e+02
4.652622102802618231e-01 2.051482873883261782e+00 3.610000000000000000e+02
6.559815778993066671e-01 3.452777319321119087e+00 3.610000000000000000e+02
8.467009455183515110e-01 4.854071764758976393e+00 3.610000000000000000e+02
1.037420313137396466e+00 6.255366210196834587e+00 3.610000000000000000e+02
3.076722787134892334e-01 -4.349701814396617294e+00 3.620000000000000000e+02
4.983916463325338553e-01 -2.948407368958760877e+00 3.620000000000000000e+02
6.891110139515786992e-01 -1.547112923520903571e+00 3.620000000000000000e+02
8.798303815706233211e-01 -1.458184780830463212e-01 3.620000000000000000e+02
1.070549749189668054e+00 1.255475967354810818e+00 3.620000000000000000e+02
1.261269116808712898e+00 2.656770412792667901e+00 3.620000000000000000e+02
1.451988484427757964e+00 4.058064858230525651e+00 3.620000000000000000e+02
1.642707852046802808e+00 5.459359303668382957e+00 3.620000000000000000e+02
-4.883346278149619524e-01 -4.954989353306023858e+00 3.630000000000000000e+02
-2.976152601959168864e-01 -3.553694907868166997e+00 3.630000000000000000e+02
-1.068958925768722368e-01 -2.152400462430309691e+00 3.630000000000000000e+02
8.382347504217238510e-02 -7.511060169924526075e-01 3.630000000000000000e+02
2.745428426612170902e-01 6.501884284454046981e-01 3.630000000000000000e+02
4.652622102802618231e-01 2.051482873883261782e+00 3.630000000000000000e+02
6.559815778993066671e-01 3.452777319321119087e+00 3.630000000000000000e+02
8.467009455183515110e-01 4.854071764758976393e+00 3.630000000000000000e+02
1.037420313137396466e+00 6.255366210196834587e+00 3.630000000000000000e+02
-4.883346278149619524e-01 -4.954989353306023858e+00 3.640000000000000000e+02
-2.976152601959168864e-01 -3.553694907868166997e+00 3.640000000000000000e+02
-1.068958925768722368e-01 -2.152400462430309691e+00 3.640000000000000000e+02
8.382347504217238510e-02 -7.511060169924526075e-01 3.640000000000000000e+02
2.745428426612170902e-01 6.501884284454046981e-01 3.640000000000000000e+02
4.652622102802618231e-01 2.051482873883261782e+00 3.640000000000000000e+02
6.559815778993066671e-01 3.452777319321119087e+00 3.640000000000000000e+02
8.467009455183515110e-01 4.854071764758976393e+00 3.640000000000000000e+02
1.037420313137396466e+00 6.255366210196834587e+00 3.640000000000000000e+02
-1.284341534343412583e+00 -5.560276892215429534e+00 3.650000000000000000e+02
-1.093622166724367961e+00 -4.158982446777573116e+00 3.650000000000000000e+02
-9.029027991053230062e-01 -2.757688001339716255e+00 3.650000000000000000e+02
-7.121834314862786064e-01 -1.356393555901858949e+00 3.650000000000000000e+02
-5.214640638672338735e-01 4.490088953599841171e-02 3.650000000000000000e+02
-3.307446962481890851e-01 1.446195334973855440e+00 3.650000000000000000e+02
-1.400253286291442689e-01 2.847489780411712967e+00 3.650000000000000000e+02
5.069403898990035295e-02 4.248784225849569829e+00 3.650000000000000000e+02
2.414134066089451969e-01 5.650078671287428023e+00 3.650000000000000000e+02
4.321327742279902351e-01 7.051373116725285328e+00 3.650000000000000000e+02
-4.883346278149619524e-01 -4.954989353306023858e+00 3.660000000000000000e+02
-2.976152601959168864e-01 -3.553694907868166997e+00 3.660000000000000000e+02
-1.068958925768722368e-01 -2.152400462430309691e+00 3.660000000000000000e+02
8.382347504217238510e-02 -7.511060169924526075e-01 3.660000000000000000e+02
2.745428426612170902e-01 6.501884284454046981e-01 3.660000000000000000e+02
4.652622102802618231e-01 2.051482873883261782e+00 3.660000000000000000e+02
6.559815778993066671e-01 3.452777319321119087e+00 3.660000000000000000e+02
8.467009455183515110e-01 4.854071764758976393e+00 3.660000000000000000e+02
1.037420313137396466e+00 6.255366210196834587e+00 3.660000000000000000e+02
-4.883346278149619524e-01 -4.954989353306023858e+00 3.670000000000000000e+02
-2.976152601959168864e-01 -3.553694907868166997e+00 3.670000000000000000e+02
-1.068958925768722368e-01 -2.152400462430309691e+00 3.670000000000000000e+02
8.382347504217238510e-02 -7.511060169924526075e-01 3.670000000000000000e+02
2.745428426612170902e-01 6.501884284454046981e-01 3.670000000000000000e+02
4.652622102802618231e-01 2.051482873883261782e+00 3.670000000000000000e+02
6.559815778993066671e-01 3.452777319321119087e+00 3.670000000000000000e+02
8.467009455183515110e-01 4.854071764758976393e+00 3.670000000000000000e+02
1.037420313137396466e+00 6.255366210196834587e+00 3.670000000000000000e+02
-4.883346278149619524e-01 -4.954989353306023858e+00 3.680000000000000000e+02
-2.976152601959168864e-01 -3.553694907868166997e+00 3.680000000000000000e+02
-1.068958925768722368e-01 -2.152400462430309691e+00 3.680000000000000000e+02
8.382347504217238510e-02 -7.511060169924526075e-01 3.680000000000000000e+02
2.745428426612170902e-01 6.501884284454046981e-01 3.680000000000000000e+02
4.652622102802618231e-01 2.051482873883261782e+00 3.680000000000000000e+02
6.559815778993066671e-01 3.452777319321119087e+00 3.680000000000000000e+02
8.467009455183515110e-01 4.854071764758976393e+00 3.680000000000000000e+02
-4.883346278149619524e-01 -4.954989353306023858e+00 3.690000000000000000e+02
-2.976152601959168864e-01 -3.553694907868166997e+00 3.690000000000000000e+02
-1.068958925768722368e-01 -2.152400462430309691e+00 3.690000000000000000e+02
8.382347504217238510e-02 -7.511060169924526075e-01 3.690000000000000000e+02
2.745428426612170902e-01 6.501884284454046981e-01 3.690000000000000000e+02
4.652622102802618231e-01 2.051482873883261782e+00 3.690000000000000000e+02
6.559815778993066671e-01 3.452777319321119087e+00 3.690000000000000000e+02
8.467009455183515110e-01 4.854071764758976393e+00 3.690000000000000000e+02
-4.883346278149619524e-01 -4.954989353306023858e+00 3.700000000000000000e+02
-2.976152601959168864e-01 -3.553694907868166997e+00 3.700000000000000000e+02
-1.068958925768722368e-01 -2.152400462430309691e+00 3.700000000000000000e+02
8.382347504217238510e-02 -7.511060169924526075e-01 3.700000000000000000e+02
2.745428426612170902e-01 6.501884284454046981e-01 3.700000000000000000e+02
4.652622102802618231e-01 2.051482873883261782e+00 3.700000000000000000e+02
6.559815778993066671e-01 3.452777319321119087e+00 3.700000000000000000e+02
8.467009455183515110e-01 4.854071764758976393e+00 3.700000000000000000e+02
1.037420313137396466e+00 6.255366210196834587e+00 3.700000000000000000e+02
-4.883346278149619524e-01 -4.954989353306023858e+00 3.710000000000000000e+02
-2.976152601959168864e-01 -3.553694907868166997e+00 3.710000000000000000e+02
-1.068958925768722368e-01 -2.152400462430309691e+00 3.710000000000000000e+02
8.382347504217238510e-02 -7.511060169924526075e-01 3.710000000000000000e+02
2.745428426612170902e-01 6.501884284454046981e-01 3.710000000000000000e+02
4.652622102802618231e-01 2.051482873883261782e+00 3.710000000000000000e+02
6.559815778993066671e-01 3.452777319321119087e+00 3.710000000000000000e+02
8.467009455183515110e-01 4.854071764758976393e+00 3.710000000000000000e+02
1.037420313137396466e+00 6.255366210196834587e+00 3.710000000000000000e+02
-4.883346278149619524e-01 -4.954989353306023858e+00 3.720000000000000000e+02
-2.976152601959168864e-01 -3.553694907868166997e+00 3.720000000000000000e+02
-1.068958925768722368e-01 -2.152400462430309691e+00 3.720000000000000000e+02
8.382347504217238510e-02 -7.511060169924526075e-01 3.720000000000000000e+02
2.745428426612170902e-01 6.501884284454046981e-01 3.720000000000000000e+02
4.652622102802618231e-01 2.051482873883261782e+00 3.720000000000000000e+02
6.559815778993066671e-01 3.452777319321119087e+00 3.720000000000000000e+02
8.467009455183515110e-01 4.854071764758976393e+00 3.720000000000000000e+02
1.037420313137396466e+00 6.255366210196834587e+00 3.720000000000000000e+02
-4.883346278149619524e-01 -4.954989353306023858e+00 3.730000000000000000e+02
-2.976152601959168864e-01 -3.553694907868166997e+00 3.730000000000000000e+02
-1.068958925768722368e-01 -2.152400462430309691e+00 3.730000000000000000e+02
8.382347504217238510e-02 -7.511060169924526075e-01 3.730000000000000000e+02
2.745428426612170902e-01 6.501884284454046981e-01 3.730000000000000000e+02
4.652622102802618231e-01 2.051482873883261782e+00 3.730000000000000000e+02
6.559815778993066671e-01 3.452777319321119087e+00 3.730000000000000000e+02
8.467009455183515110e-01 4.854071764758976393e+00 3.730000000000000000e+02
1.037420313137396466e+00 6.255366210196834587e+00 3.730000000000000000e+02
-4.883346278149619524e-01 -4.954989353306023858e+00 3.740000000000000000e+02
-2.976152601959168864e-01 -3.553694907868166997e+00 3.740000000000000000e+02
-1.068958925768722368e-01 -2.152400462430309691e+00 3.740000000000000000e+02
8.382347504217238510e-02 -7.511060169924526075e-01 3.740000000000000000e+02
2.745428426612170902e-01 6.501884284454046981e-01 3.740000000000000000e+02
4.652622102802618231e-01 2.051482873883261782e+00 3.740000000000000000e+02
6.559815778993066671e-01 3.452777319321119087e+00 3.740000000000000000e+02
8.467009455183515110e-01 4.854071764758976393e+00 3.740000000000000000e+02
1.037420313137396466e+00 6.255366210196834587e+00 3.740000000000000000e+02
-4.883346278149619524e-01 -4.954989353306023858e+00 3.750000000000000000e+02
-2.976152601959168864e-01 -3.553694907868166997e+00 3.750000000000000000e+02
-1.068958925768722368e-01 -2.152400462430309691e+00 3.750000000000000000e+02
8.382347504217238510e-02 -7.511060169924526075e-01 3.750000000000000000e+02
2.745428426612170902e-01 6.501884284454046981e-01 3.750000000000000000e+02
4.652622102802618231e-01 2.051482873883261782e+00 3.750000000000000000e+02
6.559815778993066671e-01 3.452777319321119087e+00 3.750000000000000000e+02
8.467009455183515110e-01 4.854071764758976393e+00 3.750000000000000000e+02
1.037420313137396466e+00 6.255366210196834587e+00 3.750000000000000000e+02
-4.883346278149619524e-01 -4.954989353306023858e+00 3.760000000000000000e+02
-2.976152601959168864e-01 -3.553694907868166997e+00 3.760000000000000000e+02
-1.068958925768722368e-01 -2.152400462430309691e+00 3.760000000000000000e+02
8.382347504217238510e-02 -7.511060169924526075e-01 3.760000000000000000e+02
2.745428426612170902e-01 6.501884284454046981e-01 3.760000000000000000e+02
4.652622102802618231e-01 2.051482873883261782e+00 3.760000000000000000e+02
6.559815778993066671e-01 3.452777319321119087e+00 3.760000000000000000e+02
8.467009455183515110e-01 4.854071764758976393e+00 3.760000000000000000e+02
1.037420313137396466e+00 6.255366210196834587e+00 3.760000000000000000e+02
-4.883346278149619524e-01 -4.954989353306023858e+00 3.770000000000000000e+02
-2.976152601959168864e-01 -3.553694907868166997e+00 3.770000000000000000e+02
-1.068958925768722368e-01 -2.152400462430309691e+00 3.770000000000000000e+02
8.382347504217238510e-02 -7.511060169924526075e-01 3.770000000000000000e+02
2.745428426612170902e-01 6.501884284454046981e-01 3.770000000000000000e+02
4.652622102802618231e-01 2.051482873883261782e+00 3.770000000000000000e+02
6.559815778993066671e-01 3.452777319321119087e+00 3.770000000000000000e+02
8.467009455183515110e-01 4.854071764758976393e+00 3.770000000000000000e+02
1.037420313137396466e+00 6.255366210196834587e+00 3.770000000000000000e+02
-4.883346278149619524e-01 -4.954989353306023858e+00 3.780000000000000000e+02
-2.976152601959168864e-01 -3.553694907868166997e+00 3.780000000000000000e+02
-1.068958925768722368e-01 -2.152400462430309691e+00 3.780000000000000000e+02
8.382347504217238510e-02 -7.511060169924526075e-01 3.780000000000000000e+02
2.745428426612170902e-01 6.501884284454046981e-01 3.780000000000000000e+02
4.652622102802618231e-01 2.051482873883261782e+00 3.780000000000000000e+02
6.559815778993066671e-01 3.452777319321119087e+00 3.780000000000000000e+02
8.467009455183515110e-01 4.854071764758976393e+00 3.780000000000000000e+02
1.037420313137396466e+00 6.255366210196834587e+00 3.780000000000000000e+02
-4.883346278149619524e-01 -4.954989353306023858e+00 3.790000000000000000e+02
-2.976152601959168864e-01 -3.553694907868166997e+00 3.790000000000000000e+02
-1.068958925768722368e-01 -2.152400462430309691e+00 3.790000000000000000e+02
8.382347504217238510e-02 -7.511060169924526075e-01 3.790000000000000000e+02
2.745428426612170902e-01 6.501884284454046981e-01 3.790000000000000000e+02
4.652622102802618231e-01 2.051482873883261782e+00 3.790000000000000000e+02
6.559815778993066671e-01 3.452777319321119087e+00 3.790000000000000000e+02
8.467009455183515110e-01 4.854071764758976393e+00 3.790000000000000000e+02
1.037420313137396466e+00 6.255366210196834587e+00 3.790000000000000000e+02
3.076722787134892334e-01 -4.349701814396617294e+00 3.800000000000000000e+02
4.983916463325338553e-01 -2.948407368958760877e+00 3.800000000000000000e+02
6.891110139515786992e-01 -1.547112923520903571e+00 3.800000000000000000e+02
8.798303815706233211e-01 -1.458184780830463212e-01 3.800000000000000000e+02
1.070549749189668054e+00 1.255475967354810818e+00 3.800000000000000000e+02
1.261269116808712898e+00 2.656770412792667901e+00 3.800000000000000000e+02
1.451988484427757964e+00 4.058064858230525651e+00 3.800000000000000000e+02
1.642707852046802808e+00 5.459359303668382957e+00 3.800000000000000000e+02
-4.883346278149619524e-01 -4.954989353306023858e+00 3.810000000000000000e+02
-2.976152601959168864e-01 -3.553694907868166997e+00 3.810000000000000000e+02
-1.068958925768722368e-01 -2.152400462430309691e+00 3.810000000000000000e+02
8.382347504217238510e-02 -7.511060169924526075e-01 3.810000000000000000e+02
2.745428426612170902e-01 6.501884284454046981e-01 3.810000000000000000e+02
4.652622102802618231e-01 2.051482873883261782e+00 3.810000000000000000e+02
6.559815778993066671e-01 3.452777319321119087e+00 3.810000000000000000e+02
8.467009455183515110e-01 4.854071764758976393e+00 3.810000000000000000e+02
1.037420313137396466e+00 6.255366210196834587e+00 3.810000000000000000e+02
-4.883346278149619524e-01 -4.954989353306023858e+00 3.820000000000000000e+02
-2.976152601959168864e-01 -3.553694907868166997e+00 3.820000000000000000e+02
-1.068958925768722368e-01 -2.152400462430309691e+00 3.820000000000000000e+02
8.382347504217238510e-02 -7.511060169924526075e-01 3.820000000000000000e+02
2.745428426612170902e-01 6.501884284454046981e-01 3.820000000000000000e+02
4.652622102802618231e-01 2.051482873883261782e+00 3.820000000000000000e+02
6.559815778993066671e-01 3.452777319321119087e+00 3.820000000000000000e+02
8.467009455183515110e-01 4.854071764758976393e+00 3.820000000000000000e+02
1.037420313137396466e+00 6.255366210196834587e+00 3.820000000000000000e+02
-4.883346278149619524e-01 -4.954989353306023858e+00 3.830000000000000000e+02
-2.976152601959168864e-01 -3.553694907868166997e+00 3.830000000000000000e+02
-1.068958925768722368e-01 -2.152400462430309691e+00 3.830000000000000000e+02
8.382347504217238510e-02 -7.511060169924526075e-01 3.830000000000000000e+02
2.745428426612170902e-01 6.501884284454046981e-01 3.830000000000000000e+02
4.652622102802618231e-01 2.051482873883261782e+00 3.830000000000000000e+02
6.559815778993066671e-01 3.452777319321119087e+00 3.830000000000000000e+02
8.467009455183515110e-01 4.854071764758976393e+00 3.830000000000000000e+02
1.037420313137396466e+00 6.255366210196834587e+00 3.830000000000000000e+02
-4.883346278149619524e-01 -4.954989353306023858e+00 3.840000000000000000e+02
-2.976152601959168864e-01 -3.553694907868166997e+00 3.840000000000000000e+02
-1.068958925768722368e-01 -2.152400462430309691e+00 3.840000000000000000e+02
8.382347504217238510e-02 -7.511060169924526075e-01 3.840000000000000000e+02
2.745428426612170902e-01 6.501884284454046981e-01 3.840000000000000000e+02
4.652622102802618231e-01 2.051482873883261782e+00 3.840000000000000000e+02
6.559815778993066671e-01 3.452777319321119087e+00 3.840000000000000000e+02
8.467009455183515110e-01 4.854071764758976393e+00 3.840000000000000000e+02
1.037420313137396466e+00 6.255366210196834587e+00 3.840000000000000000e+02
-4.883346278149619524e-01 -4.954989353306023858e+00 3.850000000000000000e+02
-2.976152601959168864e-01 -3.553694907868166997e+00 3.850000000000000000e+02
-1.068958925768722368e-01 -2.152400462430309691e+00 3.850000000000000000e+02
8.382347504217238510e-02 -7.511060169924526075e-01 3.850000000000000000e+02
2.745428426612170902e-01 6.501884284454046981e-01 3.850000000000000000e+02
4.652622102802618231e-01 2.051482873883261782e+00 3.850000000000000000e+02
6.559815778993066671e-01 3.452777319321119087e+00 3.850000000000000000e+02
8.467009455183515110e-01 4.854071764758976393e+00 3.850000000000000000e+02
1.037420313137396466e+00 6.255366210196834587e+00 3.850000000000000000e+02
-4.883346278149619524e-01 -4.954989353306023858e+00 3.860000000000000000e+02
-2.976152601959168864e-01 -3.553694907868166997e+00 3.860000000000000000e+02
-1.068958925768722368e-01 -2.152400462430309691e+00 3.860000000000000000e+02
8.382347504217238510e-02 -7.511060169924526075e-01 3.860000000000000000e+02
2.745428426612170902e-01 6.501884284454046981e-01 3.860000000000000000e+02
4.652622102802618231e-01 2.051482873883261782e+00 3.860000000000000000e+02
6.559815778993066671e-01 3.452777319321119087e+00 3.860000000000000000e+02
8.467009455183515110e-01 4.854071764758976393e+00 3.860000000000000000e+02
1.037420313137396466e+00 6.255366210196834587e+00 3.860000000000000000e+02
-4.883346278149619524e-01 -4.954989353306023858e+00 3.870000000000000000e+02
-2.976152601959168864e-01 -3.553694907868166997e+00 3.870000000000000000e+02
-1.068958925768722368e-01 -2.152400462430309691e+00 3.870000000000000000e+02
8.382347504217238510e-02 -7.511060169924526075e-01 3.870000000000000000e+02
2.745428426612170902e-01 6.501884284454046981e-01 3.870000000000000000e+02
4.652622102802618231e-01 2.051482873883261782e+00 3.870000000000000000e+02
6.559815778993066671e-01 3.452777319321119087e+00 3.870000000000000000e+02
8.467009455183515110e-01 4.854071764758976393e+00 3.870000000000000000e+02
1.037420313137396466e+00 6.255366210196834587e+00 3.870000000000000000e+02
-4.883346278149619524e-01 -4.954989353306023858e+00 3.880000000000000000e+02
-2.976152601959168864e-01 -3.553694907868166997e+00 3.880000000000000000e+02
-1.068958925768722368e-01 -2.152400462430309691e+00 3.880000000000000000e+02
8.382347504217238510e-02 -7.511060169924526075e-01 3.880000000000000000e+02
2.745428426612170902e-01 6.501884284454046981e-01 3.880000000000000000e+02
4.652622102802618231e-01 2.051482873883261782e+00 3.880000000000000000e+02
6.559815778993066671e-01 3.452777319321119087e+00 3.880000000000000000e+02
8.467009455183515110e-01 4.854071764758976393e+00 3.880000000000000000e+02
1.037420313137396466e+00 6.255366210196834587e+00 3.880000000000000000e+02
-4.883346278149619524e-01 -4.954989353306023858e+00 3.890000000000000000e+02
-2.976152601959168864e-01 -3.553694907868166997e+00 3.890000000000000000e+02
-1.068958925768722368e-01 -2.152400462430309691e+00 3.890000000000000000e+02
8.382347504217238510e-02 -7.511060169924526075e-01 3.890000000000000000e+02
2.745428426612170902e-01 6.501884284454046981e-01 3.890000000000000000e+02
4.652622102802618231e-01 2.051482873883261782e+00 3.890000000000000000e+02
6.559815778993066671e-01 3.452777319321119087e+00 3.890000000000000000e+02
8.467009455183515110e-01 4.854071764758976393e+00 3.890000000000000000e+02
1.037420313137396466e+00 6.255366210196834587e+00 3.890000000000000000e+02
-4.883346278149619524e-01 -4.954989353306023858e+00 3.900000000000000000e+02
-2.976152601959168864e-01 -3.553694907868166997e+00 3.900000000000000000e+02
-1.068958925768722368e-01 -2.152400462430309691e+00 3.900000000000000000e+02
8.382347504217238510e-02 -7.511060169924526075e-01 3.900000000000000000e+02
2.745428426612170902e-01 6.501884284454046981e-01 3.900000000000000000e+02
4.652622102802618231e-01 2.051482873883261782e+00 3.900000000000000000e+02
6.559815778993066671e-01 3.452777319321119087e+00 3.900000000000000000e+02
8.467009455183515110e-01 4.854071764758976393e+00 3.900000000000000000e+02
1.037420313137396466e+00 6.255366210196834587e+00 3.900000000000000000e+02
-4.883346278149619524e-01 -4.954989353306023858e+00 3.910000000000000000e+02
-2.976152601959168864e-01 -3.553694907868166997e+00 3.910000000000000000e+02
-1.068958925768722368e-01 -2.152400462430309691e+00 3.910000000000000000e+02
8.382347504217238510e-02 -7.511060169924526075e-01 3.910000000000000000e+02
2.745428426612170902e-01 6.501884284454046981e-01 3.910000000000000000e+02
4.652622102802618231e-01 2.051482873883261782e+00 3.910000000000000000e+02
6.559815778993066671e-01 3.452777319321119087e+00 3.910000000000000000e+02
8.467009455183515110e-01 4.854071764758976393e+00 3.910000000000000000e+02
1.037420313137396466e+00 6.255366210196834587e+00 3.910000000000000000e+02
-4.883346278149619524e-01 -4.954989353306023858e+00 3.920000000000000000e+02
-2.976152601959168864e-01 -3.553694907868166997e+00 3.920000000000000000e+02
-1.068958925768722368e-01 -2.152400462430309691e+00 3.920000000000000000e+02
8.382347504217238510e-02 -7.511060169924526075e-01 3.920000000000000000e+02
2.745428426612170902e-01 6.501884284454046981e-01 3.920000000000000000e+02
4.652622102802618231e-01 2.051482873883261782e+00 3.920000000000000000e+02
6.559815778993066671e-01 3.452777319321119087e+00 3.920000000000000000e+02
8.467009455183515110e-01 4.854071764758976393e+00 3.920000000000000000e+02
1.037420313137396466e+00 6.255366210196834587e+00 3.920000000000000000e+02
-4.883346278149619524e-01 -4.954989353306023858e+00 3.930000000000000000e+02
-2.976152601959168864e-01 -3.553694907868166997e+00 3.930000000000000000e+02
-1.068958925768722368e-01 -2.152400462430309691e+00 3.930000000000000000e+02
8.382347504217238510e-02 -7.511060169924526075e-01 3.930000000000000000e+02
2.745428426612170902e-01 6.501884284454046981e-01 3.930000000000000000e+02
4.652622102802618231e-01 2.051482873883261782e+00 3.930000000000000000e+02
6.559815778993066671e-01 3.452777319321119087e+00 3.930000000000000000e+02
8.467009455183515110e-01 4.854071764758976393e+00 3.930000000000000000e+02
1.037420313137396466e+00 6.255366210196834587e+00 3.930000000000000000e+02
-4.883346278149619524e-01 -4.954989353306023858e+00 3.940000000000000000e+02
-2.976152601959168864e-01 -3.553694907868166997e+00 3.940000000000000000e+02
-1.068958925768722368e-01 -2.152400462430309691e+00 3.940000000000000000e+02
8.382347504217238510e-02 -7.511060169924526075e-01 3.940000000000000000e+02
2.745428426612170902e-01 6.501884284454046981e-01 3.940000000000000000e+02
4.652622102802618231e-01 2.051482873883261782e+00 3.940000000000000000e+02
6.559815778993066671e-01 3.452777319321119087e+00 3.940000000000000000e+02
8.467009455183515110e-01 4.854071764758976393e+00 3.940000000000000000e+02
1.037420313137396466e+00 6.255366210196834587e+00 3.940000000000000000e+02
-4.883346278149619524e-01 -4.954989353306023858e+00 3.950000000000000000e+02
-2.976152601959168864e-01 -3.553694907868166997e+00 3.950000000000000000e+02
-1.068958925768722368e-01 -2.152400462430309691e+00 3.950000000000000000e+02
8.382347504217238510e-02 -7.511060169924526075e-01 3.950000000000000000e+02
2.745428426612170902e-01 6.501884284454046981e-01 3.950000000000000000e+02
4.652622102802618231e-01 2.051482873883261782e+00 3.950000000000000000e+02
6.559815778993066671e-01 3.452777319321119087e+00 3.950000000000000000e+02
8.467009455183515110e-01 4.854071764758976393e+00 3.950000000000000000e+02
1.037420313137396466e+00 6.255366210196834587e+00 3.950000000000000000e+02
-4.883346278149619524e-01 -4.954989353306023858e+00 3.960000000000000000e+02
-2.976152601959168864e-01 -3.553694907868166997e+00 3.960000000000000000e+02
-1.068958925768722368e-01 -2.152400462430309691e+00 3.960000000000000000e+02
8.382347504217238510e-02 -7.511060169924526075e-01 3.960000000000000000e+02
2.745428426612170902e-01 6.501884284454046981e-01 3.960000000000000000e+02
4.652622102802618231e-01 2.051482873883261782e+00 3.960000000000000000e+02
6.559815778993066671e-01 3.452777319321119087e+00 3.960000000000000000e+02
8.467009455183515110e-01 4.854071764758976393e+00 3.960000000000000000e+02
1.037420313137396466e+00 6.255366210196834587e+00 3.960000000000000000e+02
-4.883346278149619524e-01 -4.954989353306023858e+00 3.970000000000000000e+02
-2.976152601959168864e-01 -3.553694907868166997e+00 3.970000000000000000e+02
-1.068958925768722368e-01 -2.152400462430309691e+00 3.970000000000000000e+02
8.382347504217238510e-02 -7.511060169924526075e-01 3.970000000000000000e+02
2.745428426612170902e-01 6.501884284454046981e-01 3.970000000000000000e+02
4.652622102802618231e-01 2.051482873883261782e+00 3.970000000000000000e+02
6.559815778993066671e-01 3.452777319321119087e+00 3.970000000000000000e+02
8.467009455183515110e-01 4.854071764758976393e+00 3.970000000000000000e+02
1.037420313137396466e+00 6.255366210196834587e+00 3.970000000000000000e+02
-4.883346278149619524e-01 -4.954989353306023858e+00 3.980000000000000000e+02
-2.976152601959168864e-01 -3.553694907868166997e+00 3.980000000000000000e+02
-1.068958925768722368e-01 -2.152400462430309691e+00 3.980000000000000000e+02
8.382347504217238510e-02 -7.511060169924526075e-01 3.980000000000000000e+02
2.745428426612170902e-01 6.501884284454046981e-01 3.980000000000000000e+02
4.652622102802618231e-01 2.051482873883261782e+00 3.980000000000000000e+02
6.559815778993066671e-01 3.452777319321119087e+00 3.980000000000000000e+02
8.467009455183515110e-01 4.854071764758976393e+00 3.980000000000000000e+02
1.037420313137396466e+00 6.255366210196834587e+00 3.980000000000000000e+02
-4.883346278149619524e-01 -4.954989353306023858e+00 3.990000000000000000e+02
-2.976152601959168864e-01 -3.553694907868166997e+00 3.990000000000000000e+02
-1.068958925768722368e-01 -2.152400462430309691e+00 3.990000000000000000e+02
8.382347504217238510e-02 -7.511060169924526075e-01 3.990000000000000000e+02
2.745428426612170902e-01 6.501884284454046981e-01 3.990000000000000000e+02
4.652622102802618231e-01 2.051482873883261782e+00 3.990000000000000000e+02
6.559815778993066671e-01 3.452777319321119087e+00 3.990000000000000000e+02
8.467009455183515110e-01 4.854071764758976393e+00 3.990000000000000000e+02
1.037420313137396466e+00 6.255366210196834587e+00 3.990000000000000000e+02
-4.883346278149619524e-01 -4.954989353306023858e+00 4.000000000000000000e+02
-2.976152601959168864e-01 -3.553694907868166997e+00 4.000000000000000000e+02
-1.068958925768722368e-01 -2.152400462430309691e+00 4.000000000000000000e+02
8.382347504217238510e-02 -7.511060169924526075e-01 4.000000000000000000e+02
2.745428426612170902e-01 6.501884284454046981e-01 4.000000000000000000e+02
4.652622102802618231e-01 2.051482873883261782e+00 4.000000000000000000e+02
6.559815778993066671e-01 3.452777319321119087e+00 4.000000000000000000e+02
8.467009455183515110e-01 4.854071764758976393e+00 4.000000000000000000e+02
1.037420313137396466e+00 6.255366210196834587e+00 4.000000000000000000e+02
-4.883346278149619524e-01 -4.954989353306023858e+00 4.010000000000000000e+02
-2.976152601959168864e-01 -3.553694907868166997e+00 4.010000000000000000e+02
-1.068958925768722368e-01 -2.152400462430309691e+00 4.010000000000000000e+02
8.382347504217238510e-02 -7.511060169924526075e-01 4.010000000000000000e+02
2.745428426612170902e-01 6.501884284454046981e-01 4.010000000000000000e+02
4.652622102802618231e-01 2.051482873883261782e+00 4.010000000000000000e+02
6.559815778993066671e-01 3.452777319321119087e+00 4.010000000000000000e+02
8.467009455183515110e-01 4.854071764758976393e+00 4.010000000000000000e+02
1.037420313137396466e+00 6.255366210196834587e+00 4.010000000000000000e+02
-4.883346278149619524e-01 -4.954989353306023858e+00 4.020000000000000000e+02
-2.976152601959168864e-01 -3.553694907868166997e+00 4.020000000000000000e+02
-1.068958925768722368e-01 -2.152400462430309691e+00 4.020000000000000000e+02
8.382347504217238510e-02 -7.511060169924526075e-01 4.020000000000000000e+02
2.745428426612170902e-01 6.501884284454046981e-01 4.020000000000000000e+02
4.652622102802618231e-01 2.051482873883261782e+00 4.020000000000000000e+02
6.559815778993066671e-01 3.452777319321119087e+00 4.020000000000000000e+02
8.467009455183515110e-01 4.854071764758976393e+00 4.020000000000000000e+02
1.037420313137396466e+00 6.255366210196834587e+00 4.020000000000000000e+02
3.076722787134892334e-01 -4.349701814396617294e+00 4.030000000000000000e+02
4.983916463325338553e-01 -2.948407368958760877e+00 4.030000000000000000e+02
6.891110139515786992e-01 -1.547112923520903571e+00 4.030000000000000000e+02
8.798303815706233211e-01 -1.458184780830463212e-01 4.030000000000000000e+02
1.070549749189668054e+00 1.255475967354810818e+00 4.030000000000000000e+02
1.261269116808712898e+00 2.656770412792667901e+00 4.030000000000000000e+02
1.451988484427757964e+00 4.058064858230525651e+00 4.030000000000000000e+02
1.642707852046802808e+00 5.459359303668382957e+00 4.030000000000000000e+02
-4.883346278149619524e-01 -4.954989353306023858e+00 4.040000000000000000e+02
-2.976152601959168864e-01 -3.553694907868166997e+00 4.040000000000000000e+02
-1.068958925768722368e-01 -2.152400462430309691e+00 4.040000000000000000e+02
8.382347504217238510e-02 -7.511060169924526075e-01 4.040000000000000000e+02
2.745428426612170902e-01 6.501884284454046981e-01 4.040000000000000000e+02
4.652622102802618231e-01 2.051482873883261782e+00 4.040000000000000000e+02
6.559815778993066671e-01 3.452777319321119087e+00 4.040000000000000000e+02
8.467009455183515110e-01 4.854071764758976393e+00 4.040000000000000000e+02
1.037420313137396466e+00 6.255366210196834587e+00 4.040000000000000000e+02
