-2.107074752470923240e+00 3.543126621340877858e+00 3.110000000000000000e+02
-1.398402492248435713e+00 2.319286914683527101e+00 3.110000000000000000e+02
-6.897302320259480757e-01 1.095447208026175900e+00 3.110000000000000000e+02
1.894202819653950653e-02 -1.283924986311748562e-01 3.110000000000000000e+02
7.276142884190273108e-01 -1.352232205288525835e+00 3.110000000000000000e+02
1.436286548641514837e+00 -2.576071911945876813e+00 3.110000000000000000e+02
2.144958808864001920e+00 -3.799911618603227570e+00 3.110000000000000000e+02
-2.815747012693410767e+00 4.766966327998229502e+00 3.120000000000000000e+02
-2.107074752470923240e+00 3.543126621340877858e+00 3.120000000000000000e+02
-1.398402492248435713e+00 2.319286914683527101e+00 3.120000000000000000e+02
-6.897302320259480757e-01 1.095447208026175900e+00 3.120000000000000000e+02
1.894202819653950653e-02 -1.283924986311748562e-01 3.120000000000000000e+02
7.276142884190273108e-01 -1.352232205288525835e+00 3.120000000000000000e+02
1.436286548641514837e+00 -2.576071911945876813e+00 3.120000000000000000e+02
2.144958808864001920e+00 -3.799911618603227570e+00 3.120000000000000000e+02
-2.815747012693410767e+00 4.766966327998229502e+00 3.130000000000000000e+02
-2.107074752470923240e+00 3.543126621340877858e+00 3.130000000000000000e+02
-1.398402492248435713e+00 2.319286914683527101e+00 3.130000000000000000e+02
-6.897302320259480757e-01 1.095447208026175900e+00 3.130000000000000000e+02
1.894202819653950653e-02 -1.283924986311748562e-01 3.130000000000000000e+02
7.276142884190273108e-01 -1.352232205288525835e+00 3.130000000000000000e+02
1.436286548641514837e+00 -2.576071911945876813e+00 3.130000000000000000e+02
2.144958808864001920e+00 -3.799911618603227570e+00 3.130000000000000000e+02
-2.815747012693410767e+00 4.766966327998229502e+00 3.140000000000000000e+02
-2.107074752470923240e+00 3.543126621340877858e+00 3.140000000000000000e+02
-1.398402492248435713e+00 2.319286914683527101e+00 3.140000000000000000e+02
-6.897302320259480757e-01 1.095447208026175900e+00 3.140000000000000000e+02
1.894202819653950653e-02 -1.283924986311748562e-01 3.140000000000000000e+02
7.276142884190273108e-01 -1.352232205288525835e+00 3.140000000000000000e+02
1.436286548641514837e+00 -2.576071911945876813e+00 3.140000000000000000e+02
2.144958808864001920e+00 -3.799911618603227570e+00 3.140000000000000000e+02
-2.815747012693410767e+00 4.766966327998229502e+00 3.150000000000000000e+02
-2.107074752470923240e+00 3.543126621340877858e+00 3.150000000000000000e+02
-1.398402492248435713e+00 2.319286914683527101e+00 3.150000000000000000e+02
-6.897302320259480757e-01 1.095447208026175900e+00 3.150000000000000000e+02
1.894202819653950653e-02 -1.283924986311748562e-01 3.150000000000000000e+02
7.276142884190273108e-01 -1.352232205288525835e+00 3.150000000000000000e+02
1.436286548641514837e+00 -2.576071911945876813e+00 3.150000000000000000e+02
2.144958808864001920e+00 -3.799911618603227570e+00 3.150000000000000000e+02
-2.815747012693410767e+00 4.766966327998229502e+00 3.160000000000000000e+02
-2.107074752470923240e+00 3.543126621340877858e+00 3.160000000000000000e+02
-1.398402492248435713e+00 2.319286914683527101e+00 3.160000000000000000e+02
-6.897302320259480757e-01 1.095447208026175900e+00 3.160000000000000000e+02
1.894202819653950653e-02 -1.283924986311748562e-01 3.160000000000000000e+02
7.276142884190273108e-01 -1.352232205288525835e+00 3.160000000000000000e+02
1.436286548641514837e+00 -2.576071911945876813e+00 3.160000000000000000e+02
2.144958808864001920e+00 -3.799911618603227570e+00 3.160000000000000000e+02
-3.073330735910842382e+00 3.800710344558309473e+00 3.170000000000000000e+02
-2.364658475688354855e+00 2.576870637900958716e+00 3.170000000000000000e+02
-1.655986215465867328e+00 1.353030931243607515e+00 3.170000000000000000e+02
-9.473139552433798016e-01 1.291912245862568420e-01 3.170000000000000000e+02
-2.386416950208921361e-01 -1.094648482071094220e+00 3.170000000000000000e+02
4.700305652015955293e-01 -2.318488188728445198e+00 3.170000000000000000e+02
1.178702825424083001e+00 -3.542327895385795955e+00 3.170000000000000000e+02
-3.073330735910842382e+00 3.800710344558309473e+00 3.180000000000000000e+02
-2.364658475688354855e+00 2.576870637900958716e+00 3.180000000000000000e+02
-1.655986215465867328e+00 1.353030931243607515e+00 3.180000000000000000e+02
-9.473139552433798016e-01 1.291912245862568420e-01 3.180000000000000000e+02
-2.386416950208921361e-01 -1.094648482071094220e+00 3.180000000000000000e+02
4.700305652015955293e-01 -2.318488188728445198e+00 3.180000000000000000e+02
1.178702825424083001e+00 -3.542327895385795955e+00 3.180000000000000000e+02
-3.073330735910842382e+00 3.800710344558309473e+00 3.190000000000000000e+02
-2.364658475688354855e+00 2.576870637900958716e+00 3.190000000000000000e+02
-1.655986215465867328e+00 1.353030931243607515e+00 3.190000000000000000e+02
-9.473139552433798016e-01 1.291912245862568420e-01 3.190000000000000000e+02
-2.386416950208921361e-01 -1.094648482071094220e+00 3.190000000000000000e+02
4.700305652015955293e-01 -2.318488188728445198e+00 3.190000000000000000e+02
1.178702825424083001e+00 -3.542327895385795955e+00 3.190000000000000000e+02
-3.073330735910842382e+00 3.800710344558309473e+00 3.200000000000000000e+02
-2.364658475688354855e+00 2.576870637900958716e+00 3.200000000000000000e+02
-1.655986215465867328e+00 1.353030931243607515e+00 3.200000000000000000e+02
-9.473139552433798016e-01 1.291912245862568420e-01 3.200000000000000000e+02
-2.386416950208921361e-01 -1.094648482071094220e+00 3.200000000000000000e+02
4.700305652015955293e-01 -2.318488188728445198e+00 3.200000000000000000e+02
1.178702825424083001e+00 -3.542327895385795955e+00 3.200000000000000000e+02
-2.815747012693410767e+00 4.766966327998229502e+00 3.210000000000000000e+02
-2.107074752470923240e+00 3.543126621340877858e+00 3.210000000000000000e+02
-1.398402492248435713e+00 2.319286914683527101e+00 3.210000000000000000e+02
-6.897302320259480757e-01 1.095447208026175900e+00 3.210000000000000000e+02
1.894202819653950653e-02 -1.283924986311748562e-01 3.210000000000000000e+02
7.276142884190273108e-01 -1.352232205288525835e+00 3.210000000000000000e+02
1.436286548641514837e+00 -2.576071911945876813e+00 3.210000000000000000e+02
2.144958808864001920e+00 -3.799911618603227570e+00 3.210000000000000000e+02
-2.815747012693410767e+00 4.766966327998229502e+00 3.220000000000000000e+02
-2.107074752470923240e+00 3.543126621340877858e+00 3.220000000000000000e+02
-1.398402492248435713e+00 2.319286914683527101e+00 3.220000000000000000e+02
-6.897302320259480757e-01 1.095447208026175900e+00 3.220000000000000000e+02
1.894202819653950653e-02 -1.283924986311748562e-01 3.220000000000000000e+02
7.276142884190273108e-01 -1.352232205288525835e+00 3.220000000000000000e+02
1.436286548641514837e+00 -2.576071911945876813e+00 3.220000000000000000e+02
2.144958808864001920e+00 -3.799911618603227570e+00 3.220000000000000000e+02
-2.815747012693410767e+00 4.766966327998229502e+00 3.230000000000000000e+02
-2.107074752470923240e+00 3.543126621340877858e+00 3.230000000000000000e+02
-1.398402492248435713e+00 2.319286914683527101e+00 3.230000000000000000e+02
-6.897302320259480757e-01 1.095447208026175900e+00 3.230000000000000000e+02
1.894202819653950653e-02 -1.283924986311748562e-01 3.230000000000000000e+02
7.276142884190273108e-01 -1.352232205288525835e+00 3.230000000000000000e+02
1.436286548641514837e+00 -2.576071911945876813e+00 3.230000000000000000e+02
2.144958808864001920e+00 -3.799911618603227570e+00 3.230000000000000000e+02
-2.815747012693410767e+00 4.766966327998229502e+00 3.240000000000000000e+02
-2.107074752470923240e+00 3.543126621340877858e+00 3.240000000000000000e+02
-1.398402492248435713e+00 2.319286914683527101e+00 3.240000000000000000e+02
-6.897302320259480757e-01 1.095447208026175900e+00 3.240000000000000000e+02
1.894202819653950653e-02 -1.283924986311748562e-01 3.240000000000000000e+02
7.276142884190273108e-01 -1.352232205288525835e+00 3.240000000000000000e+02
1.436286548641514837e+00 -2.576071911945876813e+00 3.240000000000000000e+02
2.144958808864001920e+00 -3.799911618603227570e+00 3.240000000000000000e+02
2.853631069086489891e+00 -5.023751325260578326e+00 3.240000000000000000e+02
-2.815747012693410767e+00 4.766966327998229502e+00 3.250000000000000000e+02
-2.107074752470923240e+00 3.543126621340877858e+00 3.250000000000000000e+02
-1.398402492248435713e+00 2.319286914683527101e+00 3.250000000000000000e+02
-6.897302320259480757e-01 1.095447208026175900e+00 3.250000000000000000e+02
1.894202819653950653e-02 -1.283924986311748562e-01 3.250000000000000000e+02
7.276142884190273108e-01 -1.352232205288525835e+00 3.250000000000000000e+02
1.436286548641514837e+00 -2.576071911945876813e+00 3.250000000000000000e+02
2.144958808864001920e+00 -3.799911618603227570e+00 3.250000000000000000e+02
2.853631069086489891e+00 -5.023751325260578326e+00 3.250000000000000000e+02
-2.815747012693410767e+00 4.766966327998229502e+00 3.260000000000000000e+02
-2.107074752470923240e+00 3.543126621340877858e+00 3.260000000000000000e+02
-1.398402492248435713e+00 2.319286914683527101e+00 3.260000000000000000e+02
-6.897302320259480757e-01 1.095447208026175900e+00 3.260000000000000000e+02
1.894202819653950653e-02 -1.283924986311748562e-01 3.260000000000000000e+02
7.276142884190273108e-01 -1.352232205288525835e+00 3.260000000000000000e+02
1.436286548641514837e+00 -2.576071911945876813e+00 3.260000000000000000e+02
2.144958808864001920e+00 -3.799911618603227570e+00 3.260000000000000000e+02
2.853631069086489891e+00 -5.023751325260578326e+00 3.260000000000000000e+02
-2.815747012693410767e+00 4.766966327998229502e+00 3.270000000000000000e+02
-2.107074752470923240e+00 3.543126621340877858e+00 3.270000000000000000e+02
-1.398402492248435713e+00 2.319286914683527101e+00 3.270000000000000000e+02
-6.897302320259480757e-01 1.095447208026175900e+00 3.270000000000000000e+02
1.894202819653950653e-02 -1.283924986311748562e-01 3.270000000000000000e+02
7.276142884190273108e-01 -1.352232205288525835e+00 3.270000000000000000e+02
1.436286548641514837e+00 -2.576071911945876813e+00 3.270000000000000000e+02
2.144958808864001920e+00 -3.799911618603227570e+00 3.270000000000000000e+02
2.853631069086489891e+00 -5.023751325260578326e+00 3.270000000000000000e+02
-2.815747012693410767e+00 4.766966327998229502e+00 3.280000000000000000e+02
-2.107074752470923240e+00 3.543126621340877858e+00 3.280000000000000000e+02
-1.398402492248435713e+00 2.319286914683527101e+00 3.280000000000000000e+02
-6.897302320259480757e-01 1.095447208026175900e+00 3.280000000000000000e+02
1.894202819653950653e-02 -1.283924986311748562e-01 3.280000000000000000e+02
7.276142884190273108e-01 -1.352232205288525835e+00 3.280000000000000000e+02
1.436286548641514837e+00 -2.576071911945876813e+00 3.280000000000000000e+02
2.144958808864001920e+00 -3.799911618603227570e+00 3.280000000000000000e+02
2.853631069086489891e+00 -5.023751325260578326e+00 3.280000000000000000e+02
-2.815747012693410767e+00 4.766966327998229502e+00 3.290000000000000000e+02
-2.107074752470923240e+00 3.543126621340877858e+00 3.290000000000000000e+02
-1.398402492248435713e+00 2.319286914683527101e+00 3.290000000000000000e+02
-6.897302320259480757e-01 1.095447208026175900e+00 3.290000000000000000e+02
1.894202819653950653e-02 -1.283924986311748562e-01 3.290000000000000000e+02
7.276142884190273108e-01 -1.352232205288525835e+00 3.290000000000000000e+02
1.436286548641514837e+00 -2.576071911945876813e+00 3.290000000000000000e+02
2.144958808864001920e+00 -3.799911618603227570e+00 3.290000000000000000e+02
2.853631069086489891e+00 -5.023751325260578326e+00 3.290000000000000000e+02
-3.073330735910842382e+00 3.800710344558309473e+00 3.300000000000000000e+02
-2.364658475688354855e+00 2.576870637900958716e+00 3.300000000000000000e+02
-1.655986215465867328e+00 1.353030931243607515e+00 3.300000000000000000e+02
-9.473139552433798016e-01 1.291912245862568420e-01 3.300000000000000000e+02
-2.386416950208921361e-01 -1.094648482071094220e+00 3.300000000000000000e+02
4.700305652015955293e-01 -2.318488188728445198e+00 3.300000000000000000e+02
1.178702825424083001e+00 -3.542327895385795955e+00 3.300000000000000000e+02
1.887375085646570749e+00 -4.766167602043146267e+00 3.300000000000000000e+02
-3.073330735910842382e+00 3.800710344558309473e+00 3.310000000000000000e+02
-2.364658475688354855e+00 2.576870637900958716e+00 3.310000000000000000e+02
-1.655986215465867328e+00 1.353030931243607515e+00 3.310000000000000000e+02
-9.473139552433798016e-01 1.291912245862568420e-01 3.310000000000000000e+02
-2.386416950208921361e-01 -1.094648482071094220e+00 3.310000000000000000e+02
4.700305652015955293e-01 -2.318488188728445198e+00 3.310000000000000000e+02
1.178702825424083001e+00 -3.542327895385795955e+00 3.310000000000000000e+02
1.887375085646570749e+00 -4.766167602043146267e+00 3.310000000000000000e+02
-3.073330735910842382e+00 3.800710344558309473e+00 3.320000000000000000e+02
-2.364658475688354855e+00 2.576870637900958716e+00 3.320000000000000000e+02
-1.655986215465867328e+00 1.353030931243607515e+00 3.320000000000000000e+02
-9.473139552433798016e-01 1.291912245862568420e-01 3.320000000000000000e+02
-2.386416950208921361e-01 -1.094648482071094220e+00 3.320000000000000000e+02
4.700305652015955293e-01 -2.318488188728445198e+00 3.320000000000000000e+02
1.178702825424083001e+00 -3.542327895385795955e+00 3.320000000000000000e+02
1.887375085646570749e+00 -4.766167602043146267e+00 3.320000000000000000e+02
-3.073330735910842382e+00 3.800710344558309473e+00 3.330000000000000000e+02
-2.364658475688354855e+00 2.576870637900958716e+00 3.330000000000000000e+02
-1.655986215465867328e+00 1.353030931243607515e+00 3.330000000000000000e+02
-9.473139552433798016e-01 1.291912245862568420e-01 3.330000000000000000e+02
-2.386416950208921361e-01 -1.094648482071094220e+00 3.330000000000000000e+02
4.700305652015955293e-01 -2.318488188728445198e+00 3.330000000000000000e+02
1.178702825424083001e+00 -3.542327895385795955e+00 3.330000000000000000e+02
1.887375085646570749e+00 -4.766167602043146267e+00 3.330000000000000000e+02
-2.815747012693410767e+00 4.766966327998229502e+00 3.340000000000000000e+02
-2.107074752470923240e+00 3.543126621340877858e+00 3.340000000000000000e+02
-1.398402492248435713e+00 2.319286914683527101e+00 3.340000000000000000e+02
-6.897302320259480757e-01 1.095447208026175900e+00 3.340000000000000000e+02
1.894202819653950653e-02 -1.283924986311748562e-01 3.340000000000000000e+02
7.276142884190273108e-01 -1.352232205288525835e+00 3.340000000000000000e+02
1.436286548641514837e+00 -2.576071911945876813e+00 3.340000000000000000e+02
2.144958808864001920e+00 -3.799911618603227570e+00 3.340000000000000000e+02
2.853631069086489891e+00 -5.023751325260578326e+00 3.340000000000000000e+02
-2.815747012693410767e+00 4.766966327998229502e+00 3.350000000000000000e+02
-2.107074752470923240e+00 3.543126621340877858e+00 3.350000000000000000e+02
-1.398402492248435713e+00 2.319286914683527101e+00 3.350000000000000000e+02
-6.897302320259480757e-01 1.095447208026175900e+00 3.350000000000000000e+02
1.894202819653950653e-02 -1.283924986311748562e-01 3.350000000000000000e+02
7.276142884190273108e-01 -1.352232205288525835e+00 3.350000000000000000e+02
1.436286548641514837e+00 -2.576071911945876813e+00 3.350000000000000000e+02
2.144958808864001920e+00 -3.799911618603227570e+00 3.350000000000000000e+02
2.853631069086489891e+00 -5.023751325260578326e+00 3.350000000000000000e+02
-2.815747012693410767e+00 4.766966327998229502e+00 3.360000000000000000e+02
-2.107074752470923240e+00 3.543126621340877858e+00 3.360000000000000000e+02
-1.398402492248435713e+00 2.319286914683527101e+00 3.360000000000000000e+02
-6.897302320259480757e-01 1.095447208026175900e+00 3.360000000000000000e+02
1.894202819653950653e-02 -1.283924986311748562e-01 3.360000000000000000e+02
7.276142884190273108e-01 -1.352232205288525835e+00 3.360000000000000000e+02
1.436286548641514837e+00 -2.576071911945876813e+00 3.360000000000000000e+02
2.144958808864001920e+00 -3.799911618603227570e+00 3.360000000000000000e+02
2.853631069086489891e+00 -5.023751325260578326e+00 3.360000000000000000e+02
-2.815747012693410767e+00 4.766966327998229502e+00 3.370000000000000000e+02
-2.107074752470923240e+00 3.543126621340877858e+00 3.370000000000000000e+02
-1.398402492248435713e+00 2.319286914683527101e+00 3.370000000000000000e+02
-6.897302320259480757e-01 1.095447208026175900e+00 3.370000000000000000e+02
1.894202819653950653e-02 -1.283924986311748562e-01 3.370000000000000000e+02
7.276142884190273108e-01 -1.352232205288525835e+00 3.370000000000000000e+02
1.436286548641514837e+00 -2.576071911945876813e+00 3.370000000000000000e+02
2.144958808864001920e+00 -3.799911618603227570e+00 3.370000000000000000e+02
2.853631069086489891e+00 -5.023751325260578326e+00 3.370000000000000000e+02
-3.073330735910842382e+00 3.800710344558309473e+00 3.380000000000000000e+02
-2.364658475688354855e+00 2.576870637900958716e+00 3.380000000000000000e+02
-1.655986215465867328e+00 1.353030931243607515e+00 3.380000000000000000e+02
-9.473139552433798016e-01 1.291912245862568420e-01 3.380000000000000000e+02
-2.386416950208921361e-01 -1.094648482071094220e+00 3.380000000000000000e+02
4.700305652015955293e-01 -2.318488188728445198e+00 3.380000000000000000e+02
1.178702825424083001e+00 -3.542327895385795955e+00 3.380000000000000000e+02
-3.073330735910842382e+00 3.800710344558309473e+00 3.390000000000000000e+02
-2.364658475688354855e+00 2.576870637900958716e+00 3.390000000000000000e+02
-1.655986215465867328e+00 1.353030931243607515e+00 3.390000000000000000e+02
-9.473139552433798016e-01 1.291912245862568420e-01 3.390000000000000000e+02
-2.386416950208921361e-01 -1.094648482071094220e+00 3.390000000000000000e+02
4.700305652015955293e-01 -2.318488188728445198e+00 3.390000000000000000e+02
1.178702825424083001e+00 -3.542327895385795955e+00 3.390000000000000000e+02
-3.073330735910842382e+00 3.800710344558309473e+00 3.400000000000000000e+02
-2.364658475688354855e+00 2.576870637900958716e+00 3.400000000000000000e+02
-1.655986215465867328e+00 1.353030931243607515e+00 3.400000000000000000e+02
-9.473139552433798016e-01 1.291912245862568420e-01 3.400000000000000000e+02
-2.386416950208921361e-01 -1.094648482071094220e+00 3.400000000000000000e+02
4.700305652015955293e-01 -2.318488188728445198e+00 3.400000000000000000e+02
1.178702825424083001e+00 -3.542327895385795955e+00 3.400000000000000000e+02
-2.815747012693410767e+00 4.766966327998229502e+00 3.410000000000000000e+02
-2.107074752470923240e+00 3.543126621340877858e+00 3.410000000000000000e+02
-1.398402492248435713e+00 2.319286914683527101e+00 3.410000000000000000e+02
-6.897302320259480757e-01 1.095447208026175900e+00 3.410000000000000000e+02
1.894202819653950653e-02 -1.283924986311748562e-01 3.410000000000000000e+02
7.276142884190273108e-01 -1.352232205288525835e+00 3.410000000000000000e+02
1.436286548641514837e+00 -2.576071911945876813e+00 3.410000000000000000e+02
2.144958808864001920e+00 -3.799911618603227570e+00 3.410000000000000000e+02
2.853631069086489891e+00 -5.023751325260578326e+00 3.410000000000000000e+02
-2.815747012693410767e+00 4.766966327998229502e+00 3.420000000000000000e+02
-2.107074752470923240e+00 3.543126621340877858e+00 3.420000000000000000e+02
-1.398402492248435713e+00 2.319286914683527101e+00 3.420000000000000000e+02
-6.897302320259480757e-01 1.095447208026175900e+00 3.420000000000000000e+02
1.894202819653950653e-02 -1.283924986311748562e-01 3.420000000000000000e+02
7.276142884190273108e-01 -1.352232205288525835e+00 3.420000000000000000e+02
1.436286548641514837e+00 -2.576071911945876813e+00 3.420000000000000000e+02
2.144958808864001920e+00 -3.799911618603227570e+00 3.420000000000000000e+02
2.853631069086489891e+00 -5.023751325260578326e+00 3.420000000000000000e+02
-2.815747012693410767e+00 4.766966327998229502e+00 3.430000000000000000e+02
-2.107074752470923240e+00 3.543126621340877858e+00 3.430000000000000000e+02
-1.398402492248435713e+00 2.319286914683527101e+00 3.430000000000000000e+02
-6.897302320259480757e-01 1.095447208026175900e+00 3.430000000000000000e+02
1.894202819653950653e-02 -1.283924986311748562e-01 3.430000000000000000e+02
7.276142884190273108e-01 -1.352232205288525835e+00 3.430000000000000000e+02
1.436286548641514837e+00 -2.576071911945876813e+00 3.430000000000000000e+02
2.144958808864001920e+00 -3.799911618603227570e+00 3.430000000000000000e+02
2.853631069086489891e+00 -5.023751325260578326e+00 3.430000000000000000e+02
-2.815747012693410767e+00 4.766966327998229502e+00 3.440000000000000000e+02
-2.107074752470923240e+00 3.543126621340877858e+00 3.440000000000000000e+02
-1.398402492248435713e+00 2.319286914683527101e+00 3.440000000000000000e+02
-6.897302320259480757e-01 1.095447208026175900e+00 3.440000000000000000e+02
1.894202819653950653e-02 -1.283924986311748562e-01 3.440000000000000000e+02
7.276142884190273108e-01 -1.352232205288525835e+00 3.440000000000000000e+02
1.436286548641514837e+00 -2.576071911945876813e+00 3.440000000000000000e+02
2.144958808864001920e+00 -3.799911618603227570e+00 3.440000000000000000e+02
2.853631069086489891e+00 -5.023751325260578326e+00 3.440000000000000000e+02
-3.073330735910842382e+00 3.800710344558309473e+00 3.450000000000000000e+02
-2.364658475688354855e+00 2.576870637900958716e+00 3.450000000000000000e+02
-1.655986215465867328e+00 1.353030931243607515e+00 3.450000000000000000e+02
-9.473139552433798016e-01 1.291912245862568420e-01 3.450000000000000000e+02
-2.386416950208921361e-01 -1.094648482071094220e+00 3.450000000000000000e+02
4.700305652015955293e-01 -2.318488188728445198e+00 3.450000000000000000e+02
1.178702825424083001e+00 -3.542327895385795955e+00 3.450000000000000000e+02
-3.073330735910842382e+00 3.800710344558309473e+00 3.460000000000000000e+02
-2.364658475688354855e+00 2.576870637900958716e+00 3.460000000000000000e+02
-1.655986215465867328e+00 1.353030931243607515e+00 3.460000000000000000e+02
-9.473139552433798016e-01 1.291912245862568420e-01 3.460000000000000000e+02
-2.386416950208921361e-01 -1.094648482071094220e+00 3.460000000000000000e+02
4.700305652015955293e-01 -2.318488188728445198e+00 3.460000000000000000e+02
1.178702825424083001e+00 -3.542327895385795955e+00 3.460000000000000000e+02
-3.073330735910842382e+00 3.800710344558309473e+00 3.470000000000000000e+02
-2.364658475688354855e+00 2.576870637900958716e+00 3.470000000000000000e+02
-1.655986215465867328e+00 1.353030931243607515e+00 3.470000000000000000e+02
-9.473139552433798016e-01 1.291912245862568420e-01 3.470000000000000000e+02
-2.386416950208921361e-01 -1.094648482071094220e+00 3.470000000000000000e+02
4.700305652015955293e-01 -2.318488188728445198e+00 3.470000000000000000e+02
1.178702825424083001e+00 -3.542327895385795955e+00 3.470000000000000000e+02
1.887375085646570749e+00 -4.766167602043146267e+00 3.470000000000000000e+02
-3.073330735910842382e+00 3.800710344558309473e+00 3.480000000000000000e+02
-2.364658475688354855e+00 2.576870637900958716e+00 3.480000000000000000e+02
-1.655986215465867328e+00 1.353030931243607515e+00 3.480000000000000000e+02
-9.473139552433798016e-01 1.291912245862568420e-01 3.480000000000000000e+02
-2.386416950208921361e-01 -1.094648482071094220e+00 3.480000000000000000e+02
4.700305652015955293e-01 -2.318488188728445198e+00 3.480000000000000000e+02
1.178702825424083001e+00 -3.542327895385795955e+00 3.480000000000000000e+02
1.887375085646570749e+00 -4.766167602043146267e+00 3.480000000000000000e+02
-3.073330735910842382e+00 3.800710344558309473e+00 3.490000000000000000e+02
-2.364658475688354855e+00 2.576870637900958716e+00 3.490000000000000000e+02
-1.655986215465867328e+00 1.353030931243607515e+00 3.490000000000000000e+02
-9.473139552433798016e-01 1.291912245862568420e-01 3.490000000000000000e+02
-2.386416950208921361e-01 -1.094648482071094220e+00 3.490000000000000000e+02
4.700305652015955293e-01 -2.318488188728445198e+00 3.490000000000000000e+02
1.178702825424083001e+00 -3.542327895385795955e+00 3.490000000000000000e+02
1.887375085646570749e+00 -4.766167602043146267e+00 3.490000000000000000e+02
-3.073330735910842382e+00 3.800710344558309473e+00 3.500000000000000000e+02
-2.364658475688354855e+00 2.576870637900958716e+00 3.500000000000000000e+02
-1.655986215465867328e+00 1.353030931243607515e+00 3.500000000000000000e+02
-9.473139552433798016e-01 1.291912245862568420e-01 3.500000000000000000e+02
-2.386416950208921361e-01 -1.094648482071094220e+00 3.500000000000000000e+02
4.700305652015955293e-01 -2.318488188728445198e+00 3.500000000000000000e+02
1.178702825424083001e+00 -3.542327895385795955e+00 3.500000000000000000e+02
1.887375085646570749e+00 -4.766167602043146267e+00 3.500000000000000000e+02
-3.073330735910842382e+00 3.800710344558309473e+00 3.510000000000000000e+02
-2.364658475688354855e+00 2.576870637900958716e+00 3.510000000000000000e+02
-1.655986215465867328e+00 1.353030931243607515e+00 3.510000000000000000e+02
-9.473139552433798016e-01 1.291912245862568420e-01 3.510000000000000000e+02
-2.386416950208921361e-01 -1.094648482071094220e+00 3.510000000000000000e+02
4.700305652015955293e-01 -2.318488188728445198e+00 3.510000000000000000e+02
1.178702825424083001e+00 -3.542327895385795955e+00 3.510000000000000000e+02
1.887375085646570749e+00 -4.766167602043146267e+00 3.510000000000000000e+02
-2.815747012693410767e+00 4.766966327998229502e+00 3.520000000000000000e+02
-2.107074752470923240e+00 3.543126621340877858e+00 3.520000000000000000e+02
-1.398402492248435713e+00 2.319286914683527101e+00 3.520000000000000000e+02
-6.897302320259480757e-01 1.095447208026175900e+00 3.520000000000000000e+02
1.894202819653950653e-02 -1.283924986311748562e-01 3.520000000000000000e+02
7.276142884190273108e-01 -1.352232205288525835e+00 3.520000000000000000e+02
1.436286548641514837e+00 -2.576071911945876813e+00 3.520000000000000000e+02
2.144958808864001920e+00 -3.799911618603227570e+00 3.520000000000000000e+02
2.853631069086489891e+00 -5.023751325260578326e+00 3.520000000000000000e+02
-3.073330735910842382e+00 3.800710344558309473e+00 3.530000000000000000e+02
-2.364658475688354855e+00 2.576870637900958716e+00 3.530000000000000000e+02
-1.655986215465867328e+00 1.353030931243607515e+00 3.530000000000000000e+02
-9.473139552433798016e-01 1.291912245862568420e-01 3.530000000000000000e+02
-2.386416950208921361e-01 -1.094648482071094220e+00 3.530000000000000000e+02
4.700305652015955293e-01 -2.318488188728445198e+00 3.530000000000000000e+02
1.178702825424083001e+00 -3.542327895385795955e+00 3.530000000000000000e+02
1.887375085646570749e+00 -4.766167602043146267e+00 3.530000000000000000e+02
-3.073330735910842382e+00 3.800710344558309473e+00 3.540000000000000000e+02
-2.364658475688354855e+00 2.576870637900958716e+00 3.540000000000000000e+02
-1.655986215465867328e+00 1.353030931243607515e+00 3.540000000000000000e+02
-9.473139552433798016e-01 1.291912245862568420e-01 3.540000000000000000e+02
-2.386416950208921361e-01 -1.094648482071094220e+00 3.540000000000000000e+02
4.700305652015955293e-01 -2.318488188728445198e+00 3.540000000000000000e+02
1.178702825424083001e+00 -3.542327895385795955e+00 3.540000000000000000e+02
1.887375085646570749e+00 -4.766167602043146267e+00 3.540000000000000000e+02
-3.073330735910842382e+00 3.800710344558309473e+00 3.550000000000000000e+02
-2.364658475688354855e+00 2.576870637900958716e+00 3.550000000000000000e+02
-1.655986215465867328e+00 1.353030931243607515e+00 3.550000000000000000e+02
-9.473139552433798016e-01 1.291912245862568420e-01 3.550000000000000000e+02
-2.386416950208921361e-01 -1.094648482071094220e+00 3.550000000000000000e+02
4.700305652015955293e-01 -2.318488188728445198e+00 3.550000000000000000e+02
1.178702825424083001e+00 -3.542327895385795955e+00 3.550000000000000000e+02
1.887375085646570749e+00 -4.766167602043146267e+00 3.550000000000000000e+02
-3.073330735910842382e+00 3.800710344558309473e+00 3.560000000000000000e+02
-2.364658475688354855e+00 2.576870637900958716e+00 3.560000000000000000e+02
-1.655986215465867328e+00 1.353030931243607515e+00 3.560000000000000000e+02
-9.473139552433798016e-01 1.291912245862568420e-01 3.560000000000000000e+02
-2.386416950208921361e-01 -1.094648482071094220e+00 3.560000000000000000e+02
4.700305652015955293e-01 -2.318488188728445198e+00 3.560000000000000000e+02
1.178702825424083001e+00 -3.542327895385795955e+00 3.560000000000000000e+02
1.887375085646570749e+00 -4.766167602043146267e+00 3.560000000000000000e+02
-3.073330735910842382e+00 3.800710344558309473e+00 3.570000000000000000e+02
-2.364658475688354855e+00 2.576870637900958716e+00 3.570000000000000000e+02
-1.655986215465867328e+00 1.353030931243607515e+00 3.570000000000000000e+02
-9.473139552433798016e-01 1.291912245862568420e-01 3.570000000000000000e+02
-2.386416950208921361e-01 -1.094648482071094220e+00 3.570000000000000000e+02
4.700305652015955293e-01 -2.318488188728445198e+00 3.570000000000000000e+02
1.178702825424083001e+00 -3.542327895385795955e+00 3.570000000000000000e+02
1.887375085646570749e+00 -4.766167602043146267e+00 3.570000000000000000e+02
-3.073330735910842382e+00 3.800710344558309473e+00 3.580000000000000000e+02
-2.364658475688354855e+00 2.576870637900958716e+00 3.580000000000000000e+02
-1.655986215465867328e+00 1.353030931243607515e+00 3.580000000000000000e+02
-9.473139552433798016e-01 1.291912245862568420e-01 3.580000000000000000e+02
-2.386416950208921361e-01 -1.094648482071094220e+00 3.580000000000000000e+02
4.700305652015955293e-01 -2.318488188728445198e+00 3.580000000000000000e+02
1.178702825424083001e+00 -3.542327895385795955e+00 3.580000000000000000e+02
1.887375085646570749e+00 -4.766167602043146267e+00 3.580000000000000000e+02
-3.073330735910842382e+00 3.800710344558309473e+00 3.590000000000000000e+02
-2.364658475688354855e+00 2.576870637900958716e+00 3.590000000000000000e+02
-1.655986215465867328e+00 1.353030931243607515e+00 3.590000000000000000e+02
-9.473139552433798016e-01 1.291912245862568420e-01 3.590000000000000000e+02
-2.386416950208921361e-01 -1.094648482071094220e+00 3.590000000000000000e+02
4.700305652015955293e-01 -2.318488188728445198e+00 3.590000000000000000e+02
1.178702825424083001e+00 -3.542327895385795955e+00 3.590000000000000000e+02
1.887375085646570749e+00 -4.766167602043146267e+00 3.590000000000000000e+02
-3.073330735910842382e+00 3.800710344558309473e+00 3.600000000000000000e+02
-2.364658475688354855e+00 2.576870637900958716e+00 3.600000000000000000e+02
-1.655986215465867328e+00 1.353030931243607515e+00 3.600000000000000000e+02
-9.473139552433798016e-01 1.291912245862568420e-01 3.600000000000000000e+02
-2.386416950208921361e-01 -1.094648482071094220e+00 3.600000000000000000e+02
4.700305652015955293e-01 -2.318488188728445198e+00 3.600000000000000000e+02
1.178702825424083001e+00 -3.542327895385795955e+00 3.600000000000000000e+02
1.887375085646570749e+00 -4.766167602043146267e+00 3.600000000000000000e+02
-3.073330735910842382e+00 3.800710344558309473e+00 3.610000000000000000e+02
-2.364658475688354855e+00 2.576870637900958716e+00 3.610000000000000000e+02
-1.655986215465867328e+00 1.353030931243607515e+00 3.610000000000000000e+02
-9.473139552433798016e-01 1.291912245862568420e-01 3.610000000000000000e+02
-2.386416950208921361e-01 -1.094648482071094220e+00 3.610000000000000000e+02
4.700305652015955293e-01 -2.318488188728445198e+00 3.610000000000000000e+02
1.178702825424083001e+00 -3.542327895385795955e+00 3.610000000000000000e+02
1.887375085646570749e+00 -4.766167602043146267e+00 3.610000000000000000e+02
-3.073330735910842382e+00 3.800710344558309473e+00 3.620000000000000000e+02
-2.364658475688354855e+00 2.576870637900958716e+00 3.620000000000000000e+02
-1.655986215465867328e+00 1.353030931243607515e+00 3.620000000000000000e+02
-9.473139552433798016e-01 1.291912245862568420e-01 3.620000000000000000e+02
-2.386416950208921361e-01 -1.094648482071094220e+00 3.620000000000000000e+02
4.700305652015955293e-01 -2.318488188728445198e+00 3.620000000000000000e+02
1.178702825424083001e+00 -3.542327895385795955e+00 3.620000000000000000e+02
1.887375085646570749e+00 -4.766167602043146267e+00 3.620000000000000000e+02
-3.073330735910842382e+00 3.800710344558309473e+00 3.630000000000000000e+02
-2.364658475688354855e+00 2.576870637900958716e+00 3.630000000000000000e+02
-1.655986215465867328e+00 1.353030931243607515e+00 3.630000000000000000e+02
-9.473139552433798016e-01 1.291912245862568420e-01 3.630000000000000000e+02
-2.386416950208921361e-01 -1.094648482071094220e+00 3.630000000000000000e+02
4.700305652015955293e-01 -2.318488188728445198e+00 3.630000000000000000e+02
1.178702825424083001e+00 -3.542327895385795955e+00 3.630000000000000000e+02
1.887375085646570749e+00 -4.766167602043146267e+00 3.630000000000000000e+02
-3.073330735910842382e+00 3.800710344558309473e+00 3.640000000000000000e+02
-2.364658475688354855e+00 2.576870637900958716e+00 3.640000000000000000e+02
-1.655986215465867328e+00 1.353030931243607515e+00 3.640000000000000000e+02
-9.473139552433798016e-01 1.291912245862568420e-01 3.640000000000000000e+02
-2.386416950208921361e-01 -1.094648482071094220e+00 3.640000000000000000e+02
4.700305652015955293e-01 -2.318488188728445198e+00 3.640000000000000000e+02
1.178702825424083001e+00 -3.542327895385795955e+00 3.640000000000000000e+02
-3.073330735910842382e+00 3.800710344558309473e+00 3.650000000000000000e+02
-2.364658475688354855e+00 2.576870637900958716e+00 3.650000000000000000e+02
-1.655986215465867328e+00 1.353030931243607515e+00 3.650000000000000000e+02
-9.473139552433798016e-01 1.291912245862568420e-01 3.650000000000000000e+02
-2.386416950208921361e-01 -1.094648482071094220e+00 3.650000000000000000e+02
4.700305652015955293e-01 -2.318488188728445198e+00 3.650000000000000000e+02
1.178702825424083001e+00 -3.542327895385795955e+00 3.650000000000000000e+02
-3.073330735910842382e+00 3.800710344558309473e+00 3.660000000000000000e+02
-2.364658475688354855e+00 2.576870637900958716e+00 3.660000000000000000e+02
-1.655986215465867328e+00 1.353030931243607515e+00 3.660000000000000000e+02
-9.473139552433798016e-01 1.291912245862568420e-01 3.660000000000000000e+02
-2.386416950208921361e-01 -1.094648482071094220e+00 3.660000000000000000e+02
4.700305652015955293e-01 -2.318488188728445198e+00 3.660000000000000000e+02
1.178702825424083001e+00 -3.542327895385795955e+00 3.660000000000000000e+02
1.887375085646570749e+00 -4.766167602043146267e+00 3.660000000000000000e+02
-3.073330735910842382e+00 3.800710344558309473e+00 3.670000000000000000e+02
-2.364658475688354855e+00 2.576870637900958716e+00 3.670000000000000000e+02
-1.655986215465867328e+00 1.353030931243607515e+00 3.670000000000000000e+02
-9.473139552433798016e-01 1.291912245862568420e-01 3.670000000000000000e+02
-2.386416950208921361e-01 -1.094648482071094220e+00 3.670000000000000000e+02
4.700305652015955293e-01 -2.318488188728445198e+00 3.670000000000000000e+02
1.178702825424083001e+00 -3.542327895385795955e+00 3.670000000000000000e+02
1.887375085646570749e+00 -4.766167602043146267e+00 3.670000000000000000e+02
-2.815747012693410767e+00 4.766966327998229502e+00 3.680000000000000000e+02
-2.107074752470923240e+00 3.543126621340877858e+00 3.680000000000000000e+02
-1.398402492248435713e+00 2.319286914683527101e+00 3.680000000000000000e+02
-6.897302320259480757e-01 1.095447208026175900e+00 3.680000000000000000e+02
1.894202819653950653e-02 -1.283924986311748562e-01 3.680000000000000000e+02
7.276142884190273108e-01 -1.352232205288525835e+00 3.680000000000000000e+02
1.436286548641514837e+00 -2.576071911945876813e+00 3.680000000000000000e+02
2.144958808864001920e+00 -3.799911618603227570e+00 3.680000000000000000e+02
2.853631069086489891e+00 -5.023751325260578326e+00 3.680000000000000000e+02
-3.073330735910842382e+00 3.800710344558309473e+00 3.690000000000000000e+02
-2.364658475688354855e+00 2.576870637900958716e+00 3.690000000000000000e+02
-1.655986215465867328e+00 1.353030931243607515e+00 3.690000000000000000e+02
-9.473139552433798016e-01 1.291912245862568420e-01 3.690000000000000000e+02
-2.386416950208921361e-01 -1.094648482071094220e+00 3.690000000000000000e+02
4.700305652015955293e-01 -2.318488188728445198e+00 3.690000000000000000e+02
1.178702825424083001e+00 -3.542327895385795955e+00 3.690000000000000000e+02
1.887375085646570749e+00 -4.766167602043146267e+00 3.690000000000000000e+02
-3.073330735910842382e+00 3.800710344558309473e+00 3.700000000000000000e+02
-2.364658475688354855e+00 2.576870637900958716e+00 3.700000000000000000e+02
-1.655986215465867328e+00 1.353030931243607515e+00 3.700000000000000000e+02
-9.473139552433798016e-01 1.291912245862568420e-01 3.700000000000000000e+02
-2.386416950208921361e-01 -1.094648482071094220e+00 3.700000000000000000e+02
4.700305652015955293e-01 -2.318488188728445198e+00 3.700000000000000000e+02
1.178702825424083001e+00 -3.542327895385795955e+00 3.700000000000000000e+02
1.887375085646570749e+00 -4.766167602043146267e+00 3.700000000000000000e+02
-3.073330735910842382e+00 3.800710344558309473e+00 3.710000000000000000e+02
-2.364658475688354855e+00 2.576870637900958716e+00 3.710000000000000000e+02
-1.655986215465867328e+00 1.353030931243607515e+00 3.710000000000000000e+02
-9.473139552433798016e-01 1.291912245862568420e-01 3.710000000000000000e+02
-2.386416950208921361e-01 -1.094648482071094220e+00 3.710000000000000000e+02
4.700305652015955293e-01 -2.318488188728445198e+00 3.710000000000000000e+02
1.178702825424083001e+00 -3.542327895385795955e+00 3.710000000000000000e+02
1.887375085646570749e+00 -4.766167602043146267e+00 3.710000000000000000e+02
-3.073330735910842382e+00 3.800710344558309473e+00 3.720000000000000000e+02
-2.364658475688354855e+00 2.576870637900958716e+00 3.720000000000000000e+02
-1.655986215465867328e+00 1.353030931243607515e+00 3.720000000000000000e+02
-9.473139552433798016e-01 1.291912245862568420e-01 3.720000000000000000e+02
-2.386416950208921361e-01 -1.094648482071094220e+00 3.720000000000000000e+02
4.700305652015955293e-01 -2.318488188728445198e+00 3.720000000000000000e+02
1.178702825424083001e+00 -3.542327895385795955e+00 3.720000000000000000e+02
1.887375085646570749e+00 -4.766167602043146267e+00 3.720000000000000000e+02
-3.073330735910842382e+00 3.800710344558309473e+00 3.730000000000000000e+02
-2.364658475688354855e+00 2.576870637900958716e+00 3.730000000000000000e+02
-1.655986215465867328e+00 1.353030931243607515e+00 3.730000000000000000e+02
-9.473139552433798016e-01 1.291912245862568420e-01 3.730000000000000000e+02
-2.386416950208921361e-01 -1.094648482071094220e+00 3.730000000000000000e+02
4.700305652015955293e-01 -2.318488188728445198e+00 3.730000000000000000e+02
1.178702825424083001e+00 -3.542327895385795955e+00 3.730000000000000000e+02
1.887375085646570749e+00 -4.766167602043146267e+00 3.730000000000000000e+02
-3.073330735910842382e+00 3.800710344558309473e+00 3.740000000000000000e+02
-2.364658475688354855e+00 2.576870637900958716e+00 3.740000000000000000e+02
-1.655986215465867328e+00 1.353030931243607515e+00 3.740000000000000000e+02
-9.473139552433798016e-01 1.291912245862568420e-01 3.740000000000000000e+02
-2.386416950208921361e-01 -1.094648482071094220e+00 3.740000000000000000e+02
4.700305652015955293e-01 -2.318488188728445198e+00 3.740000000000000000e+02
1.178702825424083001e+00 -3.542327895385795955e+00 3.740000000000000000e+02
1.887375085646570749e+00 -4.766167602043146267e+00 3.740000000000000000e+02
-3.073330735910842382e+00 3.800710344558309473e+00 3.750000000000000000e+02
-2.364658475688354855e+00 2.576870637900958716e+00 3.750000000000000000e+02
-1.655986215465867328e+00 1.353030931243607515e+00 3.750000000000000000e+02
-9.473139552433798016e-01 1.291912245862568420e-01 3.750000000000000000e+02
-2.386416950208921361e-01 -1.094648482071094220e+00 3.750000000000000000e+02
4.700305652015955293e-01 -2.318488188728445198e+00 3.750000000000000000e+02
1.178702825424083001e+00 -3.542327895385795955e+00 3.750000000000000000e+02
1.887375085646570749e+00 -4.766167602043146267e+00 3.750000000000000000e+02
-3.073330735910842382e+00 3.800710344558309473e+00 3.760000000000000000e+02
-2.364658475688354855e+00 2.576870637900958716e+00 3.760000000000000000e+02
-1.655986215465867328e+00 1.353030931243607515e+00 3.760000000000000000e+02
-9.473139552433798016e-01 1.291912245862568420e-01 3.760000000000000000e+02
-2.386416950208921361e-01 -1.094648482071094220e+00 3.760000000000000000e+02
4.700305652015955293e-01 -2.318488188728445198e+00 3.760000000000000000e+02
1.178702825424083001e+00 -3.542327895385795955e+00 3.760000000000000000e+02
1.887375085646570749e+00 -4.766167602043146267e+00 3.760000000000000000e+02
-3.073330735910842382e+00 3.800710344558309473e+00 3.770000000000000000e+02
-2.364658475688354855e+00 2.576870637900958716e+00 3.770000000000000000e+02
-1.655986215465867328e+00 1.353030931243607515e+00 3.770000000000000000e+02
-9.473139552433798016e-01 1.291912245862568420e-01 3.770000000000000000e+02
-2.386416950208921361e-01 -1.094648482071094220e+00 3.770000000000000000e+02
4.700305652015955293e-01 -2.318488188728445198e+00 3.770000000000000000e+02
1.178702825424083001e+00 -3.542327895385795955e+00 3.770000000000000000e+02
1.887375085646570749e+00 -4.766167602043146267e+00 3.770000000000000000e+02
-3.073330735910842382e+00 3.800710344558309473e+00 3.780000000000000000e+02
-2.364658475688354855e+00 2.576870637900958716e+00 3.780000000000000000e+02
-1.655986215465867328e+00 1.353030931243607515e+00 3.780000000000000000e+02
-9.473139552433798016e-01 1.291912245862568420e-01 3.780000000000000000e+02
-2.386416950208921361e-01 -1.094648482071094220e+00 3.780000000000000000e+02
4.700305652015955293e-01 -2.318488188728445198e+00 3.780000000000000000e+02
1.178702825424083001e+00 -3.542327895385795955e+00 3.780000000000000000e+02
1.887375085646570749e+00 -4.766167602043146267e+00 3.780000000000000000e+02
-3.073330735910842382e+00 3.800710344558309473e+00 3.790000000000000000e+02
-2.364658475688354855e+00 2.576870637900958716e+00 3.790000000000000000e+02
-1.655986215465867328e+00 1.353030931243607515e+00 3.790000000000000000e+02
-9.473139552433798016e-01 1.291912245862568420e-01 3.790000000000000000e+02
-2.386416950208921361e-01 -1.094648482071094220e+00 3.790000000000000000e+02
4.700305652015955293e-01 -2.318488188728445198e+00 3.790000000000000000e+02
1.178702825424083001e+00 -3.542327895385795955e+00 3.790000000000000000e+02
1.887375085646570749e+00 -4.766167602043146267e+00 3.790000000000000000e+02
-3.073330735910842382e+00 3.800710344558309473e+00 3.800000000000000000e+02
-2.364658475688354855e+00 2.576870637900958716e+00 3.800000000000000000e+02
-1.655986215465867328e+00 1.353030931243607515e+00 3.800000000000000000e+02
-9.473139552433798016e-01 1.291912245862568420e-01 3.800000000000000000e+02
-2.386416950208921361e-01 -1.094648482071094220e+00 3.800000000000000000e+02
4.700305652015955293e-01 -2.318488188728445198e+00 3.800000000000000000e+02
1.178702825424083001e+00 -3.542327895385795955e+00 3.800000000000000000e+02
1.887375085646570749e+00 -4.766167602043146267e+00 3.800000000000000000e+02
-3.073330735910842382e+00 3.800710344558309473e+00 3.810000000000000000e+02
-2.364658475688354855e+00 2.576870637900958716e+00 3.810000000000000000e+02
-1.655986215465867328e+00 1.353030931243607515e+00 3.810000000000000000e+02
-9.473139552433798016e-01 1.291912245862568420e-01 3.810000000000000000e+02
-2.386416950208921361e-01 -1.094648482071094220e+00 3.810000000000000000e+02
4.700305652015955293e-01 -2.318488188728445198e+00 3.810000000000000000e+02
1.178702825424083001e+00 -3.542327895385795955e+00 3.810000000000000000e+02
1.887375085646570749e+00 -4.766167602043146267e+00 3.810000000000000000e+02
-3.073330735910842382e+00 3.800710344558309473e+00 3.820000000000000000e+02
-2.364658475688354855e+00 2.576870637900958716e+00 3.820000000000000000e+02
-1.655986215465867328e+00 1.353030931243607515e+00 3.820000000000000000e+02
-9.473139552433798016e-01 1.291912245862568420e-01 3.820000000000000000e+02
-2.386416950208921361e-01 -1.094648482071094220e+00 3.820000000000000000e+02
4.700305652015955293e-01 -2.318488188728445198e+00 3.820000000000000000e+02
1.178702825424083001e+00 -3.542327895385795955e+00 3.820000000000000000e+02
-3.073330735910842382e+00 3.800710344558309473e+00 3.830000000000000000e+02
-2.364658475688354855e+00 2.576870637900958716e+00 3.830000000000000000e+02
-1.655986215465867328e+00 1.353030931243607515e+00 3.830000000000000000e+02
-9.473139552433798016e-01 1.291912245862568420e-01 3.830000000000000000e+02
-2.386416950208921361e-01 -1.094648482071094220e+00 3.830000000000000000e+02
4.700305652015955293e-01 -2.318488188728445198e+00 3.830000000000000000e+02
1.178702825424083001e+00 -3.542327895385795955e+00 3.830000000000000000e+02
-3.073330735910842382e+00 3.800710344558309473e+00 3.840000000000000000e+02
-2.364658475688354855e+00 2.576870637900958716e+00 3.840000000000000000e+02
-1.655986215465867328e+00 1.353030931243607515e+00 3.840000000000000000e+02
-9.473139552433798016e-01 1.291912245862568420e-01 3.840000000000000000e+02
-2.386416950208921361e-01 -1.094648482071094220e+00 3.840000000000000000e+02
4.700305652015955293e-01 -2.318488188728445198e+00 3.840000000000000000e+02
1.178702825424083001e+00 -3.542327895385795955e+00 3.840000000000000000e+02
-3.073330735910842382e+00 3.800710344558309473e+00 3.850000000000000000e+02
-2.364658475688354855e+00 2.576870637900958716e+00 3.850000000000000000e+02
-1.655986215465867328e+00 1.353030931243607515e+00 3.850000000000000000e+02
-9.473139552433798016e-01 1.291912245862568420e-01 3.850000000000000000e+02
-2.386416950208921361e-01 -1.094648482071094220e+00 3.850000000000000000e+02
4.700305652015955293e-01 -2.318488188728445198e+00 3.850000000000000000e+02
1.178702825424083001e+00 -3.542327895385795955e+00 3.850000000000000000e+02
-3.073330735910842382e+00 3.800710344558309473e+00 3.860000000000000000e+02
-2.364658475688354855e+00 2.576870637900958716e+00 3.860000000000000000e+02
-1.655986215465867328e+00 1.353030931243607515e+00 3.860000000000000000e+02
-9.473139552433798016e-01 1.291912245862568420e-01 3.860000000000000000e+02
-2.386416950208921361e-01 -1.094648482071094220e+00 3.860000000000000000e+02
4.700305652015955293e-01 -2.318488188728445198e+00 3.860000000000000000e+02
1.178702825424083001e+00 -3.542327895385795955e+00 3.860000000000000000e+02
1.887375085646570749e+00 -4.766167602043146267e+00 3.860000000000000000e+02
-3.073330735910842382e+00 3.800710344558309473e+00 3.870000000000000000e+02
-2.364658475688354855e+00 2.576870637900958716e+00 3.870000000000000000e+02
-1.655986215465867328e+00 1.353030931243607515e+00 3.870000000000000000e+02
-9.473139552433798016e-01 1.291912245862568420e-01 3.870000000000000000e+02
-2.386416950208921361e-01 -1.094648482071094220e+00 3.870000000000000000e+02
4.700305652015955293e-01 -2.318488188728445198e+00 3.870000000000000000e+02
1.178702825424083001e+00 -3.542327895385795955e+00 3.870000000000000000e+02
1.887375085646570749e+00 -4.766167602043146267e+00 3.870000000000000000e+02
-3.073330735910842382e+00 3.800710344558309473e+00 3.880000000000000000e+02
-2.364658475688354855e+00 2.576870637900958716e+00 3.880000000000000000e+02
-1.655986215465867328e+00 1.353030931243607515e+00 3.880000000000000000e+02
-9.473139552433798016e-01 1.291912245862568420e-01 3.880000000000000000e+02
-2.386416950208921361e-01 -1.094648482071094220e+00 3.880000000000000000e+02
4.700305652015955293e-01 -2.318488188728445198e+00 3.880000000000000000e+02
1.178702825424083001e+00 -3.542327895385795955e+00 3.880000000000000000e+02
1.887375085646570749e+00 -4.766167602043146267e+00 3.880000000000000000e+02
-3.073330735910842382e+00 3.800710344558309473e+00 3.890000000000000000e+02
-2.364658475688354855e+00 2.576870637900958716e+00 3.890000000000000000e+02
-1.655986215465867328e+00 1.353030931243607515e+00 3.890000000000000000e+02
-9.473139552433798016e-01 1.291912245862568420e-01 3.890000000000000000e+02
-2.386416950208921361e-01 -1.094648482071094220e+00 3.890000000000000000e+02
4.700305652015955293e-01 -2.318488188728445198e+00 3.890000000000000000e+02
