7.542143456220891551e+00 6.427055107649508159e+01 3.310000000000000000e+02
8.542143683015762434e+00 6.527055084970015741e+01 3.310000000000000000e+02
9.542143909810633318e+00 6.627055062290523324e+01 3.310000000000000000e+02
1.054214413660550420e+01 6.727055039611030907e+01 3.310000000000000000e+02
1.154214436340037508e+01 6.827055016931538489e+01 3.310000000000000000e+02
3.542142549041408017e+00 6.027055198367477118e+01 3.320000000000000000e+02
4.542142775836278901e+00 6.127055175687984701e+01 3.320000000000000000e+02
5.542143002631149784e+00 6.227055153008492283e+01 3.320000000000000000e+02
6.542143229426020667e+00 6.327055130328999866e+01 3.320000000000000000e+02
7.542143456220891551e+00 6.427055107649508159e+01 3.320000000000000000e+02
8.542143683015762434e+00 6.527055084970015741e+01 3.320000000000000000e+02
9.542143909810633318e+00 6.627055062290523324e+01 3.320000000000000000e+02
1.054214413660550420e+01 6.727055039611030907e+01 3.320000000000000000e+02
1.154214436340037508e+01 6.827055016931538489e+01 3.320000000000000000e+02
1.254214459019524597e+01 6.927054994252046072e+01 3.320000000000000000e+02
3.542142549041408017e+00 6.027055198367477118e+01 3.330000000000000000e+02
4.542142775836278901e+00 6.127055175687984701e+01 3.330000000000000000e+02
5.542143002631149784e+00 6.227055153008492283e+01 3.330000000000000000e+02
6.542143229426020667e+00 6.327055130328999866e+01 3.330000000000000000e+02
7.542143456220891551e+00 6.427055107649508159e+01 3.330000000000000000e+02
8.542143683015762434e+00 6.527055084970015741e+01 3.330000000000000000e+02
9.542143909810633318e+00 6.627055062290523324e+01 3.330000000000000000e+02
1.054214413660550420e+01 6.727055039611030907e+01 3.330000000000000000e+02
1.154214436340037508e+01 6.827055016931538489e+01 3.330000000000000000e+02
1.254214459019524597e+01 6.927054994252046072e+01 3.330000000000000000e+02
3.542142549041408017e+00 6.027055198367477118e+01 3.340000000000000000e+02
4.542142775836278901e+00 6.127055175687984701e+01 3.340000000000000000e+02
5.542143002631149784e+00 6.227055153008492283e+01 3.340000000000000000e+02
6.542143229426020667e+00 6.327055130328999866e+01 3.340000000000000000e+02
7.542143456220891551e+00 6.427055107649508159e+01 3.340000000000000000e+02
8.542143683015762434e+00 6.527055084970015741e+01 3.340000000000000000e+02
9.542143909810633318e+00 6.627055062290523324e+01 3.340000000000000000e+02
1.054214413660550420e+01 6.727055039611030907e+01 3.340000000000000000e+02
1.154214436340037508e+01 6.827055016931538489e+01 3.340000000000000000e+02
1.254214459019524597e+01 6.927054994252046072e+01 3.340000000000000000e+02
3.542142549041408017e+00 6.027055198367477118e+01 3.350000000000000000e+02
4.542142775836278901e+00 6.127055175687984701e+01 3.350000000000000000e+02
5.542143002631149784e+00 6.227055153008492283e+01 3.350000000000000000e+02
6.542143229426020667e+00 6.327055130328999866e+01 3.350000000000000000e+02
7.542143456220891551e+00 6.427055107649508159e+01 3.350000000000000000e+02
8.542143683015762434e+00 6.527055084970015741e+01 3.350000000000000000e+02
9.542143909810633318e+00 6.627055062290523324e+01 3.350000000000000000e+02
1.054214413660550420e+01 6.727055039611030907e+01 3.350000000000000000e+02
1.154214436340037508e+01 6.827055016931538489e+01 3.350000000000000000e+02
1.254214459019524597e+01 6.927054994252046072e+01 3.350000000000000000e+02
3.542142549041408017e+00 6.027055198367477118e+01 3.360000000000000000e+02
4.542142775836278901e+00 6.127055175687984701e+01 3.360000000000000000e+02
5.542143002631149784e+00 6.227055153008492283e+01 3.360000000000000000e+02
6.542143229426020667e+00 6.327055130328999866e+01 3.360000000000000000e+02
7.542143456220891551e+00 6.427055107649508159e+01 3.360000000000000000e+02
8.542143683015762434e+00 6.527055084970015741e+01 3.360000000000000000e+02
9.542143909810633318e+00 6.627055062290523324e+01 3.360000000000000000e+02
1.054214413660550420e+01 6.727055039611030907e+01 3.360000000000000000e+02
1.154214436340037508e+01 6.827055016931538489e+01 3.360000000000000000e+02
1.254214459019524597e+01 6.927054994252046072e+01 3.360000000000000000e+02
3.542142549041408017e+00 6.027055198367477118e+01 3.370000000000000000e+02
4.542142775836278901e+00 6.127055175687984701e+01 3.370000000000000000e+02
5.542143002631149784e+00 6.227055153008492283e+01 3.370000000000000000e+02
6.542143229426020667e+00 6.327055130328999866e+01 3.370000000000000000e+02
7.542143456220891551e+00 6.427055107649508159e+01 3.370000000000000000e+02
8.542143683015762434e+00 6.527055084970015741e+01 3.370000000000000000e+02
9.542143909810633318e+00 6.627055062290523324e+01 3.370000000000000000e+02
1.054214413660550420e+01 6.727055039611030907e+01 3.370000000000000000e+02
1.154214436340037508e+01 6.827055016931538489e+01 3.370000000000000000e+02
3.542142549041408017e+00 6.027055198367477118e+01 3.380000000000000000e+02
4.542142775836278901e+00 6.127055175687984701e+01 3.380000000000000000e+02
5.542143002631149784e+00 6.227055153008492283e+01 3.380000000000000000e+02
6.542143229426020667e+00 6.327055130328999866e+01 3.380000000000000000e+02
7.542143456220891551e+00 6.427055107649508159e+01 3.380000000000000000e+02
8.542143683015762434e+00 6.527055084970015741e+01 3.380000000000000000e+02
9.542143909810633318e+00 6.627055062290523324e+01 3.380000000000000000e+02
1.054214413660550420e+01 6.727055039611030907e+01 3.380000000000000000e+02
1.154214436340037508e+01 6.827055016931538489e+01 3.380000000000000000e+02
2.542142549041433774e+00 6.027055221046966693e+01 3.390000000000000000e+02
3.542142775836304658e+00 6.127055198367474276e+01 3.390000000000000000e+02
4.542143002631176429e+00 6.227055175687981858e+01 3.390000000000000000e+02
5.542143229426046425e+00 6.327055153008490151e+01 3.390000000000000000e+02
6.542143456220918196e+00 6.427055130328997734e+01 3.390000000000000000e+02
7.542143683015789080e+00 6.527055107649505317e+01 3.390000000000000000e+02
8.542143909810659963e+00 6.627055084970012899e+01 3.390000000000000000e+02
9.542144136605530846e+00 6.727055062290520482e+01 3.390000000000000000e+02
1.054214436340040173e+01 6.827055039611028064e+01 3.390000000000000000e+02
1.154214459019527261e+01 6.927055016931535647e+01 3.390000000000000000e+02
1.254214481699014350e+01 7.027054994252044651e+01 3.390000000000000000e+02
2.542142549041433774e+00 6.027055221046966693e+01 3.400000000000000000e+02
3.542142775836304658e+00 6.127055198367474276e+01 3.400000000000000000e+02
4.542143002631176429e+00 6.227055175687981858e+01 3.400000000000000000e+02
5.542143229426046425e+00 6.327055153008490151e+01 3.400000000000000000e+02
6.542143456220918196e+00 6.427055130328997734e+01 3.400000000000000000e+02
7.542143683015789080e+00 6.527055107649505317e+01 3.400000000000000000e+02
8.542143909810659963e+00 6.627055084970012899e+01 3.400000000000000000e+02
9.542144136605530846e+00 6.727055062290520482e+01 3.400000000000000000e+02
1.054214436340040173e+01 6.827055039611028064e+01 3.400000000000000000e+02
1.154214459019527261e+01 6.927055016931535647e+01 3.400000000000000000e+02
1.254214481699014350e+01 7.027054994252044651e+01 3.400000000000000000e+02
2.542142549041433774e+00 6.027055221046966693e+01 3.410000000000000000e+02
3.542142775836304658e+00 6.127055198367474276e+01 3.410000000000000000e+02
4.542143002631176429e+00 6.227055175687981858e+01 3.410000000000000000e+02
5.542143229426046425e+00 6.327055153008490151e+01 3.410000000000000000e+02
6.542143456220918196e+00 6.427055130328997734e+01 3.410000000000000000e+02
7.542143683015789080e+00 6.527055107649505317e+01 3.410000000000000000e+02
8.542143909810659963e+00 6.627055084970012899e+01 3.410000000000000000e+02
9.542144136605530846e+00 6.727055062290520482e+01 3.410000000000000000e+02
1.054214436340040173e+01 6.827055039611028064e+01 3.410000000000000000e+02
1.154214459019527261e+01 6.927055016931535647e+01 3.410000000000000000e+02
1.254214481699014350e+01 7.027054994252044651e+01 3.410000000000000000e+02
2.542142549041433774e+00 6.027055221046966693e+01 3.420000000000000000e+02
3.542142775836304658e+00 6.127055198367474276e+01 3.420000000000000000e+02
4.542143002631176429e+00 6.227055175687981858e+01 3.420000000000000000e+02
5.542143229426046425e+00 6.327055153008490151e+01 3.420000000000000000e+02
6.542143456220918196e+00 6.427055130328997734e+01 3.420000000000000000e+02
7.542143683015789080e+00 6.527055107649505317e+01 3.420000000000000000e+02
8.542143909810659963e+00 6.627055084970012899e+01 3.420000000000000000e+02
9.542144136605530846e+00 6.727055062290520482e+01 3.420000000000000000e+02
1.054214436340040173e+01 6.827055039611028064e+01 3.420000000000000000e+02
1.154214459019527261e+01 6.927055016931535647e+01 3.420000000000000000e+02
1.254214481699014350e+01 7.027054994252044651e+01 3.420000000000000000e+02
2.542142549041433774e+00 6.027055221046966693e+01 3.430000000000000000e+02
3.542142775836304658e+00 6.127055198367474276e+01 3.430000000000000000e+02
4.542143002631176429e+00 6.227055175687981858e+01 3.430000000000000000e+02
5.542143229426046425e+00 6.327055153008490151e+01 3.430000000000000000e+02
6.542143456220918196e+00 6.427055130328997734e+01 3.430000000000000000e+02
7.542143683015789080e+00 6.527055107649505317e+01 3.430000000000000000e+02
8.542143909810659963e+00 6.627055084970012899e+01 3.430000000000000000e+02
9.542144136605530846e+00 6.727055062290520482e+01 3.430000000000000000e+02
1.054214436340040173e+01 6.827055039611028064e+01 3.430000000000000000e+02
1.154214459019527261e+01 6.927055016931535647e+01 3.430000000000000000e+02
1.254214481699014350e+01 7.027054994252044651e+01 3.430000000000000000e+02
3.542142549041408017e+00 6.027055198367477118e+01 3.440000000000000000e+02
4.542142775836278901e+00 6.127055175687984701e+01 3.440000000000000000e+02
5.542143002631149784e+00 6.227055153008492283e+01 3.440000000000000000e+02
6.542143229426020667e+00 6.327055130328999866e+01 3.440000000000000000e+02
7.542143456220891551e+00 6.427055107649508159e+01 3.440000000000000000e+02
8.542143683015762434e+00 6.527055084970015741e+01 3.440000000000000000e+02
9.542143909810633318e+00 6.627055062290523324e+01 3.440000000000000000e+02
1.054214413660550420e+01 6.727055039611030907e+01 3.440000000000000000e+02
1.154214436340037508e+01 6.827055016931538489e+01 3.440000000000000000e+02
1.254214459019524597e+01 6.927054994252046072e+01 3.440000000000000000e+02
3.542142549041408017e+00 6.027055198367477118e+01 3.450000000000000000e+02
4.542142775836278901e+00 6.127055175687984701e+01 3.450000000000000000e+02
5.542143002631149784e+00 6.227055153008492283e+01 3.450000000000000000e+02
6.542143229426020667e+00 6.327055130328999866e+01 3.450000000000000000e+02
7.542143456220891551e+00 6.427055107649508159e+01 3.450000000000000000e+02
8.542143683015762434e+00 6.527055084970015741e+01 3.450000000000000000e+02
9.542143909810633318e+00 6.627055062290523324e+01 3.450000000000000000e+02
1.054214413660550420e+01 6.727055039611030907e+01 3.450000000000000000e+02
1.154214436340037508e+01 6.827055016931538489e+01 3.450000000000000000e+02
1.254214459019524597e+01 6.927054994252046072e+01 3.450000000000000000e+02
2.542142549041433774e+00 6.027055221046966693e+01 3.460000000000000000e+02
3.542142775836304658e+00 6.127055198367474276e+01 3.460000000000000000e+02
4.542143002631176429e+00 6.227055175687981858e+01 3.460000000000000000e+02
5.542143229426046425e+00 6.327055153008490151e+01 3.460000000000000000e+02
6.542143456220918196e+00 6.427055130328997734e+01 3.460000000000000000e+02
7.542143683015789080e+00 6.527055107649505317e+01 3.460000000000000000e+02
8.542143909810659963e+00 6.627055084970012899e+01 3.460000000000000000e+02
9.542144136605530846e+00 6.727055062290520482e+01 3.460000000000000000e+02
1.054214436340040173e+01 6.827055039611028064e+01 3.460000000000000000e+02
1.154214459019527261e+01 6.927055016931535647e+01 3.460000000000000000e+02
2.542142549041433774e+00 6.027055221046966693e+01 3.470000000000000000e+02
3.542142775836304658e+00 6.127055198367474276e+01 3.470000000000000000e+02
4.542143002631176429e+00 6.227055175687981858e+01 3.470000000000000000e+02
5.542143229426046425e+00 6.327055153008490151e+01 3.470000000000000000e+02
6.542143456220918196e+00 6.427055130328997734e+01 3.470000000000000000e+02
7.542143683015789080e+00 6.527055107649505317e+01 3.470000000000000000e+02
8.542143909810659963e+00 6.627055084970012899e+01 3.470000000000000000e+02
9.542144136605530846e+00 6.727055062290520482e+01 3.470000000000000000e+02
1.054214436340040173e+01 6.827055039611028064e+01 3.470000000000000000e+02
1.154214459019527261e+01 6.927055016931535647e+01 3.470000000000000000e+02
2.542142549041433774e+00 6.027055221046966693e+01 3.480000000000000000e+02
3.542142775836304658e+00 6.127055198367474276e+01 3.480000000000000000e+02
4.542143002631176429e+00 6.227055175687981858e+01 3.480000000000000000e+02
5.542143229426046425e+00 6.327055153008490151e+01 3.480000000000000000e+02
6.542143456220918196e+00 6.427055130328997734e+01 3.480000000000000000e+02
7.542143683015789080e+00 6.527055107649505317e+01 3.480000000000000000e+02
8.542143909810659963e+00 6.627055084970012899e+01 3.480000000000000000e+02
9.542144136605530846e+00 6.727055062290520482e+01 3.480000000000000000e+02
1.054214436340040173e+01 6.827055039611028064e+01 3.480000000000000000e+02
1.154214459019527261e+01 6.927055016931535647e+01 3.480000000000000000e+02
2.542142549041433774e+00 6.027055221046966693e+01 3.490000000000000000e+02
3.542142775836304658e+00 6.127055198367474276e+01 3.490000000000000000e+02
4.542143002631176429e+00 6.227055175687981858e+01 3.490000000000000000e+02
5.542143229426046425e+00 6.327055153008490151e+01 3.490000000000000000e+02
6.542143456220918196e+00 6.427055130328997734e+01 3.490000000000000000e+02
7.542143683015789080e+00 6.527055107649505317e+01 3.490000000000000000e+02
8.542143909810659963e+00 6.627055084970012899e+01 3.490000000000000000e+02
9.542144136605530846e+00 6.727055062290520482e+01 3.490000000000000000e+02
1.054214436340040173e+01 6.827055039611028064e+01 3.490000000000000000e+02
1.154214459019527261e+01 6.927055016931535647e+01 3.490000000000000000e+02
1.254214481699014350e+01 7.027054994252044651e+01 3.490000000000000000e+02
2.542142549041433774e+00 6.027055221046966693e+01 3.500000000000000000e+02
3.542142775836304658e+00 6.127055198367474276e+01 3.500000000000000000e+02
4.542143002631176429e+00 6.227055175687981858e+01 3.500000000000000000e+02
5.542143229426046425e+00 6.327055153008490151e+01 3.500000000000000000e+02
6.542143456220918196e+00 6.427055130328997734e+01 3.500000000000000000e+02
7.542143683015789080e+00 6.527055107649505317e+01 3.500000000000000000e+02
8.542143909810659963e+00 6.627055084970012899e+01 3.500000000000000000e+02
9.542144136605530846e+00 6.727055062290520482e+01 3.500000000000000000e+02
1.054214436340040173e+01 6.827055039611028064e+01 3.500000000000000000e+02
1.154214459019527261e+01 6.927055016931535647e+01 3.500000000000000000e+02
1.254214481699014350e+01 7.027054994252044651e+01 3.500000000000000000e+02
2.542142549041433774e+00 6.027055221046966693e+01 3.510000000000000000e+02
3.542142775836304658e+00 6.127055198367474276e+01 3.510000000000000000e+02
4.542143002631176429e+00 6.227055175687981858e+01 3.510000000000000000e+02
5.542143229426046425e+00 6.327055153008490151e+01 3.510000000000000000e+02
6.542143456220918196e+00 6.427055130328997734e+01 3.510000000000000000e+02
7.542143683015789080e+00 6.527055107649505317e+01 3.510000000000000000e+02
8.542143909810659963e+00 6.627055084970012899e+01 3.510000000000000000e+02
9.542144136605530846e+00 6.727055062290520482e+01 3.510000000000000000e+02
1.054214436340040173e+01 6.827055039611028064e+01 3.510000000000000000e+02
1.154214459019527261e+01 6.927055016931535647e+01 3.510000000000000000e+02
1.254214481699014350e+01 7.027054994252044651e+01 3.510000000000000000e+02
2.542142549041433774e+00 6.027055221046966693e+01 3.520000000000000000e+02
3.542142775836304658e+00 6.127055198367474276e+01 3.520000000000000000e+02
4.542143002631176429e+00 6.227055175687981858e+01 3.520000000000000000e+02
5.542143229426046425e+00 6.327055153008490151e+01 3.520000000000000000e+02
6.542143456220918196e+00 6.427055130328997734e+01 3.520000000000000000e+02
7.542143683015789080e+00 6.527055107649505317e+01 3.520000000000000000e+02
8.542143909810659963e+00 6.627055084970012899e+01 3.520000000000000000e+02
9.542144136605530846e+00 6.727055062290520482e+01 3.520000000000000000e+02
1.054214436340040173e+01 6.827055039611028064e+01 3.520000000000000000e+02
1.154214459019527261e+01 6.927055016931535647e+01 3.520000000000000000e+02
1.254214481699014350e+01 7.027054994252044651e+01 3.520000000000000000e+02
2.542142549041433774e+00 6.027055221046966693e+01 3.530000000000000000e+02
3.542142775836304658e+00 6.127055198367474276e+01 3.530000000000000000e+02
4.542143002631176429e+00 6.227055175687981858e+01 3.530000000000000000e+02
5.542143229426046425e+00 6.327055153008490151e+01 3.530000000000000000e+02
6.542143456220918196e+00 6.427055130328997734e+01 3.530000000000000000e+02
7.542143683015789080e+00 6.527055107649505317e+01 3.530000000000000000e+02
8.542143909810659963e+00 6.627055084970012899e+01 3.530000000000000000e+02
9.542144136605530846e+00 6.727055062290520482e+01 3.530000000000000000e+02
1.054214436340040173e+01 6.827055039611028064e+01 3.530000000000000000e+02
1.154214459019527261e+01 6.927055016931535647e+01 3.530000000000000000e+02
1.254214481699014350e+01 7.027054994252044651e+01 3.530000000000000000e+02
3.542142549041408017e+00 6.027055198367477118e+01 3.540000000000000000e+02
4.542142775836278901e+00 6.127055175687984701e+01 3.540000000000000000e+02
5.542143002631149784e+00 6.227055153008492283e+01 3.540000000000000000e+02
6.542143229426020667e+00 6.327055130328999866e+01 3.540000000000000000e+02
7.542143456220891551e+00 6.427055107649508159e+01 3.540000000000000000e+02
8.542143683015762434e+00 6.527055084970015741e+01 3.540000000000000000e+02
9.542143909810633318e+00 6.627055062290523324e+01 3.540000000000000000e+02
1.054214413660550420e+01 6.727055039611030907e+01 3.540000000000000000e+02
1.154214436340037508e+01 6.827055016931538489e+01 3.540000000000000000e+02
1.254214459019524597e+01 6.927054994252046072e+01 3.540000000000000000e+02
3.542142549041408017e+00 6.027055198367477118e+01 3.550000000000000000e+02
4.542142775836278901e+00 6.127055175687984701e+01 3.550000000000000000e+02
5.542143002631149784e+00 6.227055153008492283e+01 3.550000000000000000e+02
6.542143229426020667e+00 6.327055130328999866e+01 3.550000000000000000e+02
7.542143456220891551e+00 6.427055107649508159e+01 3.550000000000000000e+02
8.542143683015762434e+00 6.527055084970015741e+01 3.550000000000000000e+02
9.542143909810633318e+00 6.627055062290523324e+01 3.550000000000000000e+02
1.054214413660550420e+01 6.727055039611030907e+01 3.550000000000000000e+02
1.154214436340037508e+01 6.827055016931538489e+01 3.550000000000000000e+02
1.254214459019524597e+01 6.927054994252046072e+01 3.550000000000000000e+02
2.542142549041433774e+00 6.027055221046966693e+01 3.560000000000000000e+02
3.542142775836304658e+00 6.127055198367474276e+01 3.560000000000000000e+02
4.542143002631176429e+00 6.227055175687981858e+01 3.560000000000000000e+02
5.542143229426046425e+00 6.327055153008490151e+01 3.560000000000000000e+02
6.542143456220918196e+00 6.427055130328997734e+01 3.560000000000000000e+02
7.542143683015789080e+00 6.527055107649505317e+01 3.560000000000000000e+02
8.542143909810659963e+00 6.627055084970012899e+01 3.560000000000000000e+02
9.542144136605530846e+00 6.727055062290520482e+01 3.560000000000000000e+02
1.054214436340040173e+01 6.827055039611028064e+01 3.560000000000000000e+02
1.154214459019527261e+01 6.927055016931535647e+01 3.560000000000000000e+02
1.254214481699014350e+01 7.027054994252044651e+01 3.560000000000000000e+02
2.542142549041433774e+00 6.027055221046966693e+01 3.570000000000000000e+02
3.542142775836304658e+00 6.127055198367474276e+01 3.570000000000000000e+02
4.542143002631176429e+00 6.227055175687981858e+01 3.570000000000000000e+02
5.542143229426046425e+00 6.327055153008490151e+01 3.570000000000000000e+02
6.542143456220918196e+00 6.427055130328997734e+01 3.570000000000000000e+02
7.542143683015789080e+00 6.527055107649505317e+01 3.570000000000000000e+02
8.542143909810659963e+00 6.627055084970012899e+01 3.570000000000000000e+02
9.542144136605530846e+00 6.727055062290520482e+01 3.570000000000000000e+02
1.054214436340040173e+01 6.827055039611028064e+01 3.570000000000000000e+02
1.154214459019527261e+01 6.927055016931535647e+01 3.570000000000000000e+02
1.254214481699014350e+01 7.027054994252044651e+01 3.570000000000000000e+02
2.542142549041433774e+00 6.027055221046966693e+01 3.580000000000000000e+02
3.542142775836304658e+00 6.127055198367474276e+01 3.580000000000000000e+02
4.542143002631176429e+00 6.227055175687981858e+01 3.580000000000000000e+02
5.542143229426046425e+00 6.327055153008490151e+01 3.580000000000000000e+02
6.542143456220918196e+00 6.427055130328997734e+01 3.580000000000000000e+02
7.542143683015789080e+00 6.527055107649505317e+01 3.580000000000000000e+02
8.542143909810659963e+00 6.627055084970012899e+01 3.580000000000000000e+02
9.542144136605530846e+00 6.727055062290520482e+01 3.580000000000000000e+02
1.054214436340040173e+01 6.827055039611028064e+01 3.580000000000000000e+02
1.154214459019527261e+01 6.927055016931535647e+01 3.580000000000000000e+02
1.254214481699014350e+01 7.027054994252044651e+01 3.580000000000000000e+02
3.542142549041408017e+00 6.027055198367477118e+01 3.590000000000000000e+02
4.542142775836278901e+00 6.127055175687984701e+01 3.590000000000000000e+02
5.542143002631149784e+00 6.227055153008492283e+01 3.590000000000000000e+02
6.542143229426020667e+00 6.327055130328999866e+01 3.590000000000000000e+02
7.542143456220891551e+00 6.427055107649508159e+01 3.590000000000000000e+02
8.542143683015762434e+00 6.527055084970015741e+01 3.590000000000000000e+02
9.542143909810633318e+00 6.627055062290523324e+01 3.590000000000000000e+02
1.054214413660550420e+01 6.727055039611030907e+01 3.590000000000000000e+02
1.154214436340037508e+01 6.827055016931538489e+01 3.590000000000000000e+02
1.254214459019524597e+01 6.927054994252046072e+01 3.590000000000000000e+02
2.542142549041433774e+00 6.027055221046966693e+01 3.600000000000000000e+02
3.542142775836304658e+00 6.127055198367474276e+01 3.600000000000000000e+02
4.542143002631176429e+00 6.227055175687981858e+01 3.600000000000000000e+02
5.542143229426046425e+00 6.327055153008490151e+01 3.600000000000000000e+02
6.542143456220918196e+00 6.427055130328997734e+01 3.600000000000000000e+02
7.542143683015789080e+00 6.527055107649505317e+01 3.600000000000000000e+02
8.542143909810659963e+00 6.627055084970012899e+01 3.600000000000000000e+02
9.542144136605530846e+00 6.727055062290520482e+01 3.600000000000000000e+02
1.054214436340040173e+01 6.827055039611028064e+01 3.600000000000000000e+02
1.154214459019527261e+01 6.927055016931535647e+01 3.600000000000000000e+02
1.254214481699014350e+01 7.027054994252044651e+01 3.600000000000000000e+02
3.542142549041408017e+00 6.027055198367477118e+01 3.610000000000000000e+02
4.542142775836278901e+00 6.127055175687984701e+01 3.610000000000000000e+02
5.542143002631149784e+00 6.227055153008492283e+01 3.610000000000000000e+02
6.542143229426020667e+00 6.327055130328999866e+01 3.610000000000000000e+02
7.542143456220891551e+00 6.427055107649508159e+01 3.610000000000000000e+02
8.542143683015762434e+00 6.527055084970015741e+01 3.610000000000000000e+02
9.542143909810633318e+00 6.627055062290523324e+01 3.610000000000000000e+02
1.054214413660550420e+01 6.727055039611030907e+01 3.610000000000000000e+02
1.154214436340037508e+01 6.827055016931538489e+01 3.610000000000000000e+02
1.254214459019524597e+01 6.927054994252046072e+01 3.610000000000000000e+02
3.542142549041408017e+00 6.027055198367477118e+01 3.620000000000000000e+02
4.542142775836278901e+00 6.127055175687984701e+01 3.620000000000000000e+02
5.542143002631149784e+00 6.227055153008492283e+01 3.620000000000000000e+02
6.542143229426020667e+00 6.327055130328999866e+01 3.620000000000000000e+02
7.542143456220891551e+00 6.427055107649508159e+01 3.620000000000000000e+02
8.542143683015762434e+00 6.527055084970015741e+01 3.620000000000000000e+02
9.542143909810633318e+00 6.627055062290523324e+01 3.620000000000000000e+02
1.054214413660550420e+01 6.727055039611030907e+01 3.620000000000000000e+02
1.154214436340037508e+01 6.827055016931538489e+01 3.620000000000000000e+02
1.254214459019524597e+01 6.927054994252046072e+01 3.620000000000000000e+02
3.542142549041408017e+00 6.027055198367477118e+01 3.630000000000000000e+02
4.542142775836278901e+00 6.127055175687984701e+01 3.630000000000000000e+02
5.542143002631149784e+00 6.227055153008492283e+01 3.630000000000000000e+02
6.542143229426020667e+00 6.327055130328999866e+01 3.630000000000000000e+02
7.542143456220891551e+00 6.427055107649508159e+01 3.630000000000000000e+02
8.542143683015762434e+00 6.527055084970015741e+01 3.630000000000000000e+02
9.542143909810633318e+00 6.627055062290523324e+01 3.630000000000000000e+02
1.054214413660550420e+01 6.727055039611030907e+01 3.630000000000000000e+02
1.154214436340037508e+01 6.827055016931538489e+01 3.630000000000000000e+02
1.254214459019524597e+01 6.927054994252046072e+01 3.630000000000000000e+02
2.542142549041433774e+00 6.027055221046966693e+01 3.640000000000000000e+02
3.542142775836304658e+00 6.127055198367474276e+01 3.640000000000000000e+02
4.542143002631176429e+00 6.227055175687981858e+01 3.640000000000000000e+02
5.542143229426046425e+00 6.327055153008490151e+01 3.640000000000000000e+02
6.542143456220918196e+00 6.427055130328997734e+01 3.640000000000000000e+02
7.542143683015789080e+00 6.527055107649505317e+01 3.640000000000000000e+02
8.542143909810659963e+00 6.627055084970012899e+01 3.640000000000000000e+02
9.542144136605530846e+00 6.727055062290520482e+01 3.640000000000000000e+02
1.054214436340040173e+01 6.827055039611028064e+01 3.640000000000000000e+02
1.154214459019527261e+01 6.927055016931535647e+01 3.640000000000000000e+02
1.254214481699014350e+01 7.027054994252044651e+01 3.640000000000000000e+02
1.354214504378501438e+01 7.127054971572552233e+01 3.640000000000000000e+02
1.454214527057988704e+01 7.227054948893059816e+01 3.640000000000000000e+02
2.542142549041433774e+00 6.027055221046966693e+01 3.650000000000000000e+02
3.542142775836304658e+00 6.127055198367474276e+01 3.650000000000000000e+02
4.542143002631176429e+00 6.227055175687981858e+01 3.650000000000000000e+02
5.542143229426046425e+00 6.327055153008490151e+01 3.650000000000000000e+02
6.542143456220918196e+00 6.427055130328997734e+01 3.650000000000000000e+02
7.542143683015789080e+00 6.527055107649505317e+01 3.650000000000000000e+02
8.542143909810659963e+00 6.627055084970012899e+01 3.650000000000000000e+02
9.542144136605530846e+00 6.727055062290520482e+01 3.650000000000000000e+02
1.054214436340040173e+01 6.827055039611028064e+01 3.650000000000000000e+02
1.154214459019527261e+01 6.927055016931535647e+01 3.650000000000000000e+02
1.254214481699014350e+01 7.027054994252044651e+01 3.650000000000000000e+02
1.354214504378501438e+01 7.127054971572552233e+01 3.650000000000000000e+02
1.454214527057988704e+01 7.227054948893059816e+01 3.650000000000000000e+02
2.542142549041433774e+00 6.027055221046966693e+01 3.660000000000000000e+02
3.542142775836304658e+00 6.127055198367474276e+01 3.660000000000000000e+02
4.542143002631176429e+00 6.227055175687981858e+01 3.660000000000000000e+02
5.542143229426046425e+00 6.327055153008490151e+01 3.660000000000000000e+02
6.542143456220918196e+00 6.427055130328997734e+01 3.660000000000000000e+02
7.542143683015789080e+00 6.527055107649505317e+01 3.660000000000000000e+02
8.542143909810659963e+00 6.627055084970012899e+01 3.660000000000000000e+02
9.542144136605530846e+00 6.727055062290520482e+01 3.660000000000000000e+02
1.054214436340040173e+01 6.827055039611028064e+01 3.660000000000000000e+02
1.154214459019527261e+01 6.927055016931535647e+01 3.660000000000000000e+02
1.254214481699014350e+01 7.027054994252044651e+01 3.660000000000000000e+02
1.354214504378501438e+01 7.127054971572552233e+01 3.660000000000000000e+02
1.454214527057988704e+01 7.227054948893059816e+01 3.660000000000000000e+02
2.542142549041433774e+00 6.027055221046966693e+01 3.670000000000000000e+02
3.542142775836304658e+00 6.127055198367474276e+01 3.670000000000000000e+02
4.542143002631176429e+00 6.227055175687981858e+01 3.670000000000000000e+02
5.542143229426046425e+00 6.327055153008490151e+01 3.670000000000000000e+02
6.542143456220918196e+00 6.427055130328997734e+01 3.670000000000000000e+02
7.542143683015789080e+00 6.527055107649505317e+01 3.670000000000000000e+02
8.542143909810659963e+00 6.627055084970012899e+01 3.670000000000000000e+02
9.542144136605530846e+00 6.727055062290520482e+01 3.670000000000000000e+02
1.054214436340040173e+01 6.827055039611028064e+01 3.670000000000000000e+02
1.154214459019527261e+01 6.927055016931535647e+01 3.670000000000000000e+02
1.254214481699014350e+01 7.027054994252044651e+01 3.670000000000000000e+02
1.354214504378501438e+01 7.127054971572552233e+01 3.670000000000000000e+02
2.542142549041433774e+00 6.027055221046966693e+01 3.680000000000000000e+02
3.542142775836304658e+00 6.127055198367474276e+01 3.680000000000000000e+02
4.542143002631176429e+00 6.227055175687981858e+01 3.680000000000000000e+02
5.542143229426046425e+00 6.327055153008490151e+01 3.680000000000000000e+02
6.542143456220918196e+00 6.427055130328997734e+01 3.680000000000000000e+02
7.542143683015789080e+00 6.527055107649505317e+01 3.680000000000000000e+02
8.542143909810659963e+00 6.627055084970012899e+01 3.680000000000000000e+02
9.542144136605530846e+00 6.727055062290520482e+01 3.680000000000000000e+02
1.054214436340040173e+01 6.827055039611028064e+01 3.680000000000000000e+02
1.154214459019527261e+01 6.927055016931535647e+01 3.680000000000000000e+02
1.254214481699014350e+01 7.027054994252044651e+01 3.680000000000000000e+02
2.542142549041433774e+00 6.027055221046966693e+01 3.690000000000000000e+02
3.542142775836304658e+00 6.127055198367474276e+01 3.690000000000000000e+02
4.542143002631176429e+00 6.227055175687981858e+01 3.690000000000000000e+02
5.542143229426046425e+00 6.327055153008490151e+01 3.690000000000000000e+02
6.542143456220918196e+00 6.427055130328997734e+01 3.690000000000000000e+02
7.542143683015789080e+00 6.527055107649505317e+01 3.690000000000000000e+02
8.542143909810659963e+00 6.627055084970012899e+01 3.690000000000000000e+02
9.542144136605530846e+00 6.727055062290520482e+01 3.690000000000000000e+02
1.054214436340040173e+01 6.827055039611028064e+01 3.690000000000000000e+02
1.154214459019527261e+01 6.927055016931535647e+01 3.690000000000000000e+02
1.254214481699014350e+01 7.027054994252044651e+01 3.690000000000000000e+02
2.542142549041433774e+00 6.027055221046966693e+01 3.700000000000000000e+02
3.542142775836304658e+00 6.127055198367474276e+01 3.700000000000000000e+02
4.542143002631176429e+00 6.227055175687981858e+01 3.700000000000000000e+02
5.542143229426046425e+00 6.327055153008490151e+01 3.700000000000000000e+02
6.542143456220918196e+00 6.427055130328997734e+01 3.700000000000000000e+02
7.542143683015789080e+00 6.527055107649505317e+01 3.700000000000000000e+02
8.542143909810659963e+00 6.627055084970012899e+01 3.700000000000000000e+02
9.542144136605530846e+00 6.727055062290520482e+01 3.700000000000000000e+02
1.054214436340040173e+01 6.827055039611028064e+01 3.700000000000000000e+02
1.154214459019527261e+01 6.927055016931535647e+01 3.700000000000000000e+02
1.254214481699014350e+01 7.027054994252044651e+01 3.700000000000000000e+02
2.542142549041433774e+00 6.027055221046966693e+01 3.710000000000000000e+02
3.542142775836304658e+00 6.127055198367474276e+01 3.710000000000000000e+02
4.542143002631176429e+00 6.227055175687981858e+01 3.710000000000000000e+02
5.542143229426046425e+00 6.327055153008490151e+01 3.710000000000000000e+02
6.542143456220918196e+00 6.427055130328997734e+01 3.710000000000000000e+02
7.542143683015789080e+00 6.527055107649505317e+01 3.710000000000000000e+02
8.542143909810659963e+00 6.627055084970012899e+01 3.710000000000000000e+02
9.542144136605530846e+00 6.727055062290520482e+01 3.710000000000000000e+02
1.054214436340040173e+01 6.827055039611028064e+01 3.710000000000000000e+02
1.154214459019527261e+01 6.927055016931535647e+01 3.710000000000000000e+02
1.254214481699014350e+01 7.027054994252044651e+01 3.710000000000000000e+02
2.542142549041433774e+00 6.027055221046966693e+01 3.720000000000000000e+02
3.542142775836304658e+00 6.127055198367474276e+01 3.720000000000000000e+02
4.542143002631176429e+00 6.227055175687981858e+01 3.720000000000000000e+02
5.542143229426046425e+00 6.327055153008490151e+01 3.720000000000000000e+02
6.542143456220918196e+00 6.427055130328997734e+01 3.720000000000000000e+02
7.542143683015789080e+00 6.527055107649505317e+01 3.720000000000000000e+02
8.542143909810659963e+00 6.627055084970012899e+01 3.720000000000000000e+02
9.542144136605530846e+00 6.727055062290520482e+01 3.720000000000000000e+02
1.054214436340040173e+01 6.827055039611028064e+01 3.720000000000000000e+02
1.154214459019527261e+01 6.927055016931535647e+01 3.720000000000000000e+02
1.254214481699014350e+01 7.027054994252044651e+01 3.720000000000000000e+02
3.542142549041408017e+00 6.027055198367477118e+01 3.730000000000000000e+02
4.542142775836278901e+00 6.127055175687984701e+01 3.730000000000000000e+02
5.542143002631149784e+00 6.227055153008492283e+01 3.730000000000000000e+02
6.542143229426020667e+00 6.327055130328999866e+01 3.730000000000000000e+02
7.542143456220891551e+00 6.427055107649508159e+01 3.730000000000000000e+02
8.542143683015762434e+00 6.527055084970015741e+01 3.730000000000000000e+02
9.542143909810633318e+00 6.627055062290523324e+01 3.730000000000000000e+02
1.054214413660550420e+01 6.727055039611030907e+01 3.730000000000000000e+02
1.154214436340037508e+01 6.827055016931538489e+01 3.730000000000000000e+02
1.254214459019524597e+01 6.927054994252046072e+01 3.730000000000000000e+02
3.542142549041408017e+00 6.027055198367477118e+01 3.740000000000000000e+02
4.542142775836278901e+00 6.127055175687984701e+01 3.740000000000000000e+02
5.542143002631149784e+00 6.227055153008492283e+01 3.740000000000000000e+02
6.542143229426020667e+00 6.327055130328999866e+01 3.740000000000000000e+02
7.542143456220891551e+00 6.427055107649508159e+01 3.740000000000000000e+02
8.542143683015762434e+00 6.527055084970015741e+01 3.740000000000000000e+02
9.542143909810633318e+00 6.627055062290523324e+01 3.740000000000000000e+02
1.054214413660550420e+01 6.727055039611030907e+01 3.740000000000000000e+02
1.154214436340037508e+01 6.827055016931538489e+01 3.740000000000000000e+02
1.254214459019524597e+01 6.927054994252046072e+01 3.740000000000000000e+02
3.542142549041408017e+00 6.027055198367477118e+01 3.750000000000000000e+02
4.542142775836278901e+00 6.127055175687984701e+01 3.750000000000000000e+02
5.542143002631149784e+00 6.227055153008492283e+01 3.750000000000000000e+02
6.542143229426020667e+00 6.327055130328999866e+01 3.750000000000000000e+02
7.542143456220891551e+00 6.427055107649508159e+01 3.750000000000000000e+02
8.542143683015762434e+00 6.527055084970015741e+01 3.750000000000000000e+02
9.542143909810633318e+00 6.627055062290523324e+01 3.750000000000000000e+02
1.054214413660550420e+01 6.727055039611030907e+01 3.750000000000000000e+02
1.154214436340037508e+01 6.827055016931538489e+01 3.750000000000000000e+02
1.254214459019524597e+01 6.927054994252046072e+01 3.750000000000000000e+02
3.542142549041408017e+00 6.027055198367477118e+01 3.760000000000000000e+02
4.542142775836278901e+00 6.127055175687984701e+01 3.760000000000000000e+02
5.542143002631149784e+00 6.227055153008492283e+01 3.760000000000000000e+02
6.542143229426020667e+00 6.327055130328999866e+01 3.760000000000000000e+02
7.542143456220891551e+00 6.427055107649508159e+01 3.760000000000000000e+02
8.542143683015762434e+00 6.527055084970015741e+01 3.760000000000000000e+02
9.542143909810633318e+00 6.627055062290523324e+01 3.760000000000000000e+02
1.054214413660550420e+01 6.727055039611030907e+01 3.760000000000000000e+02
1.154214436340037508e+01 6.827055016931538489e+01 3.760000000000000000e+02
3.542142549041408017e+00 6.027055198367477118e+01 3.770000000000000000e+02
4.542142775836278901e+00 6.127055175687984701e+01 3.770000000000000000e+02
5.542143002631149784e+00 6.227055153008492283e+01 3.770000000000000000e+02
6.542143229426020667e+00 6.327055130328999866e+01 3.770000000000000000e+02
7.542143456220891551e+00 6.427055107649508159e+01 3.770000000000000000e+02
8.542143683015762434e+00 6.527055084970015741e+01 3.770000000000000000e+02
9.542143909810633318e+00 6.627055062290523324e+01 3.770000000000000000e+02
1.054214413660550420e+01 6.727055039611030907e+01 3.770000000000000000e+02
1.154214436340037508e+01 6.827055016931538489e+01 3.770000000000000000e+02
3.542142549041408017e+00 6.027055198367477118e+01 3.780000000000000000e+02
4.542142775836278901e+00 6.127055175687984701e+01 3.780000000000000000e+02
5.542143002631149784e+00 6.227055153008492283e+01 3.780000000000000000e+02
6.542143229426020667e+00 6.327055130328999866e+01 3.780000000000000000e+02
7.542143456220891551e+00 6.427055107649508159e+01 3.780000000000000000e+02
8.542143683015762434e+00 6.527055084970015741e+01 3.780000000000000000e+02
9.542143909810633318e+00 6.627055062290523324e+01 3.780000000000000000e+02
1.054214413660550420e+01 6.727055039611030907e+01 3.780000000000000000e+02
1.154214436340037508e+01 6.827055016931538489e+01 3.780000000000000000e+02
3.542142549041408017e+00 6.027055198367477118e+01 3.790000000000000000e+02
4.542142775836278901e+00 6.127055175687984701e+01 3.790000000000000000e+02
5.542143002631149784e+00 6.227055153008492283e+01 3.790000000000000000e+02
6.542143229426020667e+00 6.327055130328999866e+01 3.790000000000000000e+02
7.542143456220891551e+00 6.427055107649508159e+01 3.790000000000000000e+02
8.542143683015762434e+00 6.527055084970015741e+01 3.790000000000000000e+02
9.542143909810633318e+00 6.627055062290523324e+01 3.790000000000000000e+02
1.054214413660550420e+01 6.727055039611030907e+01 3.790000000000000000e+02
1.154214436340037508e+01 6.827055016931538489e+01 3.790000000000000000e+02
3.542142549041408017e+00 6.027055198367477118e+01 3.800000000000000000e+02
4.542142775836278901e+00 6.127055175687984701e+01 3.800000000000000000e+02
5.542143002631149784e+00 6.227055153008492283e+01 3.800000000000000000e+02
6.542143229426020667e+00 6.327055130328999866e+01 3.800000000000000000e+02
7.542143456220891551e+00 6.427055107649508159e+01 3.800000000000000000e+02
8.542143683015762434e+00 6.527055084970015741e+01 3.800000000000000000e+02
9.542143909810633318e+00 6.627055062290523324e+01 3.800000000000000000e+02
1.054214413660550420e+01 6.727055039611030907e+01 3.800000000000000000e+02
1.154214436340037508e+01 6.827055016931538489e+01 3.800000000000000000e+02
2.542142549041433774e+00 6.027055221046966693e+01 3.810000000000000000e+02
3.542142775836304658e+00 6.127055198367474276e+01 3.810000000000000000e+02
4.542143002631176429e+00 6.227055175687981858e+01 3.810000000000000000e+02
5.542143229426046425e+00 6.327055153008490151e+01 3.810000000000000000e+02
6.542143456220918196e+00 6.427055130328997734e+01 3.810000000000000000e+02
7.542143683015789080e+00 6.527055107649505317e+01 3.810000000000000000e+02
8.542143909810659963e+00 6.627055084970012899e+01 3.810000000000000000e+02
9.542144136605530846e+00 6.727055062290520482e+01 3.810000000000000000e+02
1.054214436340040173e+01 6.827055039611028064e+01 3.810000000000000000e+02
1.154214459019527261e+01 6.927055016931535647e+01 3.810000000000000000e+02
2.542142549041433774e+00 6.027055221046966693e+01 3.820000000000000000e+02
3.542142775836304658e+00 6.127055198367474276e+01 3.820000000000000000e+02
4.542143002631176429e+00 6.227055175687981858e+01 3.820000000000000000e+02
5.542143229426046425e+00 6.327055153008490151e+01 3.820000000000000000e+02
6.542143456220918196e+00 6.427055130328997734e+01 3.820000000000000000e+02
7.542143683015789080e+00 6.527055107649505317e+01 3.820000000000000000e+02
8.542143909810659963e+00 6.627055084970012899e+01 3.820000000000000000e+02
9.542144136605530846e+00 6.727055062290520482e+01 3.820000000000000000e+02
1.054214436340040173e+01 6.827055039611028064e+01 3.820000000000000000e+02
1.154214459019527261e+01 6.927055016931535647e+01 3.820000000000000000e+02
2.542142549041433774e+00 6.027055221046966693e+01 3.830000000000000000e+02
3.542142775836304658e+00 6.127055198367474276e+01 3.830000000000000000e+02
4.542143002631176429e+00 6.227055175687981858e+01 3.830000000000000000e+02
5.542143229426046425e+00 6.327055153008490151e+01 3.830000000000000000e+02
6.542143456220918196e+00 6.427055130328997734e+01 3.830000000000000000e+02
7.542143683015789080e+00 6.527055107649505317e+01 3.830000000000000000e+02
8.542143909810659963e+00 6.627055084970012899e+01 3.830000000000000000e+02
9.542144136605530846e+00 6.727055062290520482e+01 3.830000000000000000e+02
1.054214436340040173e+01 6.827055039611028064e+01 3.830000000000000000e+02
1.154214459019527261e+01 6.927055016931535647e+01 3.830000000000000000e+02
3.542142549041408017e+00 6.027055198367477118e+01 3.840000000000000000e+02
4.542142775836278901e+00 6.127055175687984701e+01 3.840000000000000000e+02
5.542143002631149784e+00 6.227055153008492283e+01 3.840000000000000000e+02
6.542143229426020667e+00 6.327055130328999866e+01 3.840000000000000000e+02
7.542143456220891551e+00 6.427055107649508159e+01 3.840000000000000000e+02
8.542143683015762434e+00 6.527055084970015741e+01 3.840000000000000000e+02
9.542143909810633318e+00 6.627055062290523324e+01 3.840000000000000000e+02
1.054214413660550420e+01 6.727055039611030907e+01 3.840000000000000000e+02
1.154214436340037508e+01 6.827055016931538489e+01 3.840000000000000000e+02
3.542142549041408017e+00 6.027055198367477118e+01 3.850000000000000000e+02
4.542142775836278901e+00 6.127055175687984701e+01 3.850000000000000000e+02
5.542143002631149784e+00 6.227055153008492283e+01 3.850000000000000000e+02
6.542143229426020667e+00 6.327055130328999866e+01 3.850000000000000000e+02
7.542143456220891551e+00 6.427055107649508159e+01 3.850000000000000000e+02
8.542143683015762434e+00 6.527055084970015741e+01 3.850000000000000000e+02
9.542143909810633318e+00 6.627055062290523324e+01 3.850000000000000000e+02
1.054214413660550420e+01 6.727055039611030907e+01 3.850000000000000000e+02
1.154214436340037508e+01 6.827055016931538489e+01 3.850000000000000000e+02
3.542142549041408017e+00 6.027055198367477118e+01 3.860000000000000000e+02
4.542142775836278901e+00 6.127055175687984701e+01 3.860000000000000000e+02
5.542143002631149784e+00 6.227055153008492283e+01 3.860000000000000000e+02
6.542143229426020667e+00 6.327055130328999866e+01 3.860000000000000000e+02
7.542143456220891551e+00 6.427055107649508159e+01 3.860000000000000000e+02
8.542143683015762434e+00 6.527055084970015741e+01 3.860000000000000000e+02
9.542143909810633318e+00 6.627055062290523324e+01 3.860000000000000000e+02
1.054214413660550420e+01 6.727055039611030907e+01 3.860000000000000000e+02
1.154214436340037508e+01 6.827055016931538489e+01 3.860000000000000000e+02
3.542142549041408017e+00 6.027055198367477118e+01 3.870000000000000000e+02
4.542142775836278901e+00 6.127055175687984701e+01 3.870000000000000000e+02
5.542143002631149784e+00 6.227055153008492283e+01 3.870000000000000000e+02
6.542143229426020667e+00 6.327055130328999866e+01 3.870000000000000000e+02
7.542143456220891551e+00 6.427055107649508159e+01 3.870000000000000000e+02
8.542143683015762434e+00 6.527055084970015741e+01 3.870000000000000000e+02
9.542143909810633318e+00 6.627055062290523324e+01 3.870000000000000000e+02
1.054214413660550420e+01 6.727055039611030907e+01 3.870000000000000000e+02
1.154214436340037508e+01 6.827055016931538489e+01 3.870000000000000000e+02
3.542142549041408017e+00 6.027055198367477118e+01 3.880000000000000000e+02
4.542142775836278901e+00 6.127055175687984701e+01 3.880000000000000000e+02
5.542143002631149784e+00 6.227055153008492283e+01 3.880000000000000000e+02
6.542143229426020667e+00 6.327055130328999866e+01 3.880000000000000000e+02
7.542143456220891551e+00 6.427055107649508159e+01 3.880000000000000000e+02
8.542143683015762434e+00 6.527055084970015741e+01 3.880000000000000000e+02
9.542143909810633318e+00 6.627055062290523324e+01 3.880000000000000000e+02
1.054214413660550420e+01 6.727055039611030907e+01 3.880000000000000000e+02
1.154214436340037508e+01 6.827055016931538489e+01 3.880000000000000000e+02
3.542142549041408017e+00 6.027055198367477118e+01 3.890000000000000000e+02
4.542142775836278901e+00 6.127055175687984701e+01 3.890000000000000000e+02
5.542143002631149784e+00 6.227055153008492283e+01 3.890000000000000000e+02
6.542143229426020667e+00 6.327055130328999866e+01 3.890000000000000000e+02
7.542143456220891551e+00 6.427055107649508159e+01 3.890000000000000000e+02
8.542143683015762434e+00 6.527055084970015741e+01 3.890000000000000000e+02
9.542143909810633318e+00 6.627055062290523324e+01 3.890000000000000000e+02
1.054214413660550420e+01 6.727055039611030907e+01 3.890000000000000000e+02
1.154214436340037508e+01 6.827055016931538489e+01 3.890000000000000000e+02
3.542142549041408017e+00 6.027055198367477118e+01 3.900000000000000000e+02
4.542142775836278901e+00 6.127055175687984701e+01 3.900000000000000000e+02
5.542143002631149784e+00 6.227055153008492283e+01 3.900000000000000000e+02
6.542143229426020667e+00 6.327055130328999866e+01 3.900000000000000000e+02
7.542143456220891551e+00 6.427055107649508159e+01 3.900000000000000000e+02
8.542143683015762434e+00 6.527055084970015741e+01 3.900000000000000000e+02
9.542143909810633318e+00 6.627055062290523324e+01 3.900000000000000000e+02
1.054214413660550420e+01 6.727055039611030907e+01 3.900000000000000000e+02
1.154214436340037508e+01 6.827055016931538489e+01 3.900000000000000000e+02
3.542142549041408017e+00 6.027055198367477118e+01 3.910000000000000000e+02
4.542142775836278901e+00 6.127055175687984701e+01 3.910000000000000000e+02
5.542143002631149784e+00 6.227055153008492283e+01 3.910000000000000000e+02
6.542143229426020667e+00 6.327055130328999866e+01 3.910000000000000000e+02
7.542143456220891551e+00 6.427055107649508159e+01 3.910000000000000000e+02
8.542143683015762434e+00 6.527055084970015741e+01 3.910000000000000000e+02
9.542143909810633318e+00 6.627055062290523324e+01 3.910000000000000000e+02
1.054214413660550420e+01 6.727055039611030907e+01 3.910000000000000000e+02
1.154214436340037508e+01 6.827055016931538489e+01 3.910000000000000000e+02
1.254214459019524597e+01 6.927054994252046072e+01 3.910000000000000000e+02
2.542142549041433774e+00 6.027055221046966693e+01 3.920000000000000000e+02
3.542142775836304658e+00 6.127055198367474276e+01 3.920000000000000000e+02
4.542143002631176429e+00 6.227055175687981858e+01 3.920000000000000000e+02
5.542143229426046425e+00 6.327055153008490151e+01 3.920000000000000000e+02
6.542143456220918196e+00 6.427055130328997734e+01 3.920000000000000000e+02
7.542143683015789080e+00 6.527055107649505317e+01 3.920000000000000000e+02
8.542143909810659963e+00 6.627055084970012899e+01 3.920000000000000000e+02
9.542144136605530846e+00 6.727055062290520482e+01 3.920000000000000000e+02
1.054214436340040173e+01 6.827055039611028064e+01 3.920000000000000000e+02
1.154214459019527261e+01 6.927055016931535647e+01 3.920000000000000000e+02
1.254214481699014350e+01 7.027054994252044651e+01 3.920000000000000000e+02
3.542142549041408017e+00 6.027055198367477118e+01 3.930000000000000000e+02
4.542142775836278901e+00 6.127055175687984701e+01 3.930000000000000000e+02
5.542143002631149784e+00 6.227055153008492283e+01 3.930000000000000000e+02
6.542143229426020667e+00 6.327055130328999866e+01 3.930000000000000000e+02
7.542143456220891551e+00 6.427055107649508159e+01 3.930000000000000000e+02
8.542143683015762434e+00 6.527055084970015741e+01 3.930000000000000000e+02
9.542143909810633318e+00 6.627055062290523324e+01 3.930000000000000000e+02
1.054214413660550420e+01 6.727055039611030907e+01 3.930000000000000000e+02
