-2.277639093854043395e+00 2.846306355323475756e+00 3.660000000000000000e+02
-3.175561644780699577e+00 3.938888202389116522e+00 3.660000000000000000e+02
-4.073484195707355759e+00 5.031470049454756399e+00 3.660000000000000000e+02
4.007818762632550325e+00 -4.801766574136007826e+00 3.670000000000000000e+02
3.109896211705893698e+00 -3.709184727070366616e+00 3.670000000000000000e+02
2.211973660779237516e+00 -2.616602880004726739e+00 3.670000000000000000e+02
1.314051109852581556e+00 -1.524021032939085973e+00 3.670000000000000000e+02
4.161285589259252071e-01 -4.314391858734457630e-01 3.670000000000000000e+02
-4.817939920007309196e-01 6.611426611921947805e-01 3.670000000000000000e+02
-1.379716542927387213e+00 1.753724508257835435e+00 3.670000000000000000e+02
-2.277639093854043395e+00 2.846306355323475756e+00 3.670000000000000000e+02
-3.175561644780699577e+00 3.938888202389116522e+00 3.670000000000000000e+02
-4.073484195707355759e+00 5.031470049454756399e+00 3.670000000000000000e+02
3.910489114563058255e+00 -5.797018773132156078e+00 3.680000000000000000e+02
3.012566563636401629e+00 -4.704436926066516200e+00 3.680000000000000000e+02
2.114644012709745446e+00 -3.611855079000874991e+00 3.680000000000000000e+02
1.216721461783089264e+00 -2.519273231935234225e+00 3.680000000000000000e+02
3.187989108564331375e-01 -1.426691384869593904e+00 3.680000000000000000e+02
-5.791236400702231002e-01 -3.341095378039535824e-01 3.680000000000000000e+02
-1.477046190996879504e+00 7.584723092616869611e-01 3.680000000000000000e+02
-2.374968741923535465e+00 1.851054156327327505e+00 3.680000000000000000e+02
-3.272891292850191647e+00 2.943636003392967826e+00 3.680000000000000000e+02
-4.170813843776847385e+00 4.036217850458608147e+00 3.680000000000000000e+02
-5.068736394703503123e+00 5.128799697524248025e+00 3.680000000000000000e+02
-5.966658945630159749e+00 6.221381544589888790e+00 3.680000000000000000e+02
3.910489114563058255e+00 -5.797018773132156078e+00 3.690000000000000000e+02
3.012566563636401629e+00 -4.704436926066516200e+00 3.690000000000000000e+02
2.114644012709745446e+00 -3.611855079000874991e+00 3.690000000000000000e+02
1.216721461783089264e+00 -2.519273231935234225e+00 3.690000000000000000e+02
3.187989108564331375e-01 -1.426691384869593904e+00 3.690000000000000000e+02
-5.791236400702231002e-01 -3.341095378039535824e-01 3.690000000000000000e+02
-1.477046190996879504e+00 7.584723092616869611e-01 3.690000000000000000e+02
-2.374968741923535465e+00 1.851054156327327505e+00 3.690000000000000000e+02
-3.272891292850191647e+00 2.943636003392967826e+00 3.690000000000000000e+02
-4.170813843776847385e+00 4.036217850458608147e+00 3.690000000000000000e+02
-5.068736394703503123e+00 5.128799697524248025e+00 3.690000000000000000e+02
4.007818762632550325e+00 -4.801766574136007826e+00 3.700000000000000000e+02
3.109896211705893698e+00 -3.709184727070366616e+00 3.700000000000000000e+02
2.211973660779237516e+00 -2.616602880004726739e+00 3.700000000000000000e+02
1.314051109852581556e+00 -1.524021032939085973e+00 3.700000000000000000e+02
4.161285589259252071e-01 -4.314391858734457630e-01 3.700000000000000000e+02
-4.817939920007309196e-01 6.611426611921947805e-01 3.700000000000000000e+02
-1.379716542927387213e+00 1.753724508257835435e+00 3.700000000000000000e+02
-2.277639093854043395e+00 2.846306355323475756e+00 3.700000000000000000e+02
-3.175561644780699577e+00 3.938888202389116522e+00 3.700000000000000000e+02
-4.073484195707355759e+00 5.031470049454756399e+00 3.700000000000000000e+02
4.007818762632550325e+00 -4.801766574136007826e+00 3.710000000000000000e+02
3.109896211705893698e+00 -3.709184727070366616e+00 3.710000000000000000e+02
2.211973660779237516e+00 -2.616602880004726739e+00 3.710000000000000000e+02
1.314051109852581556e+00 -1.524021032939085973e+00 3.710000000000000000e+02
4.161285589259252071e-01 -4.314391858734457630e-01 3.710000000000000000e+02
-4.817939920007309196e-01 6.611426611921947805e-01 3.710000000000000000e+02
-1.379716542927387213e+00 1.753724508257835435e+00 3.710000000000000000e+02
-2.277639093854043395e+00 2.846306355323475756e+00 3.710000000000000000e+02
-3.175561644780699577e+00 3.938888202389116522e+00 3.710000000000000000e+02
-4.073484195707355759e+00 5.031470049454756399e+00 3.710000000000000000e+02
4.007818762632550325e+00 -4.801766574136007826e+00 3.720000000000000000e+02
3.109896211705893698e+00 -3.709184727070366616e+00 3.720000000000000000e+02
2.211973660779237516e+00 -2.616602880004726739e+00 3.720000000000000000e+02
1.314051109852581556e+00 -1.524021032939085973e+00 3.720000000000000000e+02
4.161285589259252071e-01 -4.314391858734457630e-01 3.720000000000000000e+02
-4.817939920007309196e-01 6.611426611921947805e-01 3.720000000000000000e+02
-1.379716542927387213e+00 1.753724508257835435e+00 3.720000000000000000e+02
-2.277639093854043395e+00 2.846306355323475756e+00 3.720000000000000000e+02
-3.175561644780699577e+00 3.938888202389116522e+00 3.720000000000000000e+02
-4.073484195707355759e+00 5.031470049454756399e+00 3.720000000000000000e+02
4.105148410702042838e+00 -3.806514375139859130e+00 3.730000000000000000e+02
3.207225859775385768e+00 -2.713932528074218808e+00 3.730000000000000000e+02
2.309303308848729586e+00 -1.621350681008578043e+00 3.730000000000000000e+02
1.411380757922073625e+00 -5.287688339429378326e-01 3.730000000000000000e+02
5.134582069954174433e-01 5.638130131227025998e-01 3.730000000000000000e+02
-3.844643439312387945e-01 1.656394860188343365e+00 3.730000000000000000e+02
-1.282386894857895143e+00 2.748976707253983687e+00 3.730000000000000000e+02
-2.180309445784551325e+00 3.841558554319624452e+00 3.730000000000000000e+02
-3.078231996711207508e+00 4.934140401385263885e+00 3.730000000000000000e+02
4.007818762632550325e+00 -4.801766574136007826e+00 3.740000000000000000e+02
3.109896211705893698e+00 -3.709184727070366616e+00 3.740000000000000000e+02
2.211973660779237516e+00 -2.616602880004726739e+00 3.740000000000000000e+02
1.314051109852581556e+00 -1.524021032939085973e+00 3.740000000000000000e+02
4.161285589259252071e-01 -4.314391858734457630e-01 3.740000000000000000e+02
-4.817939920007309196e-01 6.611426611921947805e-01 3.740000000000000000e+02
-1.379716542927387213e+00 1.753724508257835435e+00 3.740000000000000000e+02
-2.277639093854043395e+00 2.846306355323475756e+00 3.740000000000000000e+02
-3.175561644780699577e+00 3.938888202389116522e+00 3.740000000000000000e+02
-4.073484195707355759e+00 5.031470049454756399e+00 3.740000000000000000e+02
4.007818762632550325e+00 -4.801766574136007826e+00 3.750000000000000000e+02
3.109896211705893698e+00 -3.709184727070366616e+00 3.750000000000000000e+02
2.211973660779237516e+00 -2.616602880004726739e+00 3.750000000000000000e+02
1.314051109852581556e+00 -1.524021032939085973e+00 3.750000000000000000e+02
4.161285589259252071e-01 -4.314391858734457630e-01 3.750000000000000000e+02
-4.817939920007309196e-01 6.611426611921947805e-01 3.750000000000000000e+02
-1.379716542927387213e+00 1.753724508257835435e+00 3.750000000000000000e+02
-2.277639093854043395e+00 2.846306355323475756e+00 3.750000000000000000e+02
-3.175561644780699577e+00 3.938888202389116522e+00 3.750000000000000000e+02
-4.073484195707355759e+00 5.031470049454756399e+00 3.750000000000000000e+02
4.007818762632550325e+00 -4.801766574136007826e+00 3.760000000000000000e+02
3.109896211705893698e+00 -3.709184727070366616e+00 3.760000000000000000e+02
2.211973660779237516e+00 -2.616602880004726739e+00 3.760000000000000000e+02
1.314051109852581556e+00 -1.524021032939085973e+00 3.760000000000000000e+02
4.161285589259252071e-01 -4.314391858734457630e-01 3.760000000000000000e+02
-4.817939920007309196e-01 6.611426611921947805e-01 3.760000000000000000e+02
-1.379716542927387213e+00 1.753724508257835435e+00 3.760000000000000000e+02
-2.277639093854043395e+00 2.846306355323475756e+00 3.760000000000000000e+02
-3.175561644780699577e+00 3.938888202389116522e+00 3.760000000000000000e+02
-4.073484195707355759e+00 5.031470049454756399e+00 3.760000000000000000e+02
4.007818762632550325e+00 -4.801766574136007826e+00 3.770000000000000000e+02
3.109896211705893698e+00 -3.709184727070366616e+00 3.770000000000000000e+02
2.211973660779237516e+00 -2.616602880004726739e+00 3.770000000000000000e+02
1.314051109852581556e+00 -1.524021032939085973e+00 3.770000000000000000e+02
4.161285589259252071e-01 -4.314391858734457630e-01 3.770000000000000000e+02
-4.817939920007309196e-01 6.611426611921947805e-01 3.770000000000000000e+02
-1.379716542927387213e+00 1.753724508257835435e+00 3.770000000000000000e+02
-2.277639093854043395e+00 2.846306355323475756e+00 3.770000000000000000e+02
-3.175561644780699577e+00 3.938888202389116522e+00 3.770000000000000000e+02
-4.073484195707355759e+00 5.031470049454756399e+00 3.770000000000000000e+02
4.007818762632550325e+00 -4.801766574136007826e+00 3.780000000000000000e+02
3.109896211705893698e+00 -3.709184727070366616e+00 3.780000000000000000e+02
2.211973660779237516e+00 -2.616602880004726739e+00 3.780000000000000000e+02
1.314051109852581556e+00 -1.524021032939085973e+00 3.780000000000000000e+02
4.161285589259252071e-01 -4.314391858734457630e-01 3.780000000000000000e+02
-4.817939920007309196e-01 6.611426611921947805e-01 3.780000000000000000e+02
-1.379716542927387213e+00 1.753724508257835435e+00 3.780000000000000000e+02
-2.277639093854043395e+00 2.846306355323475756e+00 3.780000000000000000e+02
-3.175561644780699577e+00 3.938888202389116522e+00 3.780000000000000000e+02
-4.073484195707355759e+00 5.031470049454756399e+00 3.780000000000000000e+02
4.007818762632550325e+00 -4.801766574136007826e+00 3.790000000000000000e+02
3.109896211705893698e+00 -3.709184727070366616e+00 3.790000000000000000e+02
2.211973660779237516e+00 -2.616602880004726739e+00 3.790000000000000000e+02
1.314051109852581556e+00 -1.524021032939085973e+00 3.790000000000000000e+02
4.161285589259252071e-01 -4.314391858734457630e-01 3.790000000000000000e+02
-4.817939920007309196e-01 6.611426611921947805e-01 3.790000000000000000e+02
-1.379716542927387213e+00 1.753724508257835435e+00 3.790000000000000000e+02
-2.277639093854043395e+00 2.846306355323475756e+00 3.790000000000000000e+02
-3.175561644780699577e+00 3.938888202389116522e+00 3.790000000000000000e+02
-4.073484195707355759e+00 5.031470049454756399e+00 3.790000000000000000e+02
4.007818762632550325e+00 -4.801766574136007826e+00 3.800000000000000000e+02
3.109896211705893698e+00 -3.709184727070366616e+00 3.800000000000000000e+02
2.211973660779237516e+00 -2.616602880004726739e+00 3.800000000000000000e+02
1.314051109852581556e+00 -1.524021032939085973e+00 3.800000000000000000e+02
4.161285589259252071e-01 -4.314391858734457630e-01 3.800000000000000000e+02
-4.817939920007309196e-01 6.611426611921947805e-01 3.800000000000000000e+02
-1.379716542927387213e+00 1.753724508257835435e+00 3.800000000000000000e+02
-2.277639093854043395e+00 2.846306355323475756e+00 3.800000000000000000e+02
-3.175561644780699577e+00 3.938888202389116522e+00 3.800000000000000000e+02
-4.073484195707355759e+00 5.031470049454756399e+00 3.800000000000000000e+02
-4.971406746634011498e+00 6.124051896520396276e+00 3.800000000000000000e+02
4.007818762632550325e+00 -4.801766574136007826e+00 3.810000000000000000e+02
3.109896211705893698e+00 -3.709184727070366616e+00 3.810000000000000000e+02
2.211973660779237516e+00 -2.616602880004726739e+00 3.810000000000000000e+02
1.314051109852581556e+00 -1.524021032939085973e+00 3.810000000000000000e+02
4.161285589259252071e-01 -4.314391858734457630e-01 3.810000000000000000e+02
-4.817939920007309196e-01 6.611426611921947805e-01 3.810000000000000000e+02
-1.379716542927387213e+00 1.753724508257835435e+00 3.810000000000000000e+02
-2.277639093854043395e+00 2.846306355323475756e+00 3.810000000000000000e+02
-3.175561644780699577e+00 3.938888202389116522e+00 3.810000000000000000e+02
-4.073484195707355759e+00 5.031470049454756399e+00 3.810000000000000000e+02
-4.971406746634011498e+00 6.124051896520396276e+00 3.810000000000000000e+02
4.105148410702042838e+00 -3.806514375139859130e+00 3.820000000000000000e+02
3.207225859775385768e+00 -2.713932528074218808e+00 3.820000000000000000e+02
2.309303308848729586e+00 -1.621350681008578043e+00 3.820000000000000000e+02
1.411380757922073625e+00 -5.287688339429378326e-01 3.820000000000000000e+02
5.134582069954174433e-01 5.638130131227025998e-01 3.820000000000000000e+02
-3.844643439312387945e-01 1.656394860188343365e+00 3.820000000000000000e+02
-1.282386894857895143e+00 2.748976707253983687e+00 3.820000000000000000e+02
-2.180309445784551325e+00 3.841558554319624452e+00 3.820000000000000000e+02
-3.078231996711207508e+00 4.934140401385263885e+00 3.820000000000000000e+02
-3.976154547637863690e+00 6.026722248450904651e+00 3.820000000000000000e+02
4.105148410702042838e+00 -3.806514375139859130e+00 3.830000000000000000e+02
3.207225859775385768e+00 -2.713932528074218808e+00 3.830000000000000000e+02
2.309303308848729586e+00 -1.621350681008578043e+00 3.830000000000000000e+02
1.411380757922073625e+00 -5.287688339429378326e-01 3.830000000000000000e+02
5.134582069954174433e-01 5.638130131227025998e-01 3.830000000000000000e+02
-3.844643439312387945e-01 1.656394860188343365e+00 3.830000000000000000e+02
-1.282386894857895143e+00 2.748976707253983687e+00 3.830000000000000000e+02
-2.180309445784551325e+00 3.841558554319624452e+00 3.830000000000000000e+02
-3.078231996711207508e+00 4.934140401385263885e+00 3.830000000000000000e+02
-3.976154547637863690e+00 6.026722248450904651e+00 3.830000000000000000e+02
4.007818762632550325e+00 -4.801766574136007826e+00 3.840000000000000000e+02
3.109896211705893698e+00 -3.709184727070366616e+00 3.840000000000000000e+02
2.211973660779237516e+00 -2.616602880004726739e+00 3.840000000000000000e+02
1.314051109852581556e+00 -1.524021032939085973e+00 3.840000000000000000e+02
4.161285589259252071e-01 -4.314391858734457630e-01 3.840000000000000000e+02
-4.817939920007309196e-01 6.611426611921947805e-01 3.840000000000000000e+02
-1.379716542927387213e+00 1.753724508257835435e+00 3.840000000000000000e+02
-2.277639093854043395e+00 2.846306355323475756e+00 3.840000000000000000e+02
-3.175561644780699577e+00 3.938888202389116522e+00 3.840000000000000000e+02
-4.073484195707355759e+00 5.031470049454756399e+00 3.840000000000000000e+02
-4.971406746634011498e+00 6.124051896520396276e+00 3.840000000000000000e+02
4.007818762632550325e+00 -4.801766574136007826e+00 3.850000000000000000e+02
3.109896211705893698e+00 -3.709184727070366616e+00 3.850000000000000000e+02
2.211973660779237516e+00 -2.616602880004726739e+00 3.850000000000000000e+02
1.314051109852581556e+00 -1.524021032939085973e+00 3.850000000000000000e+02
4.161285589259252071e-01 -4.314391858734457630e-01 3.850000000000000000e+02
-4.817939920007309196e-01 6.611426611921947805e-01 3.850000000000000000e+02
-1.379716542927387213e+00 1.753724508257835435e+00 3.850000000000000000e+02
-2.277639093854043395e+00 2.846306355323475756e+00 3.850000000000000000e+02
-3.175561644780699577e+00 3.938888202389116522e+00 3.850000000000000000e+02
-4.073484195707355759e+00 5.031470049454756399e+00 3.850000000000000000e+02
-4.971406746634011498e+00 6.124051896520396276e+00 3.850000000000000000e+02
4.007818762632550325e+00 -4.801766574136007826e+00 3.860000000000000000e+02
3.109896211705893698e+00 -3.709184727070366616e+00 3.860000000000000000e+02
2.211973660779237516e+00 -2.616602880004726739e+00 3.860000000000000000e+02
1.314051109852581556e+00 -1.524021032939085973e+00 3.860000000000000000e+02
4.161285589259252071e-01 -4.314391858734457630e-01 3.860000000000000000e+02
-4.817939920007309196e-01 6.611426611921947805e-01 3.860000000000000000e+02
-1.379716542927387213e+00 1.753724508257835435e+00 3.860000000000000000e+02
-2.277639093854043395e+00 2.846306355323475756e+00 3.860000000000000000e+02
-3.175561644780699577e+00 3.938888202389116522e+00 3.860000000000000000e+02
-4.073484195707355759e+00 5.031470049454756399e+00 3.860000000000000000e+02
-4.971406746634011498e+00 6.124051896520396276e+00 3.860000000000000000e+02
4.105148410702042838e+00 -3.806514375139859130e+00 3.870000000000000000e+02
3.207225859775385768e+00 -2.713932528074218808e+00 3.870000000000000000e+02
2.309303308848729586e+00 -1.621350681008578043e+00 3.870000000000000000e+02
1.411380757922073625e+00 -5.287688339429378326e-01 3.870000000000000000e+02
5.134582069954174433e-01 5.638130131227025998e-01 3.870000000000000000e+02
-3.844643439312387945e-01 1.656394860188343365e+00 3.870000000000000000e+02
-1.282386894857895143e+00 2.748976707253983687e+00 3.870000000000000000e+02
-2.180309445784551325e+00 3.841558554319624452e+00 3.870000000000000000e+02
-3.078231996711207508e+00 4.934140401385263885e+00 3.870000000000000000e+02
-3.976154547637863690e+00 6.026722248450904651e+00 3.870000000000000000e+02
4.105148410702042838e+00 -3.806514375139859130e+00 3.880000000000000000e+02
3.207225859775385768e+00 -2.713932528074218808e+00 3.880000000000000000e+02
2.309303308848729586e+00 -1.621350681008578043e+00 3.880000000000000000e+02
1.411380757922073625e+00 -5.287688339429378326e-01 3.880000000000000000e+02
5.134582069954174433e-01 5.638130131227025998e-01 3.880000000000000000e+02
-3.844643439312387945e-01 1.656394860188343365e+00 3.880000000000000000e+02
-1.282386894857895143e+00 2.748976707253983687e+00 3.880000000000000000e+02
-2.180309445784551325e+00 3.841558554319624452e+00 3.880000000000000000e+02
-3.078231996711207508e+00 4.934140401385263885e+00 3.880000000000000000e+02
4.007818762632550325e+00 -4.801766574136007826e+00 3.890000000000000000e+02
3.109896211705893698e+00 -3.709184727070366616e+00 3.890000000000000000e+02
2.211973660779237516e+00 -2.616602880004726739e+00 3.890000000000000000e+02
1.314051109852581556e+00 -1.524021032939085973e+00 3.890000000000000000e+02
4.161285589259252071e-01 -4.314391858734457630e-01 3.890000000000000000e+02
-4.817939920007309196e-01 6.611426611921947805e-01 3.890000000000000000e+02
-1.379716542927387213e+00 1.753724508257835435e+00 3.890000000000000000e+02
-2.277639093854043395e+00 2.846306355323475756e+00 3.890000000000000000e+02
-3.175561644780699577e+00 3.938888202389116522e+00 3.890000000000000000e+02
-4.073484195707355759e+00 5.031470049454756399e+00 3.890000000000000000e+02
4.105148410702042838e+00 -3.806514375139859130e+00 3.900000000000000000e+02
3.207225859775385768e+00 -2.713932528074218808e+00 3.900000000000000000e+02
2.309303308848729586e+00 -1.621350681008578043e+00 3.900000000000000000e+02
1.411380757922073625e+00 -5.287688339429378326e-01 3.900000000000000000e+02
5.134582069954174433e-01 5.638130131227025998e-01 3.900000000000000000e+02
-3.844643439312387945e-01 1.656394860188343365e+00 3.900000000000000000e+02
-1.282386894857895143e+00 2.748976707253983687e+00 3.900000000000000000e+02
-2.180309445784551325e+00 3.841558554319624452e+00 3.900000000000000000e+02
-3.078231996711207508e+00 4.934140401385263885e+00 3.900000000000000000e+02
4.105148410702042838e+00 -3.806514375139859130e+00 3.910000000000000000e+02
3.207225859775385768e+00 -2.713932528074218808e+00 3.910000000000000000e+02
2.309303308848729586e+00 -1.621350681008578043e+00 3.910000000000000000e+02
1.411380757922073625e+00 -5.287688339429378326e-01 3.910000000000000000e+02
5.134582069954174433e-01 5.638130131227025998e-01 3.910000000000000000e+02
-3.844643439312387945e-01 1.656394860188343365e+00 3.910000000000000000e+02
-1.282386894857895143e+00 2.748976707253983687e+00 3.910000000000000000e+02
-2.180309445784551325e+00 3.841558554319624452e+00 3.910000000000000000e+02
-3.078231996711207508e+00 4.934140401385263885e+00 3.910000000000000000e+02
-3.976154547637863690e+00 6.026722248450904651e+00 3.910000000000000000e+02
4.105148410702042838e+00 -3.806514375139859130e+00 3.920000000000000000e+02
3.207225859775385768e+00 -2.713932528074218808e+00 3.920000000000000000e+02
2.309303308848729586e+00 -1.621350681008578043e+00 3.920000000000000000e+02
1.411380757922073625e+00 -5.287688339429378326e-01 3.920000000000000000e+02
5.134582069954174433e-01 5.638130131227025998e-01 3.920000000000000000e+02
-3.844643439312387945e-01 1.656394860188343365e+00 3.920000000000000000e+02
-1.282386894857895143e+00 2.748976707253983687e+00 3.920000000000000000e+02
-2.180309445784551325e+00 3.841558554319624452e+00 3.920000000000000000e+02
-3.078231996711207508e+00 4.934140401385263885e+00 3.920000000000000000e+02
-3.976154547637863690e+00 6.026722248450904651e+00 3.920000000000000000e+02
4.105148410702042838e+00 -3.806514375139859130e+00 3.930000000000000000e+02
3.207225859775385768e+00 -2.713932528074218808e+00 3.930000000000000000e+02
2.309303308848729586e+00 -1.621350681008578043e+00 3.930000000000000000e+02
1.411380757922073625e+00 -5.287688339429378326e-01 3.930000000000000000e+02
5.134582069954174433e-01 5.638130131227025998e-01 3.930000000000000000e+02
-3.844643439312387945e-01 1.656394860188343365e+00 3.930000000000000000e+02
-1.282386894857895143e+00 2.748976707253983687e+00 3.930000000000000000e+02
-2.180309445784551325e+00 3.841558554319624452e+00 3.930000000000000000e+02
-3.078231996711207508e+00 4.934140401385263885e+00 3.930000000000000000e+02
-3.976154547637863690e+00 6.026722248450904651e+00 3.930000000000000000e+02
-4.874077098564518984e+00 7.119304095516544528e+00 3.930000000000000000e+02
4.007818762632550325e+00 -4.801766574136007826e+00 3.940000000000000000e+02
3.109896211705893698e+00 -3.709184727070366616e+00 3.940000000000000000e+02
2.211973660779237516e+00 -2.616602880004726739e+00 3.940000000000000000e+02
1.314051109852581556e+00 -1.524021032939085973e+00 3.940000000000000000e+02
4.161285589259252071e-01 -4.314391858734457630e-01 3.940000000000000000e+02
-4.817939920007309196e-01 6.611426611921947805e-01 3.940000000000000000e+02
-1.379716542927387213e+00 1.753724508257835435e+00 3.940000000000000000e+02
-2.277639093854043395e+00 2.846306355323475756e+00 3.940000000000000000e+02
-3.175561644780699577e+00 3.938888202389116522e+00 3.940000000000000000e+02
-4.073484195707355759e+00 5.031470049454756399e+00 3.940000000000000000e+02
-4.971406746634011498e+00 6.124051896520396276e+00 3.940000000000000000e+02
-5.869329297560667236e+00 7.216633743586037042e+00 3.940000000000000000e+02
4.007818762632550325e+00 -4.801766574136007826e+00 3.950000000000000000e+02
3.109896211705893698e+00 -3.709184727070366616e+00 3.950000000000000000e+02
2.211973660779237516e+00 -2.616602880004726739e+00 3.950000000000000000e+02
1.314051109852581556e+00 -1.524021032939085973e+00 3.950000000000000000e+02
4.161285589259252071e-01 -4.314391858734457630e-01 3.950000000000000000e+02
-4.817939920007309196e-01 6.611426611921947805e-01 3.950000000000000000e+02
-1.379716542927387213e+00 1.753724508257835435e+00 3.950000000000000000e+02
-2.277639093854043395e+00 2.846306355323475756e+00 3.950000000000000000e+02
-3.175561644780699577e+00 3.938888202389116522e+00 3.950000000000000000e+02
-4.073484195707355759e+00 5.031470049454756399e+00 3.950000000000000000e+02
-4.971406746634011498e+00 6.124051896520396276e+00 3.950000000000000000e+02
-5.869329297560667236e+00 7.216633743586037042e+00 3.950000000000000000e+02
4.105148410702042838e+00 -3.806514375139859130e+00 3.960000000000000000e+02
3.207225859775385768e+00 -2.713932528074218808e+00 3.960000000000000000e+02
2.309303308848729586e+00 -1.621350681008578043e+00 3.960000000000000000e+02
1.411380757922073625e+00 -5.287688339429378326e-01 3.960000000000000000e+02
5.134582069954174433e-01 5.638130131227025998e-01 3.960000000000000000e+02
-3.844643439312387945e-01 1.656394860188343365e+00 3.960000000000000000e+02
-1.282386894857895143e+00 2.748976707253983687e+00 3.960000000000000000e+02
-2.180309445784551325e+00 3.841558554319624452e+00 3.960000000000000000e+02
-3.078231996711207508e+00 4.934140401385263885e+00 3.960000000000000000e+02
-3.976154547637863690e+00 6.026722248450904651e+00 3.960000000000000000e+02
-4.874077098564518984e+00 7.119304095516544528e+00 3.960000000000000000e+02
4.105148410702042838e+00 -3.806514375139859130e+00 3.970000000000000000e+02
3.207225859775385768e+00 -2.713932528074218808e+00 3.970000000000000000e+02
2.309303308848729586e+00 -1.621350681008578043e+00 3.970000000000000000e+02
1.411380757922073625e+00 -5.287688339429378326e-01 3.970000000000000000e+02
5.134582069954174433e-01 5.638130131227025998e-01 3.970000000000000000e+02
-3.844643439312387945e-01 1.656394860188343365e+00 3.970000000000000000e+02
-1.282386894857895143e+00 2.748976707253983687e+00 3.970000000000000000e+02
-2.180309445784551325e+00 3.841558554319624452e+00 3.970000000000000000e+02
-3.078231996711207508e+00 4.934140401385263885e+00 3.970000000000000000e+02
-3.976154547637863690e+00 6.026722248450904651e+00 3.970000000000000000e+02
-4.874077098564518984e+00 7.119304095516544528e+00 3.970000000000000000e+02
4.105148410702042838e+00 -3.806514375139859130e+00 3.980000000000000000e+02
3.207225859775385768e+00 -2.713932528074218808e+00 3.980000000000000000e+02
2.309303308848729586e+00 -1.621350681008578043e+00 3.980000000000000000e+02
1.411380757922073625e+00 -5.287688339429378326e-01 3.980000000000000000e+02
5.134582069954174433e-01 5.638130131227025998e-01 3.980000000000000000e+02
-3.844643439312387945e-01 1.656394860188343365e+00 3.980000000000000000e+02
-1.282386894857895143e+00 2.748976707253983687e+00 3.980000000000000000e+02
-2.180309445784551325e+00 3.841558554319624452e+00 3.980000000000000000e+02
-3.078231996711207508e+00 4.934140401385263885e+00 3.980000000000000000e+02
-3.976154547637863690e+00 6.026722248450904651e+00 3.980000000000000000e+02
4.105148410702042838e+00 -3.806514375139859130e+00 3.990000000000000000e+02
3.207225859775385768e+00 -2.713932528074218808e+00 3.990000000000000000e+02
2.309303308848729586e+00 -1.621350681008578043e+00 3.990000000000000000e+02
1.411380757922073625e+00 -5.287688339429378326e-01 3.990000000000000000e+02
5.134582069954174433e-01 5.638130131227025998e-01 3.990000000000000000e+02
-3.844643439312387945e-01 1.656394860188343365e+00 3.990000000000000000e+02
-1.282386894857895143e+00 2.748976707253983687e+00 3.990000000000000000e+02
-2.180309445784551325e+00 3.841558554319624452e+00 3.990000000000000000e+02
-3.078231996711207508e+00 4.934140401385263885e+00 3.990000000000000000e+02
-3.976154547637863690e+00 6.026722248450904651e+00 3.990000000000000000e+02
4.105148410702042838e+00 -3.806514375139859130e+00 4.000000000000000000e+02
3.207225859775385768e+00 -2.713932528074218808e+00 4.000000000000000000e+02
2.309303308848729586e+00 -1.621350681008578043e+00 4.000000000000000000e+02
1.411380757922073625e+00 -5.287688339429378326e-01 4.000000000000000000e+02
5.134582069954174433e-01 5.638130131227025998e-01 4.000000000000000000e+02
-3.844643439312387945e-01 1.656394860188343365e+00 4.000000000000000000e+02
-1.282386894857895143e+00 2.748976707253983687e+00 4.000000000000000000e+02
-2.180309445784551325e+00 3.841558554319624452e+00 4.000000000000000000e+02
-3.078231996711207508e+00 4.934140401385263885e+00 4.000000000000000000e+02
-3.976154547637863690e+00 6.026722248450904651e+00 4.000000000000000000e+02
4.105148410702042838e+00 -3.806514375139859130e+00 4.010000000000000000e+02
3.207225859775385768e+00 -2.713932528074218808e+00 4.010000000000000000e+02
2.309303308848729586e+00 -1.621350681008578043e+00 4.010000000000000000e+02
1.411380757922073625e+00 -5.287688339429378326e-01 4.010000000000000000e+02
5.134582069954174433e-01 5.638130131227025998e-01 4.010000000000000000e+02
-3.844643439312387945e-01 1.656394860188343365e+00 4.010000000000000000e+02
-1.282386894857895143e+00 2.748976707253983687e+00 4.010000000000000000e+02
-2.180309445784551325e+00 3.841558554319624452e+00 4.010000000000000000e+02
-3.078231996711207508e+00 4.934140401385263885e+00 4.010000000000000000e+02
-3.976154547637863690e+00 6.026722248450904651e+00 4.010000000000000000e+02
4.105148410702042838e+00 -3.806514375139859130e+00 4.020000000000000000e+02
3.207225859775385768e+00 -2.713932528074218808e+00 4.020000000000000000e+02
2.309303308848729586e+00 -1.621350681008578043e+00 4.020000000000000000e+02
1.411380757922073625e+00 -5.287688339429378326e-01 4.020000000000000000e+02
5.134582069954174433e-01 5.638130131227025998e-01 4.020000000000000000e+02
-3.844643439312387945e-01 1.656394860188343365e+00 4.020000000000000000e+02
-1.282386894857895143e+00 2.748976707253983687e+00 4.020000000000000000e+02
-2.180309445784551325e+00 3.841558554319624452e+00 4.020000000000000000e+02
-3.078231996711207508e+00 4.934140401385263885e+00 4.020000000000000000e+02
-3.976154547637863690e+00 6.026722248450904651e+00 4.020000000000000000e+02
4.105148410702042838e+00 -3.806514375139859130e+00 4.030000000000000000e+02
3.207225859775385768e+00 -2.713932528074218808e+00 4.030000000000000000e+02
2.309303308848729586e+00 -1.621350681008578043e+00 4.030000000000000000e+02
1.411380757922073625e+00 -5.287688339429378326e-01 4.030000000000000000e+02
5.134582069954174433e-01 5.638130131227025998e-01 4.030000000000000000e+02
-3.844643439312387945e-01 1.656394860188343365e+00 4.030000000000000000e+02
-1.282386894857895143e+00 2.748976707253983687e+00 4.030000000000000000e+02
-2.180309445784551325e+00 3.841558554319624452e+00 4.030000000000000000e+02
-3.078231996711207508e+00 4.934140401385263885e+00 4.030000000000000000e+02
-3.976154547637863690e+00 6.026722248450904651e+00 4.030000000000000000e+02
4.105148410702042838e+00 -3.806514375139859130e+00 4.040000000000000000e+02
3.207225859775385768e+00 -2.713932528074218808e+00 4.040000000000000000e+02
2.309303308848729586e+00 -1.621350681008578043e+00 4.040000000000000000e+02
1.411380757922073625e+00 -5.287688339429378326e-01 4.040000000000000000e+02
5.134582069954174433e-01 5.638130131227025998e-01 4.040000000000000000e+02
-3.844643439312387945e-01 1.656394860188343365e+00 4.040000000000000000e+02
-1.282386894857895143e+00 2.748976707253983687e+00 4.040000000000000000e+02
-2.180309445784551325e+00 3.841558554319624452e+00 4.040000000000000000e+02
-3.078231996711207508e+00 4.934140401385263885e+00 4.040000000000000000e+02
-3.976154547637863690e+00 6.026722248450904651e+00 4.040000000000000000e+02
4.105148410702042838e+00 -3.806514375139859130e+00 4.050000000000000000e+02
3.207225859775385768e+00 -2.713932528074218808e+00 4.050000000000000000e+02
2.309303308848729586e+00 -1.621350681008578043e+00 4.050000000000000000e+02
1.411380757922073625e+00 -5.287688339429378326e-01 4.050000000000000000e+02
5.134582069954174433e-01 5.638130131227025998e-01 4.050000000000000000e+02
-3.844643439312387945e-01 1.656394860188343365e+00 4.050000000000000000e+02
-1.282386894857895143e+00 2.748976707253983687e+00 4.050000000000000000e+02
-2.180309445784551325e+00 3.841558554319624452e+00 4.050000000000000000e+02
-3.078231996711207508e+00 4.934140401385263885e+00 4.050000000000000000e+02
-3.976154547637863690e+00 6.026722248450904651e+00 4.050000000000000000e+02
4.105148410702042838e+00 -3.806514375139859130e+00 4.060000000000000000e+02
3.207225859775385768e+00 -2.713932528074218808e+00 4.060000000000000000e+02
2.309303308848729586e+00 -1.621350681008578043e+00 4.060000000000000000e+02
1.411380757922073625e+00 -5.287688339429378326e-01 4.060000000000000000e+02
5.134582069954174433e-01 5.638130131227025998e-01 4.060000000000000000e+02
-3.844643439312387945e-01 1.656394860188343365e+00 4.060000000000000000e+02
-1.282386894857895143e+00 2.748976707253983687e+00 4.060000000000000000e+02
-2.180309445784551325e+00 3.841558554319624452e+00 4.060000000000000000e+02
-3.078231996711207508e+00 4.934140401385263885e+00 4.060000000000000000e+02
-3.976154547637863690e+00 6.026722248450904651e+00 4.060000000000000000e+02
4.105148410702042838e+00 -3.806514375139859130e+00 4.070000000000000000e+02
3.207225859775385768e+00 -2.713932528074218808e+00 4.070000000000000000e+02
2.309303308848729586e+00 -1.621350681008578043e+00 4.070000000000000000e+02
1.411380757922073625e+00 -5.287688339429378326e-01 4.070000000000000000e+02
5.134582069954174433e-01 5.638130131227025998e-01 4.070000000000000000e+02
-3.844643439312387945e-01 1.656394860188343365e+00 4.070000000000000000e+02
-1.282386894857895143e+00 2.748976707253983687e+00 4.070000000000000000e+02
-2.180309445784551325e+00 3.841558554319624452e+00 4.070000000000000000e+02
-3.078231996711207508e+00 4.934140401385263885e+00 4.070000000000000000e+02
-3.976154547637863690e+00 6.026722248450904651e+00 4.070000000000000000e+02
-4.874077098564518984e+00 7.119304095516544528e+00 4.070000000000000000e+02
4.105148410702042838e+00 -3.806514375139859130e+00 4.080000000000000000e+02
3.207225859775385768e+00 -2.713932528074218808e+00 4.080000000000000000e+02
2.309303308848729586e+00 -1.621350681008578043e+00 4.080000000000000000e+02
1.411380757922073625e+00 -5.287688339429378326e-01 4.080000000000000000e+02
5.134582069954174433e-01 5.638130131227025998e-01 4.080000000000000000e+02
-3.844643439312387945e-01 1.656394860188343365e+00 4.080000000000000000e+02
-1.282386894857895143e+00 2.748976707253983687e+00 4.080000000000000000e+02
-2.180309445784551325e+00 3.841558554319624452e+00 4.080000000000000000e+02
-3.078231996711207508e+00 4.934140401385263885e+00 4.080000000000000000e+02
-3.976154547637863690e+00 6.026722248450904651e+00 4.080000000000000000e+02
-4.874077098564518984e+00 7.119304095516544528e+00 4.080000000000000000e+02
4.105148410702042838e+00 -3.806514375139859130e+00 4.090000000000000000e+02
3.207225859775385768e+00 -2.713932528074218808e+00 4.090000000000000000e+02
2.309303308848729586e+00 -1.621350681008578043e+00 4.090000000000000000e+02
1.411380757922073625e+00 -5.287688339429378326e-01 4.090000000000000000e+02
5.134582069954174433e-01 5.638130131227025998e-01 4.090000000000000000e+02
-3.844643439312387945e-01 1.656394860188343365e+00 4.090000000000000000e+02
-1.282386894857895143e+00 2.748976707253983687e+00 4.090000000000000000e+02
-2.180309445784551325e+00 3.841558554319624452e+00 4.090000000000000000e+02
-3.078231996711207508e+00 4.934140401385263885e+00 4.090000000000000000e+02
-3.976154547637863690e+00 6.026722248450904651e+00 4.090000000000000000e+02
-4.874077098564518984e+00 7.119304095516544528e+00 4.090000000000000000e+02
4.105148410702042838e+00 -3.806514375139859130e+00 4.100000000000000000e+02
3.207225859775385768e+00 -2.713932528074218808e+00 4.100000000000000000e+02
2.309303308848729586e+00 -1.621350681008578043e+00 4.100000000000000000e+02
1.411380757922073625e+00 -5.287688339429378326e-01 4.100000000000000000e+02
5.134582069954174433e-01 5.638130131227025998e-01 4.100000000000000000e+02
-3.844643439312387945e-01 1.656394860188343365e+00 4.100000000000000000e+02
-1.282386894857895143e+00 2.748976707253983687e+00 4.100000000000000000e+02
-2.180309445784551325e+00 3.841558554319624452e+00 4.100000000000000000e+02
-3.078231996711207508e+00 4.934140401385263885e+00 4.100000000000000000e+02
-3.976154547637863690e+00 6.026722248450904651e+00 4.100000000000000000e+02
-4.874077098564518984e+00 7.119304095516544528e+00 4.100000000000000000e+02
4.105148410702042838e+00 -3.806514375139859130e+00 4.110000000000000000e+02
3.207225859775385768e+00 -2.713932528074218808e+00 4.110000000000000000e+02
2.309303308848729586e+00 -1.621350681008578043e+00 4.110000000000000000e+02
1.411380757922073625e+00 -5.287688339429378326e-01 4.110000000000000000e+02
5.134582069954174433e-01 5.638130131227025998e-01 4.110000000000000000e+02
-3.844643439312387945e-01 1.656394860188343365e+00 4.110000000000000000e+02
-1.282386894857895143e+00 2.748976707253983687e+00 4.110000000000000000e+02
-2.180309445784551325e+00 3.841558554319624452e+00 4.110000000000000000e+02
-3.078231996711207508e+00 4.934140401385263885e+00 4.110000000000000000e+02
-3.976154547637863690e+00 6.026722248450904651e+00 4.110000000000000000e+02
-4.874077098564518984e+00 7.119304095516544528e+00 4.110000000000000000e+02
4.105148410702042838e+00 -3.806514375139859130e+00 4.120000000000000000e+02
3.207225859775385768e+00 -2.713932528074218808e+00 4.120000000000000000e+02
2.309303308848729586e+00 -1.621350681008578043e+00 4.120000000000000000e+02
1.411380757922073625e+00 -5.287688339429378326e-01 4.120000000000000000e+02
5.134582069954174433e-01 5.638130131227025998e-01 4.120000000000000000e+02
-3.844643439312387945e-01 1.656394860188343365e+00 4.120000000000000000e+02
-1.282386894857895143e+00 2.748976707253983687e+00 4.120000000000000000e+02
-2.180309445784551325e+00 3.841558554319624452e+00 4.120000000000000000e+02
-3.078231996711207508e+00 4.934140401385263885e+00 4.120000000000000000e+02
-3.976154547637863690e+00 6.026722248450904651e+00 4.120000000000000000e+02
-4.874077098564518984e+00 7.119304095516544528e+00 4.120000000000000000e+02
4.105148410702042838e+00 -3.806514375139859130e+00 4.130000000000000000e+02
3.207225859775385768e+00 -2.713932528074218808e+00 4.130000000000000000e+02
2.309303308848729586e+00 -1.621350681008578043e+00 4.130000000000000000e+02
1.411380757922073625e+00 -5.287688339429378326e-01 4.130000000000000000e+02
5.134582069954174433e-01 5.638130131227025998e-01 4.130000000000000000e+02
-3.844643439312387945e-01 1.656394860188343365e+00 4.130000000000000000e+02
-1.282386894857895143e+00 2.748976707253983687e+00 4.130000000000000000e+02
-2.180309445784551325e+00 3.841558554319624452e+00 4.130000000000000000e+02
-3.078231996711207508e+00 4.934140401385263885e+00 4.130000000000000000e+02
-3.976154547637863690e+00 6.026722248450904651e+00 4.130000000000000000e+02
-4.874077098564518984e+00 7.119304095516544528e+00 4.130000000000000000e+02
4.105148410702042838e+00 -3.806514375139859130e+00 4.140000000000000000e+02
3.207225859775385768e+00 -2.713932528074218808e+00 4.140000000000000000e+02
2.309303308848729586e+00 -1.621350681008578043e+00 4.140000000000000000e+02
1.411380757922073625e+00 -5.287688339429378326e-01 4.140000000000000000e+02
5.134582069954174433e-01 5.638130131227025998e-01 4.140000000000000000e+02
-3.844643439312387945e-01 1.656394860188343365e+00 4.140000000000000000e+02
-1.282386894857895143e+00 2.748976707253983687e+00 4.140000000000000000e+02
-2.180309445784551325e+00 3.841558554319624452e+00 4.140000000000000000e+02
-3.078231996711207508e+00 4.934140401385263885e+00 4.140000000000000000e+02
-3.976154547637863690e+00 6.026722248450904651e+00 4.140000000000000000e+02
-4.874077098564518984e+00 7.119304095516544528e+00 4.140000000000000000e+02
4.105148410702042838e+00 -3.806514375139859130e+00 4.150000000000000000e+02
3.207225859775385768e+00 -2.713932528074218808e+00 4.150000000000000000e+02
2.309303308848729586e+00 -1.621350681008578043e+00 4.150000000000000000e+02
1.411380757922073625e+00 -5.287688339429378326e-01 4.150000000000000000e+02
5.134582069954174433e-01 5.638130131227025998e-01 4.150000000000000000e+02
-3.844643439312387945e-01 1.656394860188343365e+00 4.150000000000000000e+02
-1.282386894857895143e+00 2.748976707253983687e+00 4.150000000000000000e+02
-2.180309445784551325e+00 3.841558554319624452e+00 4.150000000000000000e+02
-3.078231996711207508e+00 4.934140401385263885e+00 4.150000000000000000e+02
-3.976154547637863690e+00 6.026722248450904651e+00 4.150000000000000000e+02
-4.874077098564518984e+00 7.119304095516544528e+00 4.150000000000000000e+02
4.202478058771535352e+00 -2.811262176143710878e+00 4.160000000000000000e+02
3.304555507844877837e+00 -1.718680329078070113e+00 4.160000000000000000e+02
2.406632956918222099e+00 -6.260984820124300132e-01 4.160000000000000000e+02
1.508710405991565695e+00 4.664833650532105302e-01 4.160000000000000000e+02
6.107878550649095128e-01 1.559065212118851296e+00 4.160000000000000000e+02
-2.871346958617466694e-01 2.651647059184491617e+00 4.160000000000000000e+02
-1.185057246788403074e+00 3.744228906250132383e+00 4.160000000000000000e+02
-2.082979797715059256e+00 4.836810753315772260e+00 4.160000000000000000e+02
-2.980902348641715438e+00 5.929392600381412137e+00 4.160000000000000000e+02
-3.878824899568371176e+00 7.021974447447052903e+00 4.160000000000000000e+02
4.202478058771535352e+00 -2.811262176143710878e+00 4.170000000000000000e+02
3.304555507844877837e+00 -1.718680329078070113e+00 4.170000000000000000e+02
2.406632956918222099e+00 -6.260984820124300132e-01 4.170000000000000000e+02
1.508710405991565695e+00 4.664833650532105302e-01 4.170000000000000000e+02
6.107878550649095128e-01 1.559065212118851296e+00 4.170000000000000000e+02
-2.871346958617466694e-01 2.651647059184491617e+00 4.170000000000000000e+02
-1.185057246788403074e+00 3.744228906250132383e+00 4.170000000000000000e+02
-2.082979797715059256e+00 4.836810753315772260e+00 4.170000000000000000e+02
-2.980902348641715438e+00 5.929392600381412137e+00 4.170000000000000000e+02
-3.878824899568371176e+00 7.021974447447052903e+00 4.170000000000000000e+02
4.202478058771535352e+00 -2.811262176143710878e+00 4.180000000000000000e+02
3.304555507844877837e+00 -1.718680329078070113e+00 4.180000000000000000e+02
2.406632956918222099e+00 -6.260984820124300132e-01 4.180000000000000000e+02
1.508710405991565695e+00 4.664833650532105302e-01 4.180000000000000000e+02
6.107878550649095128e-01 1.559065212118851296e+00 4.180000000000000000e+02
-2.871346958617466694e-01 2.651647059184491617e+00 4.180000000000000000e+02
-1.185057246788403074e+00 3.744228906250132383e+00 4.180000000000000000e+02
-2.082979797715059256e+00 4.836810753315772260e+00 4.180000000000000000e+02
-2.980902348641715438e+00 5.929392600381412137e+00 4.180000000000000000e+02
-3.878824899568371176e+00 7.021974447447052903e+00 4.180000000000000000e+02
4.202478058771535352e+00 -2.811262176143710878e+00 4.190000000000000000e+02
3.304555507844877837e+00 -1.718680329078070113e+00 4.190000000000000000e+02
2.406632956918222099e+00 -6.260984820124300132e-01 4.190000000000000000e+02
1.508710405991565695e+00 4.664833650532105302e-01 4.190000000000000000e+02
6.107878550649095128e-01 1.559065212118851296e+00 4.190000000000000000e+02
-2.871346958617466694e-01 2.651647059184491617e+00 4.190000000000000000e+02
-1.185057246788403074e+00 3.744228906250132383e+00 4.190000000000000000e+02
-2.082979797715059256e+00 4.836810753315772260e+00 4.190000000000000000e+02
-2.980902348641715438e+00 5.929392600381412137e+00 4.190000000000000000e+02
-3.878824899568371176e+00 7.021974447447052903e+00 4.190000000000000000e+02
4.202478058771535352e+00 -2.811262176143710878e+00 4.200000000000000000e+02
3.304555507844877837e+00 -1.718680329078070113e+00 4.200000000000000000e+02
2.406632956918222099e+00 -6.260984820124300132e-01 4.200000000000000000e+02
1.508710405991565695e+00 4.664833650532105302e-01 4.200000000000000000e+02
6.107878550649095128e-01 1.559065212118851296e+00 4.200000000000000000e+02
-2.871346958617466694e-01 2.651647059184491617e+00 4.200000000000000000e+02
-1.185057246788403074e+00 3.744228906250132383e+00 4.200000000000000000e+02
-2.082979797715059256e+00 4.836810753315772260e+00 4.200000000000000000e+02
-2.980902348641715438e+00 5.929392600381412137e+00 4.200000000000000000e+02
-3.878824899568371176e+00 7.021974447447052903e+00 4.200000000000000000e+02
4.202478058771535352e+00 -2.811262176143710878e+00 4.210000000000000000e+02
3.304555507844877837e+00 -1.718680329078070113e+00 4.210000000000000000e+02
2.406632956918222099e+00 -6.260984820124300132e-01 4.210000000000000000e+02
1.508710405991565695e+00 4.664833650532105302e-01 4.210000000000000000e+02
6.107878550649095128e-01 1.559065212118851296e+00 4.210000000000000000e+02
-2.871346958617466694e-01 2.651647059184491617e+00 4.210000000000000000e+02
-1.185057246788403074e+00 3.744228906250132383e+00 4.210000000000000000e+02
-2.082979797715059256e+00 4.836810753315772260e+00 4.210000000000000000e+02
-2.980902348641715438e+00 5.929392600381412137e+00 4.210000000000000000e+02
-3.878824899568371176e+00 7.021974447447052903e+00 4.210000000000000000e+02
4.202478058771535352e+00 -2.811262176143710878e+00 4.220000000000000000e+02
3.304555507844877837e+00 -1.718680329078070113e+00 4.220000000000000000e+02
2.406632956918222099e+00 -6.260984820124300132e-01 4.220000000000000000e+02
1.508710405991565695e+00 4.664833650532105302e-01 4.220000000000000000e+02
6.107878550649095128e-01 1.559065212118851296e+00 4.220000000000000000e+02
-2.871346958617466694e-01 2.651647059184491617e+00 4.220000000000000000e+02
-1.185057246788403074e+00 3.744228906250132383e+00 4.220000000000000000e+02
-2.082979797715059256e+00 4.836810753315772260e+00 4.220000000000000000e+02
-2.980902348641715438e+00 5.929392600381412137e+00 4.220000000000000000e+02
-3.878824899568371176e+00 7.021974447447052903e+00 4.220000000000000000e+02
4.202478058771535352e+00 -2.811262176143710878e+00 4.230000000000000000e+02
3.304555507844877837e+00 -1.718680329078070113e+00 4.230000000000000000e+02
2.406632956918222099e+00 -6.260984820124300132e-01 4.230000000000000000e+02
1.508710405991565695e+00 4.664833650532105302e-01 4.230000000000000000e+02
6.107878550649095128e-01 1.559065212118851296e+00 4.230000000000000000e+02
-2.871346958617466694e-01 2.651647059184491617e+00 4.230000000000000000e+02
-1.185057246788403074e+00 3.744228906250132383e+00 4.230000000000000000e+02
-2.082979797715059256e+00 4.836810753315772260e+00 4.230000000000000000e+02
-2.980902348641715438e+00 5.929392600381412137e+00 4.230000000000000000e+02
-3.878824899568371176e+00 7.021974447447052903e+00 4.230000000000000000e+02
4.202478058771535352e+00 -2.811262176143710878e+00 4.240000000000000000e+02
3.304555507844877837e+00 -1.718680329078070113e+00 4.240000000000000000e+02
2.406632956918222099e+00 -6.260984820124300132e-01 4.240000000000000000e+02
1.508710405991565695e+00 4.664833650532105302e-01 4.240000000000000000e+02
6.107878550649095128e-01 1.559065212118851296e+00 4.240000000000000000e+02
-2.871346958617466694e-01 2.651647059184491617e+00 4.240000000000000000e+02
-1.185057246788403074e+00 3.744228906250132383e+00 4.240000000000000000e+02
-2.082979797715059256e+00 4.836810753315772260e+00 4.240000000000000000e+02
-2.980902348641715438e+00 5.929392600381412137e+00 4.240000000000000000e+02
-3.878824899568371176e+00 7.021974447447052903e+00 4.240000000000000000e+02
4.202478058771535352e+00 -2.811262176143710878e+00 4.250000000000000000e+02
3.304555507844877837e+00 -1.718680329078070113e+00 4.250000000000000000e+02
2.406632956918222099e+00 -6.260984820124300132e-01 4.250000000000000000e+02
1.508710405991565695e+00 4.664833650532105302e-01 4.250000000000000000e+02
6.107878550649095128e-01 1.559065212118851296e+00 4.250000000000000000e+02
-2.871346958617466694e-01 2.651647059184491617e+00 4.250000000000000000e+02
-1.185057246788403074e+00 3.744228906250132383e+00 4.250000000000000000e+02
-2.082979797715059256e+00 4.836810753315772260e+00 4.250000000000000000e+02
-2.980902348641715438e+00 5.929392600381412137e+00 4.250000000000000000e+02
-3.878824899568371176e+00 7.021974447447052903e+00 4.250000000000000000e+02
4.202478058771535352e+00 -2.811262176143710878e+00 4.260000000000000000e+02
3.304555507844877837e+00 -1.718680329078070113e+00 4.260000000000000000e+02
2.406632956918222099e+00 -6.260984820124300132e-01 4.260000000000000000e+02
1.508710405991565695e+00 4.664833650532105302e-01 4.260000000000000000e+02
6.107878550649095128e-01 1.559065212118851296e+00 4.260000000000000000e+02
-2.871346958617466694e-01 2.651647059184491617e+00 4.260000000000000000e+02
-1.185057246788403074e+00 3.744228906250132383e+00 4.260000000000000000e+02
-2.082979797715059256e+00 4.836810753315772260e+00 4.260000000000000000e+02
-2.980902348641715438e+00 5.929392600381412137e+00 4.260000000000000000e+02
-3.878824899568371176e+00 7.021974447447052903e+00 4.260000000000000000e+02
4.202478058771535352e+00 -2.811262176143710878e+00 4.270000000000000000e+02
3.304555507844877837e+00 -1.718680329078070113e+00 4.270000000000000000e+02
2.406632956918222099e+00 -6.260984820124300132e-01 4.270000000000000000e+02
1.508710405991565695e+00 4.664833650532105302e-01 4.270000000000000000e+02
6.107878550649095128e-01 1.559065212118851296e+00 4.270000000000000000e+02
-2.871346958617466694e-01 2.651647059184491617e+00 4.270000000000000000e+02
-1.185057246788403074e+00 3.744228906250132383e+00 4.270000000000000000e+02
-2.082979797715059256e+00 4.836810753315772260e+00 4.270000000000000000e+02
