6.017289556854287014e+00 -8.196491546096911662e+00 3.580000000000000000e+02
5.114802092980589521e+00 -7.107677339011597262e+00 3.580000000000000000e+02
4.212314629106891140e+00 -6.018863131926282861e+00 3.580000000000000000e+02
3.309827165233192758e+00 -4.930048924840969349e+00 3.580000000000000000e+02
2.407339701359494821e+00 -3.841234717755655836e+00 3.580000000000000000e+02
1.504852237485796884e+00 -2.752420510670341436e+00 3.580000000000000000e+02
6.023647736120989471e-01 -1.663606303585027923e+00 3.580000000000000000e+02
8.724751948475381269e+00 -1.146293416735285220e+01 3.590000000000000000e+02
7.822264484601682888e+00 -1.037411996026753869e+01 3.590000000000000000e+02
6.919777020727984507e+00 -9.285305753182225175e+00 3.590000000000000000e+02
6.017289556854287014e+00 -8.196491546096911662e+00 3.590000000000000000e+02
5.114802092980589521e+00 -7.107677339011597262e+00 3.590000000000000000e+02
4.212314629106891140e+00 -6.018863131926282861e+00 3.590000000000000000e+02
3.309827165233192758e+00 -4.930048924840969349e+00 3.590000000000000000e+02
2.407339701359494821e+00 -3.841234717755655836e+00 3.590000000000000000e+02
1.504852237485796884e+00 -2.752420510670341436e+00 3.590000000000000000e+02
6.023647736120989471e-01 -1.663606303585027923e+00 3.590000000000000000e+02
8.724751948475381269e+00 -1.146293416735285220e+01 3.600000000000000000e+02
7.822264484601682888e+00 -1.037411996026753869e+01 3.600000000000000000e+02
6.919777020727984507e+00 -9.285305753182225175e+00 3.600000000000000000e+02
6.017289556854287014e+00 -8.196491546096911662e+00 3.600000000000000000e+02
5.114802092980589521e+00 -7.107677339011597262e+00 3.600000000000000000e+02
4.212314629106891140e+00 -6.018863131926282861e+00 3.600000000000000000e+02
3.309827165233192758e+00 -4.930048924840969349e+00 3.600000000000000000e+02
2.407339701359494821e+00 -3.841234717755655836e+00 3.600000000000000000e+02
1.504852237485796884e+00 -2.752420510670341436e+00 3.600000000000000000e+02
6.023647736120989471e-01 -1.663606303585027923e+00 3.600000000000000000e+02
8.724751948475381269e+00 -1.146293416735285220e+01 3.610000000000000000e+02
7.822264484601682888e+00 -1.037411996026753869e+01 3.610000000000000000e+02
6.919777020727984507e+00 -9.285305753182225175e+00 3.610000000000000000e+02
6.017289556854287014e+00 -8.196491546096911662e+00 3.610000000000000000e+02
5.114802092980589521e+00 -7.107677339011597262e+00 3.610000000000000000e+02
4.212314629106891140e+00 -6.018863131926282861e+00 3.610000000000000000e+02
3.309827165233192758e+00 -4.930048924840969349e+00 3.610000000000000000e+02
2.407339701359494821e+00 -3.841234717755655836e+00 3.610000000000000000e+02
1.504852237485796884e+00 -2.752420510670341436e+00 3.610000000000000000e+02
6.023647736120989471e-01 -1.663606303585027923e+00 3.610000000000000000e+02
8.724751948475381269e+00 -1.146293416735285220e+01 3.620000000000000000e+02
7.822264484601682888e+00 -1.037411996026753869e+01 3.620000000000000000e+02
6.919777020727984507e+00 -9.285305753182225175e+00 3.620000000000000000e+02
6.017289556854287014e+00 -8.196491546096911662e+00 3.620000000000000000e+02
5.114802092980589521e+00 -7.107677339011597262e+00 3.620000000000000000e+02
4.212314629106891140e+00 -6.018863131926282861e+00 3.620000000000000000e+02
3.309827165233192758e+00 -4.930048924840969349e+00 3.620000000000000000e+02
2.407339701359494821e+00 -3.841234717755655836e+00 3.620000000000000000e+02
1.504852237485796884e+00 -2.752420510670341436e+00 3.620000000000000000e+02
6.023647736120989471e-01 -1.663606303585027923e+00 3.620000000000000000e+02
-3.001226902615989900e-01 -5.747920964997135229e-01 3.620000000000000000e+02
8.724751948475381269e+00 -1.146293416735285220e+01 3.630000000000000000e+02
7.822264484601682888e+00 -1.037411996026753869e+01 3.630000000000000000e+02
6.919777020727984507e+00 -9.285305753182225175e+00 3.630000000000000000e+02
6.017289556854287014e+00 -8.196491546096911662e+00 3.630000000000000000e+02
5.114802092980589521e+00 -7.107677339011597262e+00 3.630000000000000000e+02
4.212314629106891140e+00 -6.018863131926282861e+00 3.630000000000000000e+02
3.309827165233192758e+00 -4.930048924840969349e+00 3.630000000000000000e+02
2.407339701359494821e+00 -3.841234717755655836e+00 3.630000000000000000e+02
1.504852237485796884e+00 -2.752420510670341436e+00 3.630000000000000000e+02
6.023647736120989471e-01 -1.663606303585027923e+00 3.630000000000000000e+02
-3.001226902615989900e-01 -5.747920964997135229e-01 3.630000000000000000e+02
8.724751948475381269e+00 -1.146293416735285220e+01 3.640000000000000000e+02
7.822264484601682888e+00 -1.037411996026753869e+01 3.640000000000000000e+02
6.919777020727984507e+00 -9.285305753182225175e+00 3.640000000000000000e+02
6.017289556854287014e+00 -8.196491546096911662e+00 3.640000000000000000e+02
5.114802092980589521e+00 -7.107677339011597262e+00 3.640000000000000000e+02
4.212314629106891140e+00 -6.018863131926282861e+00 3.640000000000000000e+02
3.309827165233192758e+00 -4.930048924840969349e+00 3.640000000000000000e+02
2.407339701359494821e+00 -3.841234717755655836e+00 3.640000000000000000e+02
1.504852237485796884e+00 -2.752420510670341436e+00 3.640000000000000000e+02
6.023647736120989471e-01 -1.663606303585027923e+00 3.640000000000000000e+02
8.724751948475381269e+00 -1.146293416735285220e+01 3.650000000000000000e+02
7.822264484601682888e+00 -1.037411996026753869e+01 3.650000000000000000e+02
6.919777020727984507e+00 -9.285305753182225175e+00 3.650000000000000000e+02
6.017289556854287014e+00 -8.196491546096911662e+00 3.650000000000000000e+02
5.114802092980589521e+00 -7.107677339011597262e+00 3.650000000000000000e+02
4.212314629106891140e+00 -6.018863131926282861e+00 3.650000000000000000e+02
3.309827165233192758e+00 -4.930048924840969349e+00 3.650000000000000000e+02
2.407339701359494821e+00 -3.841234717755655836e+00 3.650000000000000000e+02
1.504852237485796884e+00 -2.752420510670341436e+00 3.650000000000000000e+02
6.023647736120989471e-01 -1.663606303585027923e+00 3.650000000000000000e+02
8.724751948475381269e+00 -1.146293416735285220e+01 3.660000000000000000e+02
7.822264484601682888e+00 -1.037411996026753869e+01 3.660000000000000000e+02
6.919777020727984507e+00 -9.285305753182225175e+00 3.660000000000000000e+02
6.017289556854287014e+00 -8.196491546096911662e+00 3.660000000000000000e+02
5.114802092980589521e+00 -7.107677339011597262e+00 3.660000000000000000e+02
4.212314629106891140e+00 -6.018863131926282861e+00 3.660000000000000000e+02
3.309827165233192758e+00 -4.930048924840969349e+00 3.660000000000000000e+02
2.407339701359494821e+00 -3.841234717755655836e+00 3.660000000000000000e+02
1.504852237485796884e+00 -2.752420510670341436e+00 3.660000000000000000e+02
6.023647736120989471e-01 -1.663606303585027923e+00 3.660000000000000000e+02
8.817915320081189279e+00 -1.046728333187334670e+01 3.670000000000000000e+02
7.915427856207490898e+00 -9.378469124788033184e+00 3.670000000000000000e+02
7.012940392333792516e+00 -8.289654917702719672e+00 3.670000000000000000e+02
6.110452928460095023e+00 -7.200840710617405271e+00 3.670000000000000000e+02
5.207965464586397530e+00 -6.112026503532090871e+00 3.670000000000000000e+02
4.305478000712699149e+00 -5.023212296446777358e+00 3.670000000000000000e+02
3.402990536839000768e+00 -3.934398089361463402e+00 3.670000000000000000e+02
2.500503072965302831e+00 -2.845583882276149446e+00 3.670000000000000000e+02
1.598015609091604894e+00 -1.756769675190835933e+00 3.670000000000000000e+02
6.955281452179069568e-01 -6.679554681055215326e-01 3.670000000000000000e+02
8.724751948475381269e+00 -1.146293416735285220e+01 3.680000000000000000e+02
7.822264484601682888e+00 -1.037411996026753869e+01 3.680000000000000000e+02
6.919777020727984507e+00 -9.285305753182225175e+00 3.680000000000000000e+02
6.017289556854287014e+00 -8.196491546096911662e+00 3.680000000000000000e+02
5.114802092980589521e+00 -7.107677339011597262e+00 3.680000000000000000e+02
4.212314629106891140e+00 -6.018863131926282861e+00 3.680000000000000000e+02
3.309827165233192758e+00 -4.930048924840969349e+00 3.680000000000000000e+02
2.407339701359494821e+00 -3.841234717755655836e+00 3.680000000000000000e+02
1.504852237485796884e+00 -2.752420510670341436e+00 3.680000000000000000e+02
6.023647736120989471e-01 -1.663606303585027923e+00 3.680000000000000000e+02
8.724751948475381269e+00 -1.146293416735285220e+01 3.690000000000000000e+02
7.822264484601682888e+00 -1.037411996026753869e+01 3.690000000000000000e+02
6.919777020727984507e+00 -9.285305753182225175e+00 3.690000000000000000e+02
6.017289556854287014e+00 -8.196491546096911662e+00 3.690000000000000000e+02
5.114802092980589521e+00 -7.107677339011597262e+00 3.690000000000000000e+02
4.212314629106891140e+00 -6.018863131926282861e+00 3.690000000000000000e+02
3.309827165233192758e+00 -4.930048924840969349e+00 3.690000000000000000e+02
2.407339701359494821e+00 -3.841234717755655836e+00 3.690000000000000000e+02
1.504852237485796884e+00 -2.752420510670341436e+00 3.690000000000000000e+02
6.023647736120989471e-01 -1.663606303585027923e+00 3.690000000000000000e+02
8.724751948475381269e+00 -1.146293416735285220e+01 3.700000000000000000e+02
7.822264484601682888e+00 -1.037411996026753869e+01 3.700000000000000000e+02
6.919777020727984507e+00 -9.285305753182225175e+00 3.700000000000000000e+02
6.017289556854287014e+00 -8.196491546096911662e+00 3.700000000000000000e+02
5.114802092980589521e+00 -7.107677339011597262e+00 3.700000000000000000e+02
4.212314629106891140e+00 -6.018863131926282861e+00 3.700000000000000000e+02
3.309827165233192758e+00 -4.930048924840969349e+00 3.700000000000000000e+02
2.407339701359494821e+00 -3.841234717755655836e+00 3.700000000000000000e+02
1.504852237485796884e+00 -2.752420510670341436e+00 3.700000000000000000e+02
6.023647736120989471e-01 -1.663606303585027923e+00 3.700000000000000000e+02
8.724751948475381269e+00 -1.146293416735285220e+01 3.710000000000000000e+02
7.822264484601682888e+00 -1.037411996026753869e+01 3.710000000000000000e+02
6.919777020727984507e+00 -9.285305753182225175e+00 3.710000000000000000e+02
6.017289556854287014e+00 -8.196491546096911662e+00 3.710000000000000000e+02
5.114802092980589521e+00 -7.107677339011597262e+00 3.710000000000000000e+02
4.212314629106891140e+00 -6.018863131926282861e+00 3.710000000000000000e+02
3.309827165233192758e+00 -4.930048924840969349e+00 3.710000000000000000e+02
2.407339701359494821e+00 -3.841234717755655836e+00 3.710000000000000000e+02
1.504852237485796884e+00 -2.752420510670341436e+00 3.710000000000000000e+02
6.023647736120989471e-01 -1.663606303585027923e+00 3.710000000000000000e+02
8.724751948475381269e+00 -1.146293416735285220e+01 3.720000000000000000e+02
7.822264484601682888e+00 -1.037411996026753869e+01 3.720000000000000000e+02
6.919777020727984507e+00 -9.285305753182225175e+00 3.720000000000000000e+02
6.017289556854287014e+00 -8.196491546096911662e+00 3.720000000000000000e+02
5.114802092980589521e+00 -7.107677339011597262e+00 3.720000000000000000e+02
4.212314629106891140e+00 -6.018863131926282861e+00 3.720000000000000000e+02
3.309827165233192758e+00 -4.930048924840969349e+00 3.720000000000000000e+02
2.407339701359494821e+00 -3.841234717755655836e+00 3.720000000000000000e+02
1.504852237485796884e+00 -2.752420510670341436e+00 3.720000000000000000e+02
6.023647736120989471e-01 -1.663606303585027923e+00 3.720000000000000000e+02
-3.001226902615989900e-01 -5.747920964997135229e-01 3.720000000000000000e+02
8.724751948475381269e+00 -1.146293416735285220e+01 3.730000000000000000e+02
7.822264484601682888e+00 -1.037411996026753869e+01 3.730000000000000000e+02
6.919777020727984507e+00 -9.285305753182225175e+00 3.730000000000000000e+02
6.017289556854287014e+00 -8.196491546096911662e+00 3.730000000000000000e+02
5.114802092980589521e+00 -7.107677339011597262e+00 3.730000000000000000e+02
4.212314629106891140e+00 -6.018863131926282861e+00 3.730000000000000000e+02
3.309827165233192758e+00 -4.930048924840969349e+00 3.730000000000000000e+02
2.407339701359494821e+00 -3.841234717755655836e+00 3.730000000000000000e+02
1.504852237485796884e+00 -2.752420510670341436e+00 3.730000000000000000e+02
6.023647736120989471e-01 -1.663606303585027923e+00 3.730000000000000000e+02
8.724751948475381269e+00 -1.146293416735285220e+01 3.740000000000000000e+02
7.822264484601682888e+00 -1.037411996026753869e+01 3.740000000000000000e+02
6.919777020727984507e+00 -9.285305753182225175e+00 3.740000000000000000e+02
6.017289556854287014e+00 -8.196491546096911662e+00 3.740000000000000000e+02
5.114802092980589521e+00 -7.107677339011597262e+00 3.740000000000000000e+02
4.212314629106891140e+00 -6.018863131926282861e+00 3.740000000000000000e+02
3.309827165233192758e+00 -4.930048924840969349e+00 3.740000000000000000e+02
2.407339701359494821e+00 -3.841234717755655836e+00 3.740000000000000000e+02
1.504852237485796884e+00 -2.752420510670341436e+00 3.740000000000000000e+02
6.023647736120989471e-01 -1.663606303585027923e+00 3.740000000000000000e+02
8.724751948475381269e+00 -1.146293416735285220e+01 3.750000000000000000e+02
7.822264484601682888e+00 -1.037411996026753869e+01 3.750000000000000000e+02
6.919777020727984507e+00 -9.285305753182225175e+00 3.750000000000000000e+02
6.017289556854287014e+00 -8.196491546096911662e+00 3.750000000000000000e+02
5.114802092980589521e+00 -7.107677339011597262e+00 3.750000000000000000e+02
4.212314629106891140e+00 -6.018863131926282861e+00 3.750000000000000000e+02
3.309827165233192758e+00 -4.930048924840969349e+00 3.750000000000000000e+02
2.407339701359494821e+00 -3.841234717755655836e+00 3.750000000000000000e+02
1.504852237485796884e+00 -2.752420510670341436e+00 3.750000000000000000e+02
6.023647736120989471e-01 -1.663606303585027923e+00 3.750000000000000000e+02
8.724751948475381269e+00 -1.146293416735285220e+01 3.760000000000000000e+02
7.822264484601682888e+00 -1.037411996026753869e+01 3.760000000000000000e+02
6.919777020727984507e+00 -9.285305753182225175e+00 3.760000000000000000e+02
6.017289556854287014e+00 -8.196491546096911662e+00 3.760000000000000000e+02
5.114802092980589521e+00 -7.107677339011597262e+00 3.760000000000000000e+02
4.212314629106891140e+00 -6.018863131926282861e+00 3.760000000000000000e+02
3.309827165233192758e+00 -4.930048924840969349e+00 3.760000000000000000e+02
2.407339701359494821e+00 -3.841234717755655836e+00 3.760000000000000000e+02
1.504852237485796884e+00 -2.752420510670341436e+00 3.760000000000000000e+02
6.023647736120989471e-01 -1.663606303585027923e+00 3.760000000000000000e+02
8.724751948475381269e+00 -1.146293416735285220e+01 3.770000000000000000e+02
7.822264484601682888e+00 -1.037411996026753869e+01 3.770000000000000000e+02
6.919777020727984507e+00 -9.285305753182225175e+00 3.770000000000000000e+02
6.017289556854287014e+00 -8.196491546096911662e+00 3.770000000000000000e+02
5.114802092980589521e+00 -7.107677339011597262e+00 3.770000000000000000e+02
4.212314629106891140e+00 -6.018863131926282861e+00 3.770000000000000000e+02
3.309827165233192758e+00 -4.930048924840969349e+00 3.770000000000000000e+02
2.407339701359494821e+00 -3.841234717755655836e+00 3.770000000000000000e+02
1.504852237485796884e+00 -2.752420510670341436e+00 3.770000000000000000e+02
6.023647736120989471e-01 -1.663606303585027923e+00 3.770000000000000000e+02
8.724751948475381269e+00 -1.146293416735285220e+01 3.780000000000000000e+02
7.822264484601682888e+00 -1.037411996026753869e+01 3.780000000000000000e+02
6.919777020727984507e+00 -9.285305753182225175e+00 3.780000000000000000e+02
6.017289556854287014e+00 -8.196491546096911662e+00 3.780000000000000000e+02
5.114802092980589521e+00 -7.107677339011597262e+00 3.780000000000000000e+02
4.212314629106891140e+00 -6.018863131926282861e+00 3.780000000000000000e+02
3.309827165233192758e+00 -4.930048924840969349e+00 3.780000000000000000e+02
2.407339701359494821e+00 -3.841234717755655836e+00 3.780000000000000000e+02
1.504852237485796884e+00 -2.752420510670341436e+00 3.780000000000000000e+02
6.023647736120989471e-01 -1.663606303585027923e+00 3.780000000000000000e+02
8.724751948475381269e+00 -1.146293416735285220e+01 3.790000000000000000e+02
7.822264484601682888e+00 -1.037411996026753869e+01 3.790000000000000000e+02
6.919777020727984507e+00 -9.285305753182225175e+00 3.790000000000000000e+02
6.017289556854287014e+00 -8.196491546096911662e+00 3.790000000000000000e+02
5.114802092980589521e+00 -7.107677339011597262e+00 3.790000000000000000e+02
4.212314629106891140e+00 -6.018863131926282861e+00 3.790000000000000000e+02
3.309827165233192758e+00 -4.930048924840969349e+00 3.790000000000000000e+02
2.407339701359494821e+00 -3.841234717755655836e+00 3.790000000000000000e+02
1.504852237485796884e+00 -2.752420510670341436e+00 3.790000000000000000e+02
6.023647736120989471e-01 -1.663606303585027923e+00 3.790000000000000000e+02
8.724751948475381269e+00 -1.146293416735285220e+01 3.800000000000000000e+02
7.822264484601682888e+00 -1.037411996026753869e+01 3.800000000000000000e+02
6.919777020727984507e+00 -9.285305753182225175e+00 3.800000000000000000e+02
6.017289556854287014e+00 -8.196491546096911662e+00 3.800000000000000000e+02
5.114802092980589521e+00 -7.107677339011597262e+00 3.800000000000000000e+02
4.212314629106891140e+00 -6.018863131926282861e+00 3.800000000000000000e+02
3.309827165233192758e+00 -4.930048924840969349e+00 3.800000000000000000e+02
2.407339701359494821e+00 -3.841234717755655836e+00 3.800000000000000000e+02
1.504852237485796884e+00 -2.752420510670341436e+00 3.800000000000000000e+02
6.023647736120989471e-01 -1.663606303585027923e+00 3.800000000000000000e+02
8.724751948475381269e+00 -1.146293416735285220e+01 3.810000000000000000e+02
7.822264484601682888e+00 -1.037411996026753869e+01 3.810000000000000000e+02
6.919777020727984507e+00 -9.285305753182225175e+00 3.810000000000000000e+02
6.017289556854287014e+00 -8.196491546096911662e+00 3.810000000000000000e+02
5.114802092980589521e+00 -7.107677339011597262e+00 3.810000000000000000e+02
4.212314629106891140e+00 -6.018863131926282861e+00 3.810000000000000000e+02
3.309827165233192758e+00 -4.930048924840969349e+00 3.810000000000000000e+02
2.407339701359494821e+00 -3.841234717755655836e+00 3.810000000000000000e+02
1.504852237485796884e+00 -2.752420510670341436e+00 3.810000000000000000e+02
6.023647736120989471e-01 -1.663606303585027923e+00 3.810000000000000000e+02
8.724751948475381269e+00 -1.146293416735285220e+01 3.820000000000000000e+02
7.822264484601682888e+00 -1.037411996026753869e+01 3.820000000000000000e+02
6.919777020727984507e+00 -9.285305753182225175e+00 3.820000000000000000e+02
6.017289556854287014e+00 -8.196491546096911662e+00 3.820000000000000000e+02
5.114802092980589521e+00 -7.107677339011597262e+00 3.820000000000000000e+02
4.212314629106891140e+00 -6.018863131926282861e+00 3.820000000000000000e+02
3.309827165233192758e+00 -4.930048924840969349e+00 3.820000000000000000e+02
2.407339701359494821e+00 -3.841234717755655836e+00 3.820000000000000000e+02
1.504852237485796884e+00 -2.752420510670341436e+00 3.820000000000000000e+02
6.023647736120989471e-01 -1.663606303585027923e+00 3.820000000000000000e+02
8.724751948475381269e+00 -1.146293416735285220e+01 3.830000000000000000e+02
7.822264484601682888e+00 -1.037411996026753869e+01 3.830000000000000000e+02
6.919777020727984507e+00 -9.285305753182225175e+00 3.830000000000000000e+02
6.017289556854287014e+00 -8.196491546096911662e+00 3.830000000000000000e+02
5.114802092980589521e+00 -7.107677339011597262e+00 3.830000000000000000e+02
4.212314629106891140e+00 -6.018863131926282861e+00 3.830000000000000000e+02
3.309827165233192758e+00 -4.930048924840969349e+00 3.830000000000000000e+02
2.407339701359494821e+00 -3.841234717755655836e+00 3.830000000000000000e+02
1.504852237485796884e+00 -2.752420510670341436e+00 3.830000000000000000e+02
6.023647736120989471e-01 -1.663606303585027923e+00 3.830000000000000000e+02
8.724751948475381269e+00 -1.146293416735285220e+01 3.840000000000000000e+02
7.822264484601682888e+00 -1.037411996026753869e+01 3.840000000000000000e+02
6.919777020727984507e+00 -9.285305753182225175e+00 3.840000000000000000e+02
6.017289556854287014e+00 -8.196491546096911662e+00 3.840000000000000000e+02
5.114802092980589521e+00 -7.107677339011597262e+00 3.840000000000000000e+02
4.212314629106891140e+00 -6.018863131926282861e+00 3.840000000000000000e+02
3.309827165233192758e+00 -4.930048924840969349e+00 3.840000000000000000e+02
2.407339701359494821e+00 -3.841234717755655836e+00 3.840000000000000000e+02
1.504852237485796884e+00 -2.752420510670341436e+00 3.840000000000000000e+02
6.023647736120989471e-01 -1.663606303585027923e+00 3.840000000000000000e+02
-3.001226902615989900e-01 -5.747920964997135229e-01 3.840000000000000000e+02
8.724751948475381269e+00 -1.146293416735285220e+01 3.850000000000000000e+02
7.822264484601682888e+00 -1.037411996026753869e+01 3.850000000000000000e+02
6.919777020727984507e+00 -9.285305753182225175e+00 3.850000000000000000e+02
6.017289556854287014e+00 -8.196491546096911662e+00 3.850000000000000000e+02
5.114802092980589521e+00 -7.107677339011597262e+00 3.850000000000000000e+02
4.212314629106891140e+00 -6.018863131926282861e+00 3.850000000000000000e+02
3.309827165233192758e+00 -4.930048924840969349e+00 3.850000000000000000e+02
2.407339701359494821e+00 -3.841234717755655836e+00 3.850000000000000000e+02
1.504852237485796884e+00 -2.752420510670341436e+00 3.850000000000000000e+02
6.023647736120989471e-01 -1.663606303585027923e+00 3.850000000000000000e+02
-3.001226902615989900e-01 -5.747920964997135229e-01 3.850000000000000000e+02
8.724751948475381269e+00 -1.146293416735285220e+01 3.860000000000000000e+02
7.822264484601682888e+00 -1.037411996026753869e+01 3.860000000000000000e+02
6.919777020727984507e+00 -9.285305753182225175e+00 3.860000000000000000e+02
6.017289556854287014e+00 -8.196491546096911662e+00 3.860000000000000000e+02
5.114802092980589521e+00 -7.107677339011597262e+00 3.860000000000000000e+02
4.212314629106891140e+00 -6.018863131926282861e+00 3.860000000000000000e+02
3.309827165233192758e+00 -4.930048924840969349e+00 3.860000000000000000e+02
2.407339701359494821e+00 -3.841234717755655836e+00 3.860000000000000000e+02
1.504852237485796884e+00 -2.752420510670341436e+00 3.860000000000000000e+02
6.023647736120989471e-01 -1.663606303585027923e+00 3.860000000000000000e+02
-3.001226902615989900e-01 -5.747920964997135229e-01 3.860000000000000000e+02
8.724751948475381269e+00 -1.146293416735285220e+01 3.870000000000000000e+02
7.822264484601682888e+00 -1.037411996026753869e+01 3.870000000000000000e+02
6.919777020727984507e+00 -9.285305753182225175e+00 3.870000000000000000e+02
6.017289556854287014e+00 -8.196491546096911662e+00 3.870000000000000000e+02
5.114802092980589521e+00 -7.107677339011597262e+00 3.870000000000000000e+02
4.212314629106891140e+00 -6.018863131926282861e+00 3.870000000000000000e+02
3.309827165233192758e+00 -4.930048924840969349e+00 3.870000000000000000e+02
2.407339701359494821e+00 -3.841234717755655836e+00 3.870000000000000000e+02
1.504852237485796884e+00 -2.752420510670341436e+00 3.870000000000000000e+02
6.023647736120989471e-01 -1.663606303585027923e+00 3.870000000000000000e+02
8.724751948475381269e+00 -1.146293416735285220e+01 3.880000000000000000e+02
7.822264484601682888e+00 -1.037411996026753869e+01 3.880000000000000000e+02
6.919777020727984507e+00 -9.285305753182225175e+00 3.880000000000000000e+02
6.017289556854287014e+00 -8.196491546096911662e+00 3.880000000000000000e+02
5.114802092980589521e+00 -7.107677339011597262e+00 3.880000000000000000e+02
4.212314629106891140e+00 -6.018863131926282861e+00 3.880000000000000000e+02
3.309827165233192758e+00 -4.930048924840969349e+00 3.880000000000000000e+02
2.407339701359494821e+00 -3.841234717755655836e+00 3.880000000000000000e+02
1.504852237485796884e+00 -2.752420510670341436e+00 3.880000000000000000e+02
6.023647736120989471e-01 -1.663606303585027923e+00 3.880000000000000000e+02
8.724751948475381269e+00 -1.146293416735285220e+01 3.890000000000000000e+02
7.822264484601682888e+00 -1.037411996026753869e+01 3.890000000000000000e+02
6.919777020727984507e+00 -9.285305753182225175e+00 3.890000000000000000e+02
6.017289556854287014e+00 -8.196491546096911662e+00 3.890000000000000000e+02
5.114802092980589521e+00 -7.107677339011597262e+00 3.890000000000000000e+02
4.212314629106891140e+00 -6.018863131926282861e+00 3.890000000000000000e+02
3.309827165233192758e+00 -4.930048924840969349e+00 3.890000000000000000e+02
2.407339701359494821e+00 -3.841234717755655836e+00 3.890000000000000000e+02
1.504852237485796884e+00 -2.752420510670341436e+00 3.890000000000000000e+02
6.023647736120989471e-01 -1.663606303585027923e+00 3.890000000000000000e+02
8.724751948475381269e+00 -1.146293416735285220e+01 3.900000000000000000e+02
7.822264484601682888e+00 -1.037411996026753869e+01 3.900000000000000000e+02
6.919777020727984507e+00 -9.285305753182225175e+00 3.900000000000000000e+02
6.017289556854287014e+00 -8.196491546096911662e+00 3.900000000000000000e+02
5.114802092980589521e+00 -7.107677339011597262e+00 3.900000000000000000e+02
4.212314629106891140e+00 -6.018863131926282861e+00 3.900000000000000000e+02
3.309827165233192758e+00 -4.930048924840969349e+00 3.900000000000000000e+02
2.407339701359494821e+00 -3.841234717755655836e+00 3.900000000000000000e+02
1.504852237485796884e+00 -2.752420510670341436e+00 3.900000000000000000e+02
6.023647736120989471e-01 -1.663606303585027923e+00 3.900000000000000000e+02
8.724751948475381269e+00 -1.146293416735285220e+01 3.910000000000000000e+02
7.822264484601682888e+00 -1.037411996026753869e+01 3.910000000000000000e+02
6.919777020727984507e+00 -9.285305753182225175e+00 3.910000000000000000e+02
6.017289556854287014e+00 -8.196491546096911662e+00 3.910000000000000000e+02
5.114802092980589521e+00 -7.107677339011597262e+00 3.910000000000000000e+02
4.212314629106891140e+00 -6.018863131926282861e+00 3.910000000000000000e+02
3.309827165233192758e+00 -4.930048924840969349e+00 3.910000000000000000e+02
2.407339701359494821e+00 -3.841234717755655836e+00 3.910000000000000000e+02
1.504852237485796884e+00 -2.752420510670341436e+00 3.910000000000000000e+02
6.023647736120989471e-01 -1.663606303585027923e+00 3.910000000000000000e+02
8.724751948475381269e+00 -1.146293416735285220e+01 3.920000000000000000e+02
7.822264484601682888e+00 -1.037411996026753869e+01 3.920000000000000000e+02
6.919777020727984507e+00 -9.285305753182225175e+00 3.920000000000000000e+02
6.017289556854287014e+00 -8.196491546096911662e+00 3.920000000000000000e+02
5.114802092980589521e+00 -7.107677339011597262e+00 3.920000000000000000e+02
4.212314629106891140e+00 -6.018863131926282861e+00 3.920000000000000000e+02
3.309827165233192758e+00 -4.930048924840969349e+00 3.920000000000000000e+02
2.407339701359494821e+00 -3.841234717755655836e+00 3.920000000000000000e+02
1.504852237485796884e+00 -2.752420510670341436e+00 3.920000000000000000e+02
6.023647736120989471e-01 -1.663606303585027923e+00 3.920000000000000000e+02
-3.001226902615989900e-01 -5.747920964997135229e-01 3.920000000000000000e+02
8.724751948475381269e+00 -1.146293416735285220e+01 3.930000000000000000e+02
7.822264484601682888e+00 -1.037411996026753869e+01 3.930000000000000000e+02
6.919777020727984507e+00 -9.285305753182225175e+00 3.930000000000000000e+02
6.017289556854287014e+00 -8.196491546096911662e+00 3.930000000000000000e+02
5.114802092980589521e+00 -7.107677339011597262e+00 3.930000000000000000e+02
4.212314629106891140e+00 -6.018863131926282861e+00 3.930000000000000000e+02
3.309827165233192758e+00 -4.930048924840969349e+00 3.930000000000000000e+02
2.407339701359494821e+00 -3.841234717755655836e+00 3.930000000000000000e+02
1.504852237485796884e+00 -2.752420510670341436e+00 3.930000000000000000e+02
6.023647736120989471e-01 -1.663606303585027923e+00 3.930000000000000000e+02
-3.001226902615989900e-01 -5.747920964997135229e-01 3.930000000000000000e+02
8.724751948475381269e+00 -1.146293416735285220e+01 3.940000000000000000e+02
7.822264484601682888e+00 -1.037411996026753869e+01 3.940000000000000000e+02
6.919777020727984507e+00 -9.285305753182225175e+00 3.940000000000000000e+02
6.017289556854287014e+00 -8.196491546096911662e+00 3.940000000000000000e+02
5.114802092980589521e+00 -7.107677339011597262e+00 3.940000000000000000e+02
4.212314629106891140e+00 -6.018863131926282861e+00 3.940000000000000000e+02
3.309827165233192758e+00 -4.930048924840969349e+00 3.940000000000000000e+02
2.407339701359494821e+00 -3.841234717755655836e+00 3.940000000000000000e+02
1.504852237485796884e+00 -2.752420510670341436e+00 3.940000000000000000e+02
6.023647736120989471e-01 -1.663606303585027923e+00 3.940000000000000000e+02
-3.001226902615989900e-01 -5.747920964997135229e-01 3.940000000000000000e+02
8.724751948475381269e+00 -1.146293416735285220e+01 3.950000000000000000e+02
7.822264484601682888e+00 -1.037411996026753869e+01 3.950000000000000000e+02
6.919777020727984507e+00 -9.285305753182225175e+00 3.950000000000000000e+02
6.017289556854287014e+00 -8.196491546096911662e+00 3.950000000000000000e+02
5.114802092980589521e+00 -7.107677339011597262e+00 3.950000000000000000e+02
4.212314629106891140e+00 -6.018863131926282861e+00 3.950000000000000000e+02
3.309827165233192758e+00 -4.930048924840969349e+00 3.950000000000000000e+02
2.407339701359494821e+00 -3.841234717755655836e+00 3.950000000000000000e+02
1.504852237485796884e+00 -2.752420510670341436e+00 3.950000000000000000e+02
6.023647736120989471e-01 -1.663606303585027923e+00 3.950000000000000000e+02
8.724751948475381269e+00 -1.146293416735285220e+01 3.960000000000000000e+02
7.822264484601682888e+00 -1.037411996026753869e+01 3.960000000000000000e+02
6.919777020727984507e+00 -9.285305753182225175e+00 3.960000000000000000e+02
6.017289556854287014e+00 -8.196491546096911662e+00 3.960000000000000000e+02
5.114802092980589521e+00 -7.107677339011597262e+00 3.960000000000000000e+02
4.212314629106891140e+00 -6.018863131926282861e+00 3.960000000000000000e+02
3.309827165233192758e+00 -4.930048924840969349e+00 3.960000000000000000e+02
2.407339701359494821e+00 -3.841234717755655836e+00 3.960000000000000000e+02
1.504852237485796884e+00 -2.752420510670341436e+00 3.960000000000000000e+02
6.023647736120989471e-01 -1.663606303585027923e+00 3.960000000000000000e+02
8.724751948475381269e+00 -1.146293416735285220e+01 3.970000000000000000e+02
7.822264484601682888e+00 -1.037411996026753869e+01 3.970000000000000000e+02
6.919777020727984507e+00 -9.285305753182225175e+00 3.970000000000000000e+02
6.017289556854287014e+00 -8.196491546096911662e+00 3.970000000000000000e+02
5.114802092980589521e+00 -7.107677339011597262e+00 3.970000000000000000e+02
4.212314629106891140e+00 -6.018863131926282861e+00 3.970000000000000000e+02
3.309827165233192758e+00 -4.930048924840969349e+00 3.970000000000000000e+02
2.407339701359494821e+00 -3.841234717755655836e+00 3.970000000000000000e+02
1.504852237485796884e+00 -2.752420510670341436e+00 3.970000000000000000e+02
6.023647736120989471e-01 -1.663606303585027923e+00 3.970000000000000000e+02
8.724751948475381269e+00 -1.146293416735285220e+01 3.980000000000000000e+02
7.822264484601682888e+00 -1.037411996026753869e+01 3.980000000000000000e+02
6.919777020727984507e+00 -9.285305753182225175e+00 3.980000000000000000e+02
6.017289556854287014e+00 -8.196491546096911662e+00 3.980000000000000000e+02
5.114802092980589521e+00 -7.107677339011597262e+00 3.980000000000000000e+02
4.212314629106891140e+00 -6.018863131926282861e+00 3.980000000000000000e+02
3.309827165233192758e+00 -4.930048924840969349e+00 3.980000000000000000e+02
2.407339701359494821e+00 -3.841234717755655836e+00 3.980000000000000000e+02
1.504852237485796884e+00 -2.752420510670341436e+00 3.980000000000000000e+02
6.023647736120989471e-01 -1.663606303585027923e+00 3.980000000000000000e+02
8.724751948475381269e+00 -1.146293416735285220e+01 3.990000000000000000e+02
7.822264484601682888e+00 -1.037411996026753869e+01 3.990000000000000000e+02
6.919777020727984507e+00 -9.285305753182225175e+00 3.990000000000000000e+02
6.017289556854287014e+00 -8.196491546096911662e+00 3.990000000000000000e+02
5.114802092980589521e+00 -7.107677339011597262e+00 3.990000000000000000e+02
4.212314629106891140e+00 -6.018863131926282861e+00 3.990000000000000000e+02
3.309827165233192758e+00 -4.930048924840969349e+00 3.990000000000000000e+02
2.407339701359494821e+00 -3.841234717755655836e+00 3.990000000000000000e+02
1.504852237485796884e+00 -2.752420510670341436e+00 3.990000000000000000e+02
6.023647736120989471e-01 -1.663606303585027923e+00 3.990000000000000000e+02
8.817915320081189279e+00 -1.046728333187334670e+01 4.000000000000000000e+02
7.915427856207490898e+00 -9.378469124788033184e+00 4.000000000000000000e+02
7.012940392333792516e+00 -8.289654917702719672e+00 4.000000000000000000e+02
6.110452928460095023e+00 -7.200840710617405271e+00 4.000000000000000000e+02
5.207965464586397530e+00 -6.112026503532090871e+00 4.000000000000000000e+02
4.305478000712699149e+00 -5.023212296446777358e+00 4.000000000000000000e+02
3.402990536839000768e+00 -3.934398089361463402e+00 4.000000000000000000e+02
2.500503072965302831e+00 -2.845583882276149446e+00 4.000000000000000000e+02
1.598015609091604894e+00 -1.756769675190835933e+00 4.000000000000000000e+02
8.817915320081189279e+00 -1.046728333187334670e+01 4.010000000000000000e+02
7.915427856207490898e+00 -9.378469124788033184e+00 4.010000000000000000e+02
7.012940392333792516e+00 -8.289654917702719672e+00 4.010000000000000000e+02
6.110452928460095023e+00 -7.200840710617405271e+00 4.010000000000000000e+02
5.207965464586397530e+00 -6.112026503532090871e+00 4.010000000000000000e+02
4.305478000712699149e+00 -5.023212296446777358e+00 4.010000000000000000e+02
3.402990536839000768e+00 -3.934398089361463402e+00 4.010000000000000000e+02
2.500503072965302831e+00 -2.845583882276149446e+00 4.010000000000000000e+02
1.598015609091604894e+00 -1.756769675190835933e+00 4.010000000000000000e+02
8.724751948475381269e+00 -1.146293416735285220e+01 4.020000000000000000e+02
7.822264484601682888e+00 -1.037411996026753869e+01 4.020000000000000000e+02
6.919777020727984507e+00 -9.285305753182225175e+00 4.020000000000000000e+02
6.017289556854287014e+00 -8.196491546096911662e+00 4.020000000000000000e+02
5.114802092980589521e+00 -7.107677339011597262e+00 4.020000000000000000e+02
4.212314629106891140e+00 -6.018863131926282861e+00 4.020000000000000000e+02
3.309827165233192758e+00 -4.930048924840969349e+00 4.020000000000000000e+02
2.407339701359494821e+00 -3.841234717755655836e+00 4.020000000000000000e+02
1.504852237485796884e+00 -2.752420510670341436e+00 4.020000000000000000e+02
6.023647736120989471e-01 -1.663606303585027923e+00 4.020000000000000000e+02
8.724751948475381269e+00 -1.146293416735285220e+01 4.030000000000000000e+02
7.822264484601682888e+00 -1.037411996026753869e+01 4.030000000000000000e+02
6.919777020727984507e+00 -9.285305753182225175e+00 4.030000000000000000e+02
6.017289556854287014e+00 -8.196491546096911662e+00 4.030000000000000000e+02
5.114802092980589521e+00 -7.107677339011597262e+00 4.030000000000000000e+02
4.212314629106891140e+00 -6.018863131926282861e+00 4.030000000000000000e+02
3.309827165233192758e+00 -4.930048924840969349e+00 4.030000000000000000e+02
2.407339701359494821e+00 -3.841234717755655836e+00 4.030000000000000000e+02
1.504852237485796884e+00 -2.752420510670341436e+00 4.030000000000000000e+02
6.023647736120989471e-01 -1.663606303585027923e+00 4.030000000000000000e+02
8.724751948475381269e+00 -1.146293416735285220e+01 4.040000000000000000e+02
7.822264484601682888e+00 -1.037411996026753869e+01 4.040000000000000000e+02
6.919777020727984507e+00 -9.285305753182225175e+00 4.040000000000000000e+02
6.017289556854287014e+00 -8.196491546096911662e+00 4.040000000000000000e+02
5.114802092980589521e+00 -7.107677339011597262e+00 4.040000000000000000e+02
4.212314629106891140e+00 -6.018863131926282861e+00 4.040000000000000000e+02
3.309827165233192758e+00 -4.930048924840969349e+00 4.040000000000000000e+02
2.407339701359494821e+00 -3.841234717755655836e+00 4.040000000000000000e+02
1.504852237485796884e+00 -2.752420510670341436e+00 4.040000000000000000e+02
6.023647736120989471e-01 -1.663606303585027923e+00 4.040000000000000000e+02
8.724751948475381269e+00 -1.146293416735285220e+01 4.050000000000000000e+02
7.822264484601682888e+00 -1.037411996026753869e+01 4.050000000000000000e+02
6.919777020727984507e+00 -9.285305753182225175e+00 4.050000000000000000e+02
6.017289556854287014e+00 -8.196491546096911662e+00 4.050000000000000000e+02
5.114802092980589521e+00 -7.107677339011597262e+00 4.050000000000000000e+02
4.212314629106891140e+00 -6.018863131926282861e+00 4.050000000000000000e+02
3.309827165233192758e+00 -4.930048924840969349e+00 4.050000000000000000e+02
2.407339701359494821e+00 -3.841234717755655836e+00 4.050000000000000000e+02
1.504852237485796884e+00 -2.752420510670341436e+00 4.050000000000000000e+02
6.023647736120989471e-01 -1.663606303585027923e+00 4.050000000000000000e+02
8.724751948475381269e+00 -1.146293416735285220e+01 4.060000000000000000e+02
7.822264484601682888e+00 -1.037411996026753869e+01 4.060000000000000000e+02
6.919777020727984507e+00 -9.285305753182225175e+00 4.060000000000000000e+02
6.017289556854287014e+00 -8.196491546096911662e+00 4.060000000000000000e+02
5.114802092980589521e+00 -7.107677339011597262e+00 4.060000000000000000e+02
4.212314629106891140e+00 -6.018863131926282861e+00 4.060000000000000000e+02
3.309827165233192758e+00 -4.930048924840969349e+00 4.060000000000000000e+02
2.407339701359494821e+00 -3.841234717755655836e+00 4.060000000000000000e+02
1.504852237485796884e+00 -2.752420510670341436e+00 4.060000000000000000e+02
6.023647736120989471e-01 -1.663606303585027923e+00 4.060000000000000000e+02
8.724751948475381269e+00 -1.146293416735285220e+01 4.070000000000000000e+02
7.822264484601682888e+00 -1.037411996026753869e+01 4.070000000000000000e+02
6.919777020727984507e+00 -9.285305753182225175e+00 4.070000000000000000e+02
6.017289556854287014e+00 -8.196491546096911662e+00 4.070000000000000000e+02
5.114802092980589521e+00 -7.107677339011597262e+00 4.070000000000000000e+02
4.212314629106891140e+00 -6.018863131926282861e+00 4.070000000000000000e+02
3.309827165233192758e+00 -4.930048924840969349e+00 4.070000000000000000e+02
2.407339701359494821e+00 -3.841234717755655836e+00 4.070000000000000000e+02
1.504852237485796884e+00 -2.752420510670341436e+00 4.070000000000000000e+02
6.023647736120989471e-01 -1.663606303585027923e+00 4.070000000000000000e+02
8.724751948475381269e+00 -1.146293416735285220e+01 4.080000000000000000e+02
7.822264484601682888e+00 -1.037411996026753869e+01 4.080000000000000000e+02
6.919777020727984507e+00 -9.285305753182225175e+00 4.080000000000000000e+02
6.017289556854287014e+00 -8.196491546096911662e+00 4.080000000000000000e+02
5.114802092980589521e+00 -7.107677339011597262e+00 4.080000000000000000e+02
4.212314629106891140e+00 -6.018863131926282861e+00 4.080000000000000000e+02
3.309827165233192758e+00 -4.930048924840969349e+00 4.080000000000000000e+02
2.407339701359494821e+00 -3.841234717755655836e+00 4.080000000000000000e+02
1.504852237485796884e+00 -2.752420510670341436e+00 4.080000000000000000e+02
6.023647736120989471e-01 -1.663606303585027923e+00 4.080000000000000000e+02
8.724751948475381269e+00 -1.146293416735285220e+01 4.090000000000000000e+02
7.822264484601682888e+00 -1.037411996026753869e+01 4.090000000000000000e+02
6.919777020727984507e+00 -9.285305753182225175e+00 4.090000000000000000e+02
6.017289556854287014e+00 -8.196491546096911662e+00 4.090000000000000000e+02
5.114802092980589521e+00 -7.107677339011597262e+00 4.090000000000000000e+02
4.212314629106891140e+00 -6.018863131926282861e+00 4.090000000000000000e+02
3.309827165233192758e+00 -4.930048924840969349e+00 4.090000000000000000e+02
2.407339701359494821e+00 -3.841234717755655836e+00 4.090000000000000000e+02
1.504852237485796884e+00 -2.752420510670341436e+00 4.090000000000000000e+02
6.023647736120989471e-01 -1.663606303585027923e+00 4.090000000000000000e+02
8.631588576869573259e+00 -1.245858500283235770e+01 4.100000000000000000e+02
7.729101112995875766e+00 -1.136977079574704419e+01 4.100000000000000000e+02
6.826613649122177385e+00 -1.028095658866173068e+01 4.100000000000000000e+02
5.924126185248479004e+00 -9.192142381576417165e+00 4.100000000000000000e+02
5.021638721374781511e+00 -8.103328174491103653e+00 4.100000000000000000e+02
4.119151257501083130e+00 -7.014513967405789252e+00 4.100000000000000000e+02
3.216663793627385193e+00 -5.925699760320474851e+00 4.100000000000000000e+02
2.314176329753687256e+00 -4.836885553235161339e+00 4.100000000000000000e+02
1.411688865879988874e+00 -3.748071346149847827e+00 4.100000000000000000e+02
5.092014020062913815e-01 -2.659257139064534314e+00 4.100000000000000000e+02
-3.932860618674069997e-01 -1.570442931979219914e+00 4.100000000000000000e+02
8.631588576869573259e+00 -1.245858500283235770e+01 4.110000000000000000e+02
7.729101112995875766e+00 -1.136977079574704419e+01 4.110000000000000000e+02
6.826613649122177385e+00 -1.028095658866173068e+01 4.110000000000000000e+02
5.924126185248479004e+00 -9.192142381576417165e+00 4.110000000000000000e+02
5.021638721374781511e+00 -8.103328174491103653e+00 4.110000000000000000e+02
4.119151257501083130e+00 -7.014513967405789252e+00 4.110000000000000000e+02
3.216663793627385193e+00 -5.925699760320474851e+00 4.110000000000000000e+02
2.314176329753687256e+00 -4.836885553235161339e+00 4.110000000000000000e+02
1.411688865879988874e+00 -3.748071346149847827e+00 4.110000000000000000e+02
5.092014020062913815e-01 -2.659257139064534314e+00 4.110000000000000000e+02
-3.932860618674069997e-01 -1.570442931979219914e+00 4.110000000000000000e+02
8.724751948475381269e+00 -1.146293416735285220e+01 4.120000000000000000e+02
7.822264484601682888e+00 -1.037411996026753869e+01 4.120000000000000000e+02
6.919777020727984507e+00 -9.285305753182225175e+00 4.120000000000000000e+02
6.017289556854287014e+00 -8.196491546096911662e+00 4.120000000000000000e+02
5.114802092980589521e+00 -7.107677339011597262e+00 4.120000000000000000e+02
4.212314629106891140e+00 -6.018863131926282861e+00 4.120000000000000000e+02
3.309827165233192758e+00 -4.930048924840969349e+00 4.120000000000000000e+02
2.407339701359494821e+00 -3.841234717755655836e+00 4.120000000000000000e+02
1.504852237485796884e+00 -2.752420510670341436e+00 4.120000000000000000e+02
6.023647736120989471e-01 -1.663606303585027923e+00 4.120000000000000000e+02
8.724751948475381269e+00 -1.146293416735285220e+01 4.130000000000000000e+02
7.822264484601682888e+00 -1.037411996026753869e+01 4.130000000000000000e+02
6.919777020727984507e+00 -9.285305753182225175e+00 4.130000000000000000e+02
6.017289556854287014e+00 -8.196491546096911662e+00 4.130000000000000000e+02
5.114802092980589521e+00 -7.107677339011597262e+00 4.130000000000000000e+02
4.212314629106891140e+00 -6.018863131926282861e+00 4.130000000000000000e+02
3.309827165233192758e+00 -4.930048924840969349e+00 4.130000000000000000e+02
2.407339701359494821e+00 -3.841234717755655836e+00 4.130000000000000000e+02
1.504852237485796884e+00 -2.752420510670341436e+00 4.130000000000000000e+02
6.023647736120989471e-01 -1.663606303585027923e+00 4.130000000000000000e+02
8.724751948475381269e+00 -1.146293416735285220e+01 4.140000000000000000e+02
7.822264484601682888e+00 -1.037411996026753869e+01 4.140000000000000000e+02
6.919777020727984507e+00 -9.285305753182225175e+00 4.140000000000000000e+02
6.017289556854287014e+00 -8.196491546096911662e+00 4.140000000000000000e+02
5.114802092980589521e+00 -7.107677339011597262e+00 4.140000000000000000e+02
4.212314629106891140e+00 -6.018863131926282861e+00 4.140000000000000000e+02
3.309827165233192758e+00 -4.930048924840969349e+00 4.140000000000000000e+02
2.407339701359494821e+00 -3.841234717755655836e+00 4.140000000000000000e+02
1.504852237485796884e+00 -2.752420510670341436e+00 4.140000000000000000e+02
6.023647736120989471e-01 -1.663606303585027923e+00 4.140000000000000000e+02
8.724751948475381269e+00 -1.146293416735285220e+01 4.150000000000000000e+02
7.822264484601682888e+00 -1.037411996026753869e+01 4.150000000000000000e+02
6.919777020727984507e+00 -9.285305753182225175e+00 4.150000000000000000e+02
6.017289556854287014e+00 -8.196491546096911662e+00 4.150000000000000000e+02
5.114802092980589521e+00 -7.107677339011597262e+00 4.150000000000000000e+02
4.212314629106891140e+00 -6.018863131926282861e+00 4.150000000000000000e+02
3.309827165233192758e+00 -4.930048924840969349e+00 4.150000000000000000e+02
2.407339701359494821e+00 -3.841234717755655836e+00 4.150000000000000000e+02
1.504852237485796884e+00 -2.752420510670341436e+00 4.150000000000000000e+02
6.023647736120989471e-01 -1.663606303585027923e+00 4.150000000000000000e+02
-3.001226902615989900e-01 -5.747920964997135229e-01 4.150000000000000000e+02
8.724751948475381269e+00 -1.146293416735285220e+01 4.160000000000000000e+02
7.822264484601682888e+00 -1.037411996026753869e+01 4.160000000000000000e+02
6.919777020727984507e+00 -9.285305753182225175e+00 4.160000000000000000e+02
6.017289556854287014e+00 -8.196491546096911662e+00 4.160000000000000000e+02
5.114802092980589521e+00 -7.107677339011597262e+00 4.160000000000000000e+02
4.212314629106891140e+00 -6.018863131926282861e+00 4.160000000000000000e+02
3.309827165233192758e+00 -4.930048924840969349e+00 4.160000000000000000e+02
2.407339701359494821e+00 -3.841234717755655836e+00 4.160000000000000000e+02
1.504852237485796884e+00 -2.752420510670341436e+00 4.160000000000000000e+02
6.023647736120989471e-01 -1.663606303585027923e+00 4.160000000000000000e+02
8.724751948475381269e+00 -1.146293416735285220e+01 4.170000000000000000e+02
7.822264484601682888e+00 -1.037411996026753869e+01 4.170000000000000000e+02
6.919777020727984507e+00 -9.285305753182225175e+00 4.170000000000000000e+02
6.017289556854287014e+00 -8.196491546096911662e+00 4.170000000000000000e+02
5.114802092980589521e+00 -7.107677339011597262e+00 4.170000000000000000e+02
4.212314629106891140e+00 -6.018863131926282861e+00 4.170000000000000000e+02
3.309827165233192758e+00 -4.930048924840969349e+00 4.170000000000000000e+02
2.407339701359494821e+00 -3.841234717755655836e+00 4.170000000000000000e+02
1.504852237485796884e+00 -2.752420510670341436e+00 4.170000000000000000e+02
6.023647736120989471e-01 -1.663606303585027923e+00 4.170000000000000000e+02
8.631588576869573259e+00 -1.245858500283235770e+01 4.180000000000000000e+02
7.729101112995875766e+00 -1.136977079574704419e+01 4.180000000000000000e+02
6.826613649122177385e+00 -1.028095658866173068e+01 4.180000000000000000e+02
5.924126185248479004e+00 -9.192142381576417165e+00 4.180000000000000000e+02
5.021638721374781511e+00 -8.103328174491103653e+00 4.180000000000000000e+02
4.119151257501083130e+00 -7.014513967405789252e+00 4.180000000000000000e+02
3.216663793627385193e+00 -5.925699760320474851e+00 4.180000000000000000e+02
2.314176329753687256e+00 -4.836885553235161339e+00 4.180000000000000000e+02
1.411688865879988874e+00 -3.748071346149847827e+00 4.180000000000000000e+02
5.092014020062913815e-01 -2.659257139064534314e+00 4.180000000000000000e+02
-3.932860618674069997e-01 -1.570442931979219914e+00 4.180000000000000000e+02
8.631588576869573259e+00 -1.245858500283235770e+01 4.190000000000000000e+02
7.729101112995875766e+00 -1.136977079574704419e+01 4.190000000000000000e+02
6.826613649122177385e+00 -1.028095658866173068e+01 4.190000000000000000e+02
5.924126185248479004e+00 -9.192142381576417165e+00 4.190000000000000000e+02
5.021638721374781511e+00 -8.103328174491103653e+00 4.190000000000000000e+02
4.119151257501083130e+00 -7.014513967405789252e+00 4.190000000000000000e+02
3.216663793627385193e+00 -5.925699760320474851e+00 4.190000000000000000e+02
2.314176329753687256e+00 -4.836885553235161339e+00 4.190000000000000000e+02
1.411688865879988874e+00 -3.748071346149847827e+00 4.190000000000000000e+02
5.092014020062913815e-01 -2.659257139064534314e+00 4.190000000000000000e+02
-3.932860618674069997e-01 -1.570442931979219914e+00 4.190000000000000000e+02
8.631588576869573259e+00 -1.245858500283235770e+01 4.200000000000000000e+02
7.729101112995875766e+00 -1.136977079574704419e+01 4.200000000000000000e+02
