-2.979147410000784202e+00 4.566112312056023192e+00 3.250000000000000000e+02
-1.878530790890601487e+00 -7.425077914845495286e+00 3.260000000000000000e+02
-2.090266465040771404e+00 -6.026804692512973460e+00 3.260000000000000000e+02
-2.302002139190941321e+00 -4.628531470180451635e+00 3.260000000000000000e+02
-2.513737813341110794e+00 -3.230258247847930253e+00 3.260000000000000000e+02
-2.725473487491281155e+00 -1.831985025515408871e+00 3.260000000000000000e+02
-2.937209161641450628e+00 -4.337118031828873788e-01 3.260000000000000000e+02
-3.148944835791620545e+00 9.645614191496343359e-01 3.260000000000000000e+02
-3.360680509941790461e+00 2.362834641482155718e+00 3.260000000000000000e+02
-3.572416184091959934e+00 3.761107863814677543e+00 3.260000000000000000e+02
-3.784151858242129851e+00 5.159381086147199369e+00 3.260000000000000000e+02
-1.878530790890601487e+00 -7.425077914845495286e+00 3.270000000000000000e+02
-2.090266465040771404e+00 -6.026804692512973460e+00 3.270000000000000000e+02
-2.302002139190941321e+00 -4.628531470180451635e+00 3.270000000000000000e+02
-2.513737813341110794e+00 -3.230258247847930253e+00 3.270000000000000000e+02
-2.725473487491281155e+00 -1.831985025515408871e+00 3.270000000000000000e+02
-2.937209161641450628e+00 -4.337118031828873788e-01 3.270000000000000000e+02
-3.148944835791620545e+00 9.645614191496343359e-01 3.270000000000000000e+02
-3.360680509941790461e+00 2.362834641482155718e+00 3.270000000000000000e+02
-3.572416184091959934e+00 3.761107863814677543e+00 3.270000000000000000e+02
-3.784151858242129851e+00 5.159381086147199369e+00 3.270000000000000000e+02
-3.995887532392300212e+00 6.557654308479720306e+00 3.270000000000000000e+02
-1.878530790890601487e+00 -7.425077914845495286e+00 3.280000000000000000e+02
-2.090266465040771404e+00 -6.026804692512973460e+00 3.280000000000000000e+02
-2.302002139190941321e+00 -4.628531470180451635e+00 3.280000000000000000e+02
-2.513737813341110794e+00 -3.230258247847930253e+00 3.280000000000000000e+02
-2.725473487491281155e+00 -1.831985025515408871e+00 3.280000000000000000e+02
-2.937209161641450628e+00 -4.337118031828873788e-01 3.280000000000000000e+02
-3.148944835791620545e+00 9.645614191496343359e-01 3.280000000000000000e+02
-3.360680509941790461e+00 2.362834641482155718e+00 3.280000000000000000e+02
-3.572416184091959934e+00 3.761107863814677543e+00 3.280000000000000000e+02
-3.784151858242129851e+00 5.159381086147199369e+00 3.280000000000000000e+02
-1.285262016799425755e+00 -6.620073466604148749e+00 3.290000000000000000e+02
-1.496997690949595672e+00 -5.221800244271626923e+00 3.290000000000000000e+02
-1.708733365099765367e+00 -3.823527021939105985e+00 3.290000000000000000e+02
-1.920469039249935284e+00 -2.425253799606584604e+00 3.290000000000000000e+02
-2.132204713400104978e+00 -1.026980577274063222e+00 3.290000000000000000e+02
-2.343940387550274895e+00 3.712926450584583815e-01 3.290000000000000000e+02
-2.555676061700444812e+00 1.769565867390979985e+00 3.290000000000000000e+02
-2.767411735850614285e+00 3.167839089723501367e+00 3.290000000000000000e+02
-2.979147410000784202e+00 4.566112312056023192e+00 3.290000000000000000e+02
-1.285262016799425755e+00 -6.620073466604148749e+00 3.300000000000000000e+02
-1.496997690949595672e+00 -5.221800244271626923e+00 3.300000000000000000e+02
-1.708733365099765367e+00 -3.823527021939105985e+00 3.300000000000000000e+02
-1.920469039249935284e+00 -2.425253799606584604e+00 3.300000000000000000e+02
-2.132204713400104978e+00 -1.026980577274063222e+00 3.300000000000000000e+02
-2.343940387550274895e+00 3.712926450584583815e-01 3.300000000000000000e+02
-2.555676061700444812e+00 1.769565867390979985e+00 3.300000000000000000e+02
-2.767411735850614285e+00 3.167839089723501367e+00 3.300000000000000000e+02
-2.979147410000784202e+00 4.566112312056023192e+00 3.300000000000000000e+02
-1.285262016799425755e+00 -6.620073466604148749e+00 3.310000000000000000e+02
-1.496997690949595672e+00 -5.221800244271626923e+00 3.310000000000000000e+02
-1.708733365099765367e+00 -3.823527021939105985e+00 3.310000000000000000e+02
-1.920469039249935284e+00 -2.425253799606584604e+00 3.310000000000000000e+02
-2.132204713400104978e+00 -1.026980577274063222e+00 3.310000000000000000e+02
-2.343940387550274895e+00 3.712926450584583815e-01 3.310000000000000000e+02
-2.555676061700444812e+00 1.769565867390979985e+00 3.310000000000000000e+02
-2.767411735850614285e+00 3.167839089723501367e+00 3.310000000000000000e+02
-2.979147410000784202e+00 4.566112312056023192e+00 3.310000000000000000e+02
-3.190883084150954119e+00 5.964385534388544130e+00 3.310000000000000000e+02
-1.285262016799425755e+00 -6.620073466604148749e+00 3.320000000000000000e+02
-1.496997690949595672e+00 -5.221800244271626923e+00 3.320000000000000000e+02
-1.708733365099765367e+00 -3.823527021939105985e+00 3.320000000000000000e+02
-1.920469039249935284e+00 -2.425253799606584604e+00 3.320000000000000000e+02
-2.132204713400104978e+00 -1.026980577274063222e+00 3.320000000000000000e+02
-2.343940387550274895e+00 3.712926450584583815e-01 3.320000000000000000e+02
-2.555676061700444812e+00 1.769565867390979985e+00 3.320000000000000000e+02
-2.767411735850614285e+00 3.167839089723501367e+00 3.320000000000000000e+02
-2.979147410000784202e+00 4.566112312056023192e+00 3.320000000000000000e+02
-3.190883084150954119e+00 5.964385534388544130e+00 3.320000000000000000e+02
-1.878530790890601487e+00 -7.425077914845495286e+00 3.330000000000000000e+02
-2.090266465040771404e+00 -6.026804692512973460e+00 3.330000000000000000e+02
-2.302002139190941321e+00 -4.628531470180451635e+00 3.330000000000000000e+02
-2.513737813341110794e+00 -3.230258247847930253e+00 3.330000000000000000e+02
-2.725473487491281155e+00 -1.831985025515408871e+00 3.330000000000000000e+02
-2.937209161641450628e+00 -4.337118031828873788e-01 3.330000000000000000e+02
-3.148944835791620545e+00 9.645614191496343359e-01 3.330000000000000000e+02
-3.360680509941790461e+00 2.362834641482155718e+00 3.330000000000000000e+02
-3.572416184091959934e+00 3.761107863814677543e+00 3.330000000000000000e+02
-3.784151858242129851e+00 5.159381086147199369e+00 3.330000000000000000e+02
-3.995887532392300212e+00 6.557654308479720306e+00 3.330000000000000000e+02
-1.878530790890601487e+00 -7.425077914845495286e+00 3.340000000000000000e+02
-2.090266465040771404e+00 -6.026804692512973460e+00 3.340000000000000000e+02
-2.302002139190941321e+00 -4.628531470180451635e+00 3.340000000000000000e+02
-2.513737813341110794e+00 -3.230258247847930253e+00 3.340000000000000000e+02
-2.725473487491281155e+00 -1.831985025515408871e+00 3.340000000000000000e+02
-2.937209161641450628e+00 -4.337118031828873788e-01 3.340000000000000000e+02
-3.148944835791620545e+00 9.645614191496343359e-01 3.340000000000000000e+02
-3.360680509941790461e+00 2.362834641482155718e+00 3.340000000000000000e+02
-3.572416184091959934e+00 3.761107863814677543e+00 3.340000000000000000e+02
-3.784151858242129851e+00 5.159381086147199369e+00 3.340000000000000000e+02
-3.995887532392300212e+00 6.557654308479720306e+00 3.340000000000000000e+02
-1.285262016799425755e+00 -6.620073466604148749e+00 3.350000000000000000e+02
-1.496997690949595672e+00 -5.221800244271626923e+00 3.350000000000000000e+02
-1.708733365099765367e+00 -3.823527021939105985e+00 3.350000000000000000e+02
-1.920469039249935284e+00 -2.425253799606584604e+00 3.350000000000000000e+02
-2.132204713400104978e+00 -1.026980577274063222e+00 3.350000000000000000e+02
-2.343940387550274895e+00 3.712926450584583815e-01 3.350000000000000000e+02
-2.555676061700444812e+00 1.769565867390979985e+00 3.350000000000000000e+02
-2.767411735850614285e+00 3.167839089723501367e+00 3.350000000000000000e+02
-2.979147410000784202e+00 4.566112312056023192e+00 3.350000000000000000e+02
-1.285262016799425755e+00 -6.620073466604148749e+00 3.360000000000000000e+02
-1.496997690949595672e+00 -5.221800244271626923e+00 3.360000000000000000e+02
-1.708733365099765367e+00 -3.823527021939105985e+00 3.360000000000000000e+02
-1.920469039249935284e+00 -2.425253799606584604e+00 3.360000000000000000e+02
-2.132204713400104978e+00 -1.026980577274063222e+00 3.360000000000000000e+02
-2.343940387550274895e+00 3.712926450584583815e-01 3.360000000000000000e+02
-2.555676061700444812e+00 1.769565867390979985e+00 3.360000000000000000e+02
-2.767411735850614285e+00 3.167839089723501367e+00 3.360000000000000000e+02
-2.979147410000784202e+00 4.566112312056023192e+00 3.360000000000000000e+02
-3.190883084150954119e+00 5.964385534388544130e+00 3.360000000000000000e+02
-1.285262016799425755e+00 -6.620073466604148749e+00 3.370000000000000000e+02
-1.496997690949595672e+00 -5.221800244271626923e+00 3.370000000000000000e+02
-1.708733365099765367e+00 -3.823527021939105985e+00 3.370000000000000000e+02
-1.920469039249935284e+00 -2.425253799606584604e+00 3.370000000000000000e+02
-2.132204713400104978e+00 -1.026980577274063222e+00 3.370000000000000000e+02
-2.343940387550274895e+00 3.712926450584583815e-01 3.370000000000000000e+02
-2.555676061700444812e+00 1.769565867390979985e+00 3.370000000000000000e+02
-2.767411735850614285e+00 3.167839089723501367e+00 3.370000000000000000e+02
-2.979147410000784202e+00 4.566112312056023192e+00 3.370000000000000000e+02
-3.190883084150954119e+00 5.964385534388544130e+00 3.370000000000000000e+02
-1.878530790890601487e+00 -7.425077914845495286e+00 3.380000000000000000e+02
-2.090266465040771404e+00 -6.026804692512973460e+00 3.380000000000000000e+02
-2.302002139190941321e+00 -4.628531470180451635e+00 3.380000000000000000e+02
-2.513737813341110794e+00 -3.230258247847930253e+00 3.380000000000000000e+02
-2.725473487491281155e+00 -1.831985025515408871e+00 3.380000000000000000e+02
-2.937209161641450628e+00 -4.337118031828873788e-01 3.380000000000000000e+02
-3.148944835791620545e+00 9.645614191496343359e-01 3.380000000000000000e+02
-3.360680509941790461e+00 2.362834641482155718e+00 3.380000000000000000e+02
-3.572416184091959934e+00 3.761107863814677543e+00 3.380000000000000000e+02
-3.784151858242129851e+00 5.159381086147199369e+00 3.380000000000000000e+02
-3.995887532392300212e+00 6.557654308479720306e+00 3.380000000000000000e+02
-1.878530790890601487e+00 -7.425077914845495286e+00 3.390000000000000000e+02
-2.090266465040771404e+00 -6.026804692512973460e+00 3.390000000000000000e+02
-2.302002139190941321e+00 -4.628531470180451635e+00 3.390000000000000000e+02
-2.513737813341110794e+00 -3.230258247847930253e+00 3.390000000000000000e+02
-2.725473487491281155e+00 -1.831985025515408871e+00 3.390000000000000000e+02
-2.937209161641450628e+00 -4.337118031828873788e-01 3.390000000000000000e+02
-3.148944835791620545e+00 9.645614191496343359e-01 3.390000000000000000e+02
-3.360680509941790461e+00 2.362834641482155718e+00 3.390000000000000000e+02
-3.572416184091959934e+00 3.761107863814677543e+00 3.390000000000000000e+02
-3.784151858242129851e+00 5.159381086147199369e+00 3.390000000000000000e+02
-3.995887532392300212e+00 6.557654308479720306e+00 3.390000000000000000e+02
-1.285262016799425755e+00 -6.620073466604148749e+00 3.400000000000000000e+02
-1.496997690949595672e+00 -5.221800244271626923e+00 3.400000000000000000e+02
-1.708733365099765367e+00 -3.823527021939105985e+00 3.400000000000000000e+02
-1.920469039249935284e+00 -2.425253799606584604e+00 3.400000000000000000e+02
-2.132204713400104978e+00 -1.026980577274063222e+00 3.400000000000000000e+02
-2.343940387550274895e+00 3.712926450584583815e-01 3.400000000000000000e+02
-2.555676061700444812e+00 1.769565867390979985e+00 3.400000000000000000e+02
-2.767411735850614285e+00 3.167839089723501367e+00 3.400000000000000000e+02
-2.979147410000784202e+00 4.566112312056023192e+00 3.400000000000000000e+02
-1.285262016799425755e+00 -6.620073466604148749e+00 3.410000000000000000e+02
-1.496997690949595672e+00 -5.221800244271626923e+00 3.410000000000000000e+02
-1.708733365099765367e+00 -3.823527021939105985e+00 3.410000000000000000e+02
-1.920469039249935284e+00 -2.425253799606584604e+00 3.410000000000000000e+02
-2.132204713400104978e+00 -1.026980577274063222e+00 3.410000000000000000e+02
-2.343940387550274895e+00 3.712926450584583815e-01 3.410000000000000000e+02
-2.555676061700444812e+00 1.769565867390979985e+00 3.410000000000000000e+02
-2.767411735850614285e+00 3.167839089723501367e+00 3.410000000000000000e+02
-2.979147410000784202e+00 4.566112312056023192e+00 3.410000000000000000e+02
-1.285262016799425755e+00 -6.620073466604148749e+00 3.420000000000000000e+02
-1.496997690949595672e+00 -5.221800244271626923e+00 3.420000000000000000e+02
-1.708733365099765367e+00 -3.823527021939105985e+00 3.420000000000000000e+02
-1.920469039249935284e+00 -2.425253799606584604e+00 3.420000000000000000e+02
-2.132204713400104978e+00 -1.026980577274063222e+00 3.420000000000000000e+02
-2.343940387550274895e+00 3.712926450584583815e-01 3.420000000000000000e+02
-2.555676061700444812e+00 1.769565867390979985e+00 3.420000000000000000e+02
-2.767411735850614285e+00 3.167839089723501367e+00 3.420000000000000000e+02
-2.979147410000784202e+00 4.566112312056023192e+00 3.420000000000000000e+02
-1.285262016799425755e+00 -6.620073466604148749e+00 3.430000000000000000e+02
-1.496997690949595672e+00 -5.221800244271626923e+00 3.430000000000000000e+02
-1.708733365099765367e+00 -3.823527021939105985e+00 3.430000000000000000e+02
-1.920469039249935284e+00 -2.425253799606584604e+00 3.430000000000000000e+02
-2.132204713400104978e+00 -1.026980577274063222e+00 3.430000000000000000e+02
-2.343940387550274895e+00 3.712926450584583815e-01 3.430000000000000000e+02
-2.555676061700444812e+00 1.769565867390979985e+00 3.430000000000000000e+02
-2.767411735850614285e+00 3.167839089723501367e+00 3.430000000000000000e+02
-2.979147410000784202e+00 4.566112312056023192e+00 3.430000000000000000e+02
-3.190883084150954119e+00 5.964385534388544130e+00 3.430000000000000000e+02
-1.285262016799425755e+00 -6.620073466604148749e+00 3.440000000000000000e+02
-1.496997690949595672e+00 -5.221800244271626923e+00 3.440000000000000000e+02
-1.708733365099765367e+00 -3.823527021939105985e+00 3.440000000000000000e+02
-1.920469039249935284e+00 -2.425253799606584604e+00 3.440000000000000000e+02
-2.132204713400104978e+00 -1.026980577274063222e+00 3.440000000000000000e+02
-2.343940387550274895e+00 3.712926450584583815e-01 3.440000000000000000e+02
-2.555676061700444812e+00 1.769565867390979985e+00 3.440000000000000000e+02
-2.767411735850614285e+00 3.167839089723501367e+00 3.440000000000000000e+02
-2.979147410000784202e+00 4.566112312056023192e+00 3.440000000000000000e+02
-3.190883084150954119e+00 5.964385534388544130e+00 3.440000000000000000e+02
-1.285262016799425755e+00 -6.620073466604148749e+00 3.450000000000000000e+02
-1.496997690949595672e+00 -5.221800244271626923e+00 3.450000000000000000e+02
-1.708733365099765367e+00 -3.823527021939105985e+00 3.450000000000000000e+02
-1.920469039249935284e+00 -2.425253799606584604e+00 3.450000000000000000e+02
-2.132204713400104978e+00 -1.026980577274063222e+00 3.450000000000000000e+02
-2.343940387550274895e+00 3.712926450584583815e-01 3.450000000000000000e+02
-2.555676061700444812e+00 1.769565867390979985e+00 3.450000000000000000e+02
-2.767411735850614285e+00 3.167839089723501367e+00 3.450000000000000000e+02
-2.979147410000784202e+00 4.566112312056023192e+00 3.450000000000000000e+02
-3.190883084150954119e+00 5.964385534388544130e+00 3.450000000000000000e+02
-6.919932427082500226e-01 -5.815069018362803988e+00 3.460000000000000000e+02
-9.037289168584194954e-01 -4.416795796030282162e+00 3.460000000000000000e+02
-1.115464591008589412e+00 -3.018522573697760336e+00 3.460000000000000000e+02
-1.327200265158759329e+00 -1.620249351365238955e+00 3.460000000000000000e+02
-1.538935939308929246e+00 -2.219761290327174619e-01 3.460000000000000000e+02
-1.750671613459098941e+00 1.176297093299804253e+00 3.460000000000000000e+02
-1.962407287609268636e+00 2.574570315632325634e+00 3.460000000000000000e+02
-2.174142961759438553e+00 3.972843537964847016e+00 3.460000000000000000e+02
-6.919932427082500226e-01 -5.815069018362803988e+00 3.470000000000000000e+02
-9.037289168584194954e-01 -4.416795796030282162e+00 3.470000000000000000e+02
-1.115464591008589412e+00 -3.018522573697760336e+00 3.470000000000000000e+02
-1.327200265158759329e+00 -1.620249351365238955e+00 3.470000000000000000e+02
-1.538935939308929246e+00 -2.219761290327174619e-01 3.470000000000000000e+02
-1.750671613459098941e+00 1.176297093299804253e+00 3.470000000000000000e+02
-1.962407287609268636e+00 2.574570315632325634e+00 3.470000000000000000e+02
-2.174142961759438553e+00 3.972843537964847016e+00 3.470000000000000000e+02
-2.385878635909608469e+00 5.371116760297368842e+00 3.470000000000000000e+02
-1.285262016799425755e+00 -6.620073466604148749e+00 3.480000000000000000e+02
-1.496997690949595672e+00 -5.221800244271626923e+00 3.480000000000000000e+02
-1.708733365099765367e+00 -3.823527021939105985e+00 3.480000000000000000e+02
-1.920469039249935284e+00 -2.425253799606584604e+00 3.480000000000000000e+02
-2.132204713400104978e+00 -1.026980577274063222e+00 3.480000000000000000e+02
-2.343940387550274895e+00 3.712926450584583815e-01 3.480000000000000000e+02
-2.555676061700444812e+00 1.769565867390979985e+00 3.480000000000000000e+02
-2.767411735850614285e+00 3.167839089723501367e+00 3.480000000000000000e+02
-2.979147410000784202e+00 4.566112312056023192e+00 3.480000000000000000e+02
-3.190883084150954119e+00 5.964385534388544130e+00 3.480000000000000000e+02
-1.285262016799425755e+00 -6.620073466604148749e+00 3.490000000000000000e+02
-1.496997690949595672e+00 -5.221800244271626923e+00 3.490000000000000000e+02
-1.708733365099765367e+00 -3.823527021939105985e+00 3.490000000000000000e+02
-1.920469039249935284e+00 -2.425253799606584604e+00 3.490000000000000000e+02
-2.132204713400104978e+00 -1.026980577274063222e+00 3.490000000000000000e+02
-2.343940387550274895e+00 3.712926450584583815e-01 3.490000000000000000e+02
-2.555676061700444812e+00 1.769565867390979985e+00 3.490000000000000000e+02
-2.767411735850614285e+00 3.167839089723501367e+00 3.490000000000000000e+02
-2.979147410000784202e+00 4.566112312056023192e+00 3.490000000000000000e+02
-3.190883084150954119e+00 5.964385534388544130e+00 3.490000000000000000e+02
-1.878530790890601487e+00 -7.425077914845495286e+00 3.500000000000000000e+02
-2.090266465040771404e+00 -6.026804692512973460e+00 3.500000000000000000e+02
-2.302002139190941321e+00 -4.628531470180451635e+00 3.500000000000000000e+02
-2.513737813341110794e+00 -3.230258247847930253e+00 3.500000000000000000e+02
-2.725473487491281155e+00 -1.831985025515408871e+00 3.500000000000000000e+02
-2.937209161641450628e+00 -4.337118031828873788e-01 3.500000000000000000e+02
-3.148944835791620545e+00 9.645614191496343359e-01 3.500000000000000000e+02
-3.360680509941790461e+00 2.362834641482155718e+00 3.500000000000000000e+02
-3.572416184091959934e+00 3.761107863814677543e+00 3.500000000000000000e+02
-3.784151858242129851e+00 5.159381086147199369e+00 3.500000000000000000e+02
-3.995887532392300212e+00 6.557654308479720306e+00 3.500000000000000000e+02
-1.878530790890601487e+00 -7.425077914845495286e+00 3.510000000000000000e+02
-2.090266465040771404e+00 -6.026804692512973460e+00 3.510000000000000000e+02
-2.302002139190941321e+00 -4.628531470180451635e+00 3.510000000000000000e+02
-2.513737813341110794e+00 -3.230258247847930253e+00 3.510000000000000000e+02
-2.725473487491281155e+00 -1.831985025515408871e+00 3.510000000000000000e+02
-2.937209161641450628e+00 -4.337118031828873788e-01 3.510000000000000000e+02
-3.148944835791620545e+00 9.645614191496343359e-01 3.510000000000000000e+02
-3.360680509941790461e+00 2.362834641482155718e+00 3.510000000000000000e+02
-3.572416184091959934e+00 3.761107863814677543e+00 3.510000000000000000e+02
-3.784151858242129851e+00 5.159381086147199369e+00 3.510000000000000000e+02
-3.995887532392300212e+00 6.557654308479720306e+00 3.510000000000000000e+02
-1.878530790890601487e+00 -7.425077914845495286e+00 3.520000000000000000e+02
-2.090266465040771404e+00 -6.026804692512973460e+00 3.520000000000000000e+02
-2.302002139190941321e+00 -4.628531470180451635e+00 3.520000000000000000e+02
-2.513737813341110794e+00 -3.230258247847930253e+00 3.520000000000000000e+02
-2.725473487491281155e+00 -1.831985025515408871e+00 3.520000000000000000e+02
-2.937209161641450628e+00 -4.337118031828873788e-01 3.520000000000000000e+02
-3.148944835791620545e+00 9.645614191496343359e-01 3.520000000000000000e+02
-3.360680509941790461e+00 2.362834641482155718e+00 3.520000000000000000e+02
-3.572416184091959934e+00 3.761107863814677543e+00 3.520000000000000000e+02
-3.784151858242129851e+00 5.159381086147199369e+00 3.520000000000000000e+02
-3.995887532392300212e+00 6.557654308479720306e+00 3.520000000000000000e+02
-1.878530790890601487e+00 -7.425077914845495286e+00 3.530000000000000000e+02
-2.090266465040771404e+00 -6.026804692512973460e+00 3.530000000000000000e+02
-2.302002139190941321e+00 -4.628531470180451635e+00 3.530000000000000000e+02
-2.513737813341110794e+00 -3.230258247847930253e+00 3.530000000000000000e+02
-2.725473487491281155e+00 -1.831985025515408871e+00 3.530000000000000000e+02
-2.937209161641450628e+00 -4.337118031828873788e-01 3.530000000000000000e+02
-3.148944835791620545e+00 9.645614191496343359e-01 3.530000000000000000e+02
-3.360680509941790461e+00 2.362834641482155718e+00 3.530000000000000000e+02
-3.572416184091959934e+00 3.761107863814677543e+00 3.530000000000000000e+02
-3.784151858242129851e+00 5.159381086147199369e+00 3.530000000000000000e+02
-3.995887532392300212e+00 6.557654308479720306e+00 3.530000000000000000e+02
-1.878530790890601487e+00 -7.425077914845495286e+00 3.540000000000000000e+02
-2.090266465040771404e+00 -6.026804692512973460e+00 3.540000000000000000e+02
-2.302002139190941321e+00 -4.628531470180451635e+00 3.540000000000000000e+02
-2.513737813341110794e+00 -3.230258247847930253e+00 3.540000000000000000e+02
-2.725473487491281155e+00 -1.831985025515408871e+00 3.540000000000000000e+02
-2.937209161641450628e+00 -4.337118031828873788e-01 3.540000000000000000e+02
-3.148944835791620545e+00 9.645614191496343359e-01 3.540000000000000000e+02
-3.360680509941790461e+00 2.362834641482155718e+00 3.540000000000000000e+02
-3.572416184091959934e+00 3.761107863814677543e+00 3.540000000000000000e+02
-3.784151858242129851e+00 5.159381086147199369e+00 3.540000000000000000e+02
-3.995887532392300212e+00 6.557654308479720306e+00 3.540000000000000000e+02
-1.285262016799425755e+00 -6.620073466604148749e+00 3.550000000000000000e+02
-1.496997690949595672e+00 -5.221800244271626923e+00 3.550000000000000000e+02
-1.708733365099765367e+00 -3.823527021939105985e+00 3.550000000000000000e+02
-1.920469039249935284e+00 -2.425253799606584604e+00 3.550000000000000000e+02
-2.132204713400104978e+00 -1.026980577274063222e+00 3.550000000000000000e+02
-2.343940387550274895e+00 3.712926450584583815e-01 3.550000000000000000e+02
-2.555676061700444812e+00 1.769565867390979985e+00 3.550000000000000000e+02
-2.767411735850614285e+00 3.167839089723501367e+00 3.550000000000000000e+02
-2.979147410000784202e+00 4.566112312056023192e+00 3.550000000000000000e+02
-3.190883084150954119e+00 5.964385534388544130e+00 3.550000000000000000e+02
-1.285262016799425755e+00 -6.620073466604148749e+00 3.560000000000000000e+02
-1.496997690949595672e+00 -5.221800244271626923e+00 3.560000000000000000e+02
-1.708733365099765367e+00 -3.823527021939105985e+00 3.560000000000000000e+02
-1.920469039249935284e+00 -2.425253799606584604e+00 3.560000000000000000e+02
-2.132204713400104978e+00 -1.026980577274063222e+00 3.560000000000000000e+02
-2.343940387550274895e+00 3.712926450584583815e-01 3.560000000000000000e+02
-2.555676061700444812e+00 1.769565867390979985e+00 3.560000000000000000e+02
-2.767411735850614285e+00 3.167839089723501367e+00 3.560000000000000000e+02
-2.979147410000784202e+00 4.566112312056023192e+00 3.560000000000000000e+02
-3.190883084150954119e+00 5.964385534388544130e+00 3.560000000000000000e+02
-1.285262016799425755e+00 -6.620073466604148749e+00 3.570000000000000000e+02
-1.496997690949595672e+00 -5.221800244271626923e+00 3.570000000000000000e+02
-1.708733365099765367e+00 -3.823527021939105985e+00 3.570000000000000000e+02
-1.920469039249935284e+00 -2.425253799606584604e+00 3.570000000000000000e+02
-2.132204713400104978e+00 -1.026980577274063222e+00 3.570000000000000000e+02
-2.343940387550274895e+00 3.712926450584583815e-01 3.570000000000000000e+02
-2.555676061700444812e+00 1.769565867390979985e+00 3.570000000000000000e+02
-2.767411735850614285e+00 3.167839089723501367e+00 3.570000000000000000e+02
-2.979147410000784202e+00 4.566112312056023192e+00 3.570000000000000000e+02
-3.190883084150954119e+00 5.964385534388544130e+00 3.570000000000000000e+02
-1.285262016799425755e+00 -6.620073466604148749e+00 3.580000000000000000e+02
-1.496997690949595672e+00 -5.221800244271626923e+00 3.580000000000000000e+02
-1.708733365099765367e+00 -3.823527021939105985e+00 3.580000000000000000e+02
-1.920469039249935284e+00 -2.425253799606584604e+00 3.580000000000000000e+02
-2.132204713400104978e+00 -1.026980577274063222e+00 3.580000000000000000e+02
-2.343940387550274895e+00 3.712926450584583815e-01 3.580000000000000000e+02
-2.555676061700444812e+00 1.769565867390979985e+00 3.580000000000000000e+02
-2.767411735850614285e+00 3.167839089723501367e+00 3.580000000000000000e+02
-2.979147410000784202e+00 4.566112312056023192e+00 3.580000000000000000e+02
-3.190883084150954119e+00 5.964385534388544130e+00 3.580000000000000000e+02
-1.285262016799425755e+00 -6.620073466604148749e+00 3.590000000000000000e+02
-1.496997690949595672e+00 -5.221800244271626923e+00 3.590000000000000000e+02
-1.708733365099765367e+00 -3.823527021939105985e+00 3.590000000000000000e+02
-1.920469039249935284e+00 -2.425253799606584604e+00 3.590000000000000000e+02
-2.132204713400104978e+00 -1.026980577274063222e+00 3.590000000000000000e+02
-2.343940387550274895e+00 3.712926450584583815e-01 3.590000000000000000e+02
-2.555676061700444812e+00 1.769565867390979985e+00 3.590000000000000000e+02
-2.767411735850614285e+00 3.167839089723501367e+00 3.590000000000000000e+02
-2.979147410000784202e+00 4.566112312056023192e+00 3.590000000000000000e+02
-3.190883084150954119e+00 5.964385534388544130e+00 3.590000000000000000e+02
-1.878530790890601487e+00 -7.425077914845495286e+00 3.600000000000000000e+02
-2.090266465040771404e+00 -6.026804692512973460e+00 3.600000000000000000e+02
-2.302002139190941321e+00 -4.628531470180451635e+00 3.600000000000000000e+02
-2.513737813341110794e+00 -3.230258247847930253e+00 3.600000000000000000e+02
-2.725473487491281155e+00 -1.831985025515408871e+00 3.600000000000000000e+02
-2.937209161641450628e+00 -4.337118031828873788e-01 3.600000000000000000e+02
-3.148944835791620545e+00 9.645614191496343359e-01 3.600000000000000000e+02
-3.360680509941790461e+00 2.362834641482155718e+00 3.600000000000000000e+02
-3.572416184091959934e+00 3.761107863814677543e+00 3.600000000000000000e+02
-3.784151858242129851e+00 5.159381086147199369e+00 3.600000000000000000e+02
-3.995887532392300212e+00 6.557654308479720306e+00 3.600000000000000000e+02
-1.878530790890601487e+00 -7.425077914845495286e+00 3.610000000000000000e+02
-2.090266465040771404e+00 -6.026804692512973460e+00 3.610000000000000000e+02
-2.302002139190941321e+00 -4.628531470180451635e+00 3.610000000000000000e+02
-2.513737813341110794e+00 -3.230258247847930253e+00 3.610000000000000000e+02
-2.725473487491281155e+00 -1.831985025515408871e+00 3.610000000000000000e+02
-2.937209161641450628e+00 -4.337118031828873788e-01 3.610000000000000000e+02
-3.148944835791620545e+00 9.645614191496343359e-01 3.610000000000000000e+02
-3.360680509941790461e+00 2.362834641482155718e+00 3.610000000000000000e+02
-3.572416184091959934e+00 3.761107863814677543e+00 3.610000000000000000e+02
-3.784151858242129851e+00 5.159381086147199369e+00 3.610000000000000000e+02
-1.878530790890601487e+00 -7.425077914845495286e+00 3.620000000000000000e+02
-2.090266465040771404e+00 -6.026804692512973460e+00 3.620000000000000000e+02
-2.302002139190941321e+00 -4.628531470180451635e+00 3.620000000000000000e+02
-2.513737813341110794e+00 -3.230258247847930253e+00 3.620000000000000000e+02
-2.725473487491281155e+00 -1.831985025515408871e+00 3.620000000000000000e+02
-2.937209161641450628e+00 -4.337118031828873788e-01 3.620000000000000000e+02
-3.148944835791620545e+00 9.645614191496343359e-01 3.620000000000000000e+02
-3.360680509941790461e+00 2.362834641482155718e+00 3.620000000000000000e+02
-3.572416184091959934e+00 3.761107863814677543e+00 3.620000000000000000e+02
-3.784151858242129851e+00 5.159381086147199369e+00 3.620000000000000000e+02
-3.995887532392300212e+00 6.557654308479720306e+00 3.620000000000000000e+02
-1.878530790890601487e+00 -7.425077914845495286e+00 3.630000000000000000e+02
-2.090266465040771404e+00 -6.026804692512973460e+00 3.630000000000000000e+02
-2.302002139190941321e+00 -4.628531470180451635e+00 3.630000000000000000e+02
-2.513737813341110794e+00 -3.230258247847930253e+00 3.630000000000000000e+02
-2.725473487491281155e+00 -1.831985025515408871e+00 3.630000000000000000e+02
-2.937209161641450628e+00 -4.337118031828873788e-01 3.630000000000000000e+02
-3.148944835791620545e+00 9.645614191496343359e-01 3.630000000000000000e+02
-3.360680509941790461e+00 2.362834641482155718e+00 3.630000000000000000e+02
-3.572416184091959934e+00 3.761107863814677543e+00 3.630000000000000000e+02
-3.784151858242129851e+00 5.159381086147199369e+00 3.630000000000000000e+02
-3.995887532392300212e+00 6.557654308479720306e+00 3.630000000000000000e+02
-1.878530790890601487e+00 -7.425077914845495286e+00 3.640000000000000000e+02
-2.090266465040771404e+00 -6.026804692512973460e+00 3.640000000000000000e+02
-2.302002139190941321e+00 -4.628531470180451635e+00 3.640000000000000000e+02
-2.513737813341110794e+00 -3.230258247847930253e+00 3.640000000000000000e+02
-2.725473487491281155e+00 -1.831985025515408871e+00 3.640000000000000000e+02
-2.937209161641450628e+00 -4.337118031828873788e-01 3.640000000000000000e+02
-3.148944835791620545e+00 9.645614191496343359e-01 3.640000000000000000e+02
-3.360680509941790461e+00 2.362834641482155718e+00 3.640000000000000000e+02
-3.572416184091959934e+00 3.761107863814677543e+00 3.640000000000000000e+02
-3.784151858242129851e+00 5.159381086147199369e+00 3.640000000000000000e+02
-3.995887532392300212e+00 6.557654308479720306e+00 3.640000000000000000e+02
-1.285262016799425755e+00 -6.620073466604148749e+00 3.650000000000000000e+02
-1.496997690949595672e+00 -5.221800244271626923e+00 3.650000000000000000e+02
-1.708733365099765367e+00 -3.823527021939105985e+00 3.650000000000000000e+02
-1.920469039249935284e+00 -2.425253799606584604e+00 3.650000000000000000e+02
-2.132204713400104978e+00 -1.026980577274063222e+00 3.650000000000000000e+02
-2.343940387550274895e+00 3.712926450584583815e-01 3.650000000000000000e+02
-2.555676061700444812e+00 1.769565867390979985e+00 3.650000000000000000e+02
-2.767411735850614285e+00 3.167839089723501367e+00 3.650000000000000000e+02
-2.979147410000784202e+00 4.566112312056023192e+00 3.650000000000000000e+02
-3.190883084150954119e+00 5.964385534388544130e+00 3.650000000000000000e+02
-1.285262016799425755e+00 -6.620073466604148749e+00 3.660000000000000000e+02
-1.496997690949595672e+00 -5.221800244271626923e+00 3.660000000000000000e+02
-1.708733365099765367e+00 -3.823527021939105985e+00 3.660000000000000000e+02
-1.920469039249935284e+00 -2.425253799606584604e+00 3.660000000000000000e+02
-2.132204713400104978e+00 -1.026980577274063222e+00 3.660000000000000000e+02
-2.343940387550274895e+00 3.712926450584583815e-01 3.660000000000000000e+02
-2.555676061700444812e+00 1.769565867390979985e+00 3.660000000000000000e+02
-2.767411735850614285e+00 3.167839089723501367e+00 3.660000000000000000e+02
-2.979147410000784202e+00 4.566112312056023192e+00 3.660000000000000000e+02
-3.190883084150954119e+00 5.964385534388544130e+00 3.660000000000000000e+02
-1.285262016799425755e+00 -6.620073466604148749e+00 3.670000000000000000e+02
-1.496997690949595672e+00 -5.221800244271626923e+00 3.670000000000000000e+02
-1.708733365099765367e+00 -3.823527021939105985e+00 3.670000000000000000e+02
-1.920469039249935284e+00 -2.425253799606584604e+00 3.670000000000000000e+02
-2.132204713400104978e+00 -1.026980577274063222e+00 3.670000000000000000e+02
-2.343940387550274895e+00 3.712926450584583815e-01 3.670000000000000000e+02
-2.555676061700444812e+00 1.769565867390979985e+00 3.670000000000000000e+02
-2.767411735850614285e+00 3.167839089723501367e+00 3.670000000000000000e+02
-2.979147410000784202e+00 4.566112312056023192e+00 3.670000000000000000e+02
-3.190883084150954119e+00 5.964385534388544130e+00 3.670000000000000000e+02
-1.285262016799425755e+00 -6.620073466604148749e+00 3.680000000000000000e+02
-1.496997690949595672e+00 -5.221800244271626923e+00 3.680000000000000000e+02
-1.708733365099765367e+00 -3.823527021939105985e+00 3.680000000000000000e+02
-1.920469039249935284e+00 -2.425253799606584604e+00 3.680000000000000000e+02
-2.132204713400104978e+00 -1.026980577274063222e+00 3.680000000000000000e+02
-2.343940387550274895e+00 3.712926450584583815e-01 3.680000000000000000e+02
-2.555676061700444812e+00 1.769565867390979985e+00 3.680000000000000000e+02
-2.767411735850614285e+00 3.167839089723501367e+00 3.680000000000000000e+02
-2.979147410000784202e+00 4.566112312056023192e+00 3.680000000000000000e+02
-3.190883084150954119e+00 5.964385534388544130e+00 3.680000000000000000e+02
-1.285262016799425755e+00 -6.620073466604148749e+00 3.690000000000000000e+02
-1.496997690949595672e+00 -5.221800244271626923e+00 3.690000000000000000e+02
-1.708733365099765367e+00 -3.823527021939105985e+00 3.690000000000000000e+02
-1.920469039249935284e+00 -2.425253799606584604e+00 3.690000000000000000e+02
-2.132204713400104978e+00 -1.026980577274063222e+00 3.690000000000000000e+02
-2.343940387550274895e+00 3.712926450584583815e-01 3.690000000000000000e+02
-2.555676061700444812e+00 1.769565867390979985e+00 3.690000000000000000e+02
-2.767411735850614285e+00 3.167839089723501367e+00 3.690000000000000000e+02
-2.979147410000784202e+00 4.566112312056023192e+00 3.690000000000000000e+02
-3.190883084150954119e+00 5.964385534388544130e+00 3.690000000000000000e+02
-1.285262016799425755e+00 -6.620073466604148749e+00 3.700000000000000000e+02
-1.496997690949595672e+00 -5.221800244271626923e+00 3.700000000000000000e+02
-1.708733365099765367e+00 -3.823527021939105985e+00 3.700000000000000000e+02
-1.920469039249935284e+00 -2.425253799606584604e+00 3.700000000000000000e+02
-2.132204713400104978e+00 -1.026980577274063222e+00 3.700000000000000000e+02
-2.343940387550274895e+00 3.712926450584583815e-01 3.700000000000000000e+02
-2.555676061700444812e+00 1.769565867390979985e+00 3.700000000000000000e+02
-2.767411735850614285e+00 3.167839089723501367e+00 3.700000000000000000e+02
-2.979147410000784202e+00 4.566112312056023192e+00 3.700000000000000000e+02
-3.190883084150954119e+00 5.964385534388544130e+00 3.700000000000000000e+02
-1.285262016799425755e+00 -6.620073466604148749e+00 3.710000000000000000e+02
-1.496997690949595672e+00 -5.221800244271626923e+00 3.710000000000000000e+02
-1.708733365099765367e+00 -3.823527021939105985e+00 3.710000000000000000e+02
-1.920469039249935284e+00 -2.425253799606584604e+00 3.710000000000000000e+02
-2.132204713400104978e+00 -1.026980577274063222e+00 3.710000000000000000e+02
-2.343940387550274895e+00 3.712926450584583815e-01 3.710000000000000000e+02
-2.555676061700444812e+00 1.769565867390979985e+00 3.710000000000000000e+02
-2.767411735850614285e+00 3.167839089723501367e+00 3.710000000000000000e+02
-2.979147410000784202e+00 4.566112312056023192e+00 3.710000000000000000e+02
-3.190883084150954119e+00 5.964385534388544130e+00 3.710000000000000000e+02
-1.285262016799425755e+00 -6.620073466604148749e+00 3.720000000000000000e+02
-1.496997690949595672e+00 -5.221800244271626923e+00 3.720000000000000000e+02
-1.708733365099765367e+00 -3.823527021939105985e+00 3.720000000000000000e+02
-1.920469039249935284e+00 -2.425253799606584604e+00 3.720000000000000000e+02
-2.132204713400104978e+00 -1.026980577274063222e+00 3.720000000000000000e+02
-2.343940387550274895e+00 3.712926450584583815e-01 3.720000000000000000e+02
-2.555676061700444812e+00 1.769565867390979985e+00 3.720000000000000000e+02
-2.767411735850614285e+00 3.167839089723501367e+00 3.720000000000000000e+02
-2.979147410000784202e+00 4.566112312056023192e+00 3.720000000000000000e+02
-3.190883084150954119e+00 5.964385534388544130e+00 3.720000000000000000e+02
-1.285262016799425755e+00 -6.620073466604148749e+00 3.730000000000000000e+02
-1.496997690949595672e+00 -5.221800244271626923e+00 3.730000000000000000e+02
-1.708733365099765367e+00 -3.823527021939105985e+00 3.730000000000000000e+02
-1.920469039249935284e+00 -2.425253799606584604e+00 3.730000000000000000e+02
-2.132204713400104978e+00 -1.026980577274063222e+00 3.730000000000000000e+02
-2.343940387550274895e+00 3.712926450584583815e-01 3.730000000000000000e+02
-2.555676061700444812e+00 1.769565867390979985e+00 3.730000000000000000e+02
-2.767411735850614285e+00 3.167839089723501367e+00 3.730000000000000000e+02
-2.979147410000784202e+00 4.566112312056023192e+00 3.730000000000000000e+02
-3.190883084150954119e+00 5.964385534388544130e+00 3.730000000000000000e+02
-1.878530790890601487e+00 -7.425077914845495286e+00 3.740000000000000000e+02
-2.090266465040771404e+00 -6.026804692512973460e+00 3.740000000000000000e+02
-2.302002139190941321e+00 -4.628531470180451635e+00 3.740000000000000000e+02
-2.513737813341110794e+00 -3.230258247847930253e+00 3.740000000000000000e+02
-2.725473487491281155e+00 -1.831985025515408871e+00 3.740000000000000000e+02
-2.937209161641450628e+00 -4.337118031828873788e-01 3.740000000000000000e+02
-3.148944835791620545e+00 9.645614191496343359e-01 3.740000000000000000e+02
-3.360680509941790461e+00 2.362834641482155718e+00 3.740000000000000000e+02
-3.572416184091959934e+00 3.761107863814677543e+00 3.740000000000000000e+02
-3.784151858242129851e+00 5.159381086147199369e+00 3.740000000000000000e+02
-3.995887532392300212e+00 6.557654308479720306e+00 3.740000000000000000e+02
-1.878530790890601487e+00 -7.425077914845495286e+00 3.750000000000000000e+02
-2.090266465040771404e+00 -6.026804692512973460e+00 3.750000000000000000e+02
-2.302002139190941321e+00 -4.628531470180451635e+00 3.750000000000000000e+02
-2.513737813341110794e+00 -3.230258247847930253e+00 3.750000000000000000e+02
-2.725473487491281155e+00 -1.831985025515408871e+00 3.750000000000000000e+02
-2.937209161641450628e+00 -4.337118031828873788e-01 3.750000000000000000e+02
-3.148944835791620545e+00 9.645614191496343359e-01 3.750000000000000000e+02
-3.360680509941790461e+00 2.362834641482155718e+00 3.750000000000000000e+02
-3.572416184091959934e+00 3.761107863814677543e+00 3.750000000000000000e+02
-3.784151858242129851e+00 5.159381086147199369e+00 3.750000000000000000e+02
-3.995887532392300212e+00 6.557654308479720306e+00 3.750000000000000000e+02
-1.878530790890601487e+00 -7.425077914845495286e+00 3.760000000000000000e+02
-2.090266465040771404e+00 -6.026804692512973460e+00 3.760000000000000000e+02
-2.302002139190941321e+00 -4.628531470180451635e+00 3.760000000000000000e+02
-2.513737813341110794e+00 -3.230258247847930253e+00 3.760000000000000000e+02
-2.725473487491281155e+00 -1.831985025515408871e+00 3.760000000000000000e+02
-2.937209161641450628e+00 -4.337118031828873788e-01 3.760000000000000000e+02
-3.148944835791620545e+00 9.645614191496343359e-01 3.760000000000000000e+02
-3.360680509941790461e+00 2.362834641482155718e+00 3.760000000000000000e+02
-3.572416184091959934e+00 3.761107863814677543e+00 3.760000000000000000e+02
-3.784151858242129851e+00 5.159381086147199369e+00 3.760000000000000000e+02
-1.285262016799425755e+00 -6.620073466604148749e+00 3.770000000000000000e+02
-1.496997690949595672e+00 -5.221800244271626923e+00 3.770000000000000000e+02
-1.708733365099765367e+00 -3.823527021939105985e+00 3.770000000000000000e+02
-1.920469039249935284e+00 -2.425253799606584604e+00 3.770000000000000000e+02
-2.132204713400104978e+00 -1.026980577274063222e+00 3.770000000000000000e+02
-2.343940387550274895e+00 3.712926450584583815e-01 3.770000000000000000e+02
-2.555676061700444812e+00 1.769565867390979985e+00 3.770000000000000000e+02
-2.767411735850614285e+00 3.167839089723501367e+00 3.770000000000000000e+02
-2.979147410000784202e+00 4.566112312056023192e+00 3.770000000000000000e+02
-1.285262016799425755e+00 -6.620073466604148749e+00 3.780000000000000000e+02
-1.496997690949595672e+00 -5.221800244271626923e+00 3.780000000000000000e+02
-1.708733365099765367e+00 -3.823527021939105985e+00 3.780000000000000000e+02
-1.920469039249935284e+00 -2.425253799606584604e+00 3.780000000000000000e+02
-2.132204713400104978e+00 -1.026980577274063222e+00 3.780000000000000000e+02
-2.343940387550274895e+00 3.712926450584583815e-01 3.780000000000000000e+02
-2.555676061700444812e+00 1.769565867390979985e+00 3.780000000000000000e+02
-2.767411735850614285e+00 3.167839089723501367e+00 3.780000000000000000e+02
-2.979147410000784202e+00 4.566112312056023192e+00 3.780000000000000000e+02
-3.190883084150954119e+00 5.964385534388544130e+00 3.780000000000000000e+02
-1.285262016799425755e+00 -6.620073466604148749e+00 3.790000000000000000e+02
-1.496997690949595672e+00 -5.221800244271626923e+00 3.790000000000000000e+02
-1.708733365099765367e+00 -3.823527021939105985e+00 3.790000000000000000e+02
-1.920469039249935284e+00 -2.425253799606584604e+00 3.790000000000000000e+02
-2.132204713400104978e+00 -1.026980577274063222e+00 3.790000000000000000e+02
-2.343940387550274895e+00 3.712926450584583815e-01 3.790000000000000000e+02
-2.555676061700444812e+00 1.769565867390979985e+00 3.790000000000000000e+02
-2.767411735850614285e+00 3.167839089723501367e+00 3.790000000000000000e+02
-2.979147410000784202e+00 4.566112312056023192e+00 3.790000000000000000e+02
-3.190883084150954119e+00 5.964385534388544130e+00 3.790000000000000000e+02
-1.878530790890601487e+00 -7.425077914845495286e+00 3.800000000000000000e+02
-2.090266465040771404e+00 -6.026804692512973460e+00 3.800000000000000000e+02
-2.302002139190941321e+00 -4.628531470180451635e+00 3.800000000000000000e+02
-2.513737813341110794e+00 -3.230258247847930253e+00 3.800000000000000000e+02
-2.725473487491281155e+00 -1.831985025515408871e+00 3.800000000000000000e+02
-2.937209161641450628e+00 -4.337118031828873788e-01 3.800000000000000000e+02
-3.148944835791620545e+00 9.645614191496343359e-01 3.800000000000000000e+02
-3.360680509941790461e+00 2.362834641482155718e+00 3.800000000000000000e+02
-3.572416184091959934e+00 3.761107863814677543e+00 3.800000000000000000e+02
-3.784151858242129851e+00 5.159381086147199369e+00 3.800000000000000000e+02
-3.995887532392300212e+00 6.557654308479720306e+00 3.800000000000000000e+02
-1.878530790890601487e+00 -7.425077914845495286e+00 3.810000000000000000e+02
-2.090266465040771404e+00 -6.026804692512973460e+00 3.810000000000000000e+02
-2.302002139190941321e+00 -4.628531470180451635e+00 3.810000000000000000e+02
-2.513737813341110794e+00 -3.230258247847930253e+00 3.810000000000000000e+02
-2.725473487491281155e+00 -1.831985025515408871e+00 3.810000000000000000e+02
-2.937209161641450628e+00 -4.337118031828873788e-01 3.810000000000000000e+02
-3.148944835791620545e+00 9.645614191496343359e-01 3.810000000000000000e+02
-3.360680509941790461e+00 2.362834641482155718e+00 3.810000000000000000e+02
-3.572416184091959934e+00 3.761107863814677543e+00 3.810000000000000000e+02
-3.784151858242129851e+00 5.159381086147199369e+00 3.810000000000000000e+02
-3.995887532392300212e+00 6.557654308479720306e+00 3.810000000000000000e+02
-1.878530790890601487e+00 -7.425077914845495286e+00 3.820000000000000000e+02
-2.090266465040771404e+00 -6.026804692512973460e+00 3.820000000000000000e+02
-2.302002139190941321e+00 -4.628531470180451635e+00 3.820000000000000000e+02
-2.513737813341110794e+00 -3.230258247847930253e+00 3.820000000000000000e+02
-2.725473487491281155e+00 -1.831985025515408871e+00 3.820000000000000000e+02
-2.937209161641450628e+00 -4.337118031828873788e-01 3.820000000000000000e+02
-3.148944835791620545e+00 9.645614191496343359e-01 3.820000000000000000e+02
-3.360680509941790461e+00 2.362834641482155718e+00 3.820000000000000000e+02
-3.572416184091959934e+00 3.761107863814677543e+00 3.820000000000000000e+02
-3.784151858242129851e+00 5.159381086147199369e+00 3.820000000000000000e+02
-3.995887532392300212e+00 6.557654308479720306e+00 3.820000000000000000e+02
-1.878530790890601487e+00 -7.425077914845495286e+00 3.830000000000000000e+02
-2.090266465040771404e+00 -6.026804692512973460e+00 3.830000000000000000e+02
-2.302002139190941321e+00 -4.628531470180451635e+00 3.830000000000000000e+02
-2.513737813341110794e+00 -3.230258247847930253e+00 3.830000000000000000e+02
-2.725473487491281155e+00 -1.831985025515408871e+00 3.830000000000000000e+02
-2.937209161641450628e+00 -4.337118031828873788e-01 3.830000000000000000e+02
-3.148944835791620545e+00 9.645614191496343359e-01 3.830000000000000000e+02
-3.360680509941790461e+00 2.362834641482155718e+00 3.830000000000000000e+02
-3.572416184091959934e+00 3.761107863814677543e+00 3.830000000000000000e+02
-3.784151858242129851e+00 5.159381086147199369e+00 3.830000000000000000e+02
-3.995887532392300212e+00 6.557654308479720306e+00 3.830000000000000000e+02
-1.285262016799425755e+00 -6.620073466604148749e+00 3.840000000000000000e+02
-1.496997690949595672e+00 -5.221800244271626923e+00 3.840000000000000000e+02
-1.708733365099765367e+00 -3.823527021939105985e+00 3.840000000000000000e+02
-1.920469039249935284e+00 -2.425253799606584604e+00 3.840000000000000000e+02
-2.132204713400104978e+00 -1.026980577274063222e+00 3.840000000000000000e+02
-2.343940387550274895e+00 3.712926450584583815e-01 3.840000000000000000e+02
-2.555676061700444812e+00 1.769565867390979985e+00 3.840000000000000000e+02
-2.767411735850614285e+00 3.167839089723501367e+00 3.840000000000000000e+02
-2.979147410000784202e+00 4.566112312056023192e+00 3.840000000000000000e+02
-3.190883084150954119e+00 5.964385534388544130e+00 3.840000000000000000e+02
-1.285262016799425755e+00 -6.620073466604148749e+00 3.850000000000000000e+02
-1.496997690949595672e+00 -5.221800244271626923e+00 3.850000000000000000e+02
-1.708733365099765367e+00 -3.823527021939105985e+00 3.850000000000000000e+02
-1.920469039249935284e+00 -2.425253799606584604e+00 3.850000000000000000e+02
-2.132204713400104978e+00 -1.026980577274063222e+00 3.850000000000000000e+02
-2.343940387550274895e+00 3.712926450584583815e-01 3.850000000000000000e+02
-2.555676061700444812e+00 1.769565867390979985e+00 3.850000000000000000e+02
-2.767411735850614285e+00 3.167839089723501367e+00 3.850000000000000000e+02
-2.979147410000784202e+00 4.566112312056023192e+00 3.850000000000000000e+02
-1.285262016799425755e+00 -6.620073466604148749e+00 3.860000000000000000e+02
-1.496997690949595672e+00 -5.221800244271626923e+00 3.860000000000000000e+02
-1.708733365099765367e+00 -3.823527021939105985e+00 3.860000000000000000e+02
-1.920469039249935284e+00 -2.425253799606584604e+00 3.860000000000000000e+02
-2.132204713400104978e+00 -1.026980577274063222e+00 3.860000000000000000e+02
-2.343940387550274895e+00 3.712926450584583815e-01 3.860000000000000000e+02
-2.555676061700444812e+00 1.769565867390979985e+00 3.860000000000000000e+02
-2.767411735850614285e+00 3.167839089723501367e+00 3.860000000000000000e+02
-2.979147410000784202e+00 4.566112312056023192e+00 3.860000000000000000e+02
-1.285262016799425755e+00 -6.620073466604148749e+00 3.870000000000000000e+02
-1.496997690949595672e+00 -5.221800244271626923e+00 3.870000000000000000e+02
-1.708733365099765367e+00 -3.823527021939105985e+00 3.870000000000000000e+02
-1.920469039249935284e+00 -2.425253799606584604e+00 3.870000000000000000e+02
-2.132204713400104978e+00 -1.026980577274063222e+00 3.870000000000000000e+02
-2.343940387550274895e+00 3.712926450584583815e-01 3.870000000000000000e+02
-2.555676061700444812e+00 1.769565867390979985e+00 3.870000000000000000e+02
-2.767411735850614285e+00 3.167839089723501367e+00 3.870000000000000000e+02
