3.117041567737747432e+00 5.236283315901687274e+01 3.520000000000000000e+02
4.058532371798460048e+00 6.578347379446601906e+01 3.530000000000000000e+02
4.033849031236557359e+00 6.436947565702075735e+01 3.530000000000000000e+02
4.009165690674654670e+00 6.295547751957547433e+01 3.530000000000000000e+02
3.984482350112751980e+00 6.154147938213020552e+01 3.530000000000000000e+02
3.959799009550849291e+00 6.012748124468492961e+01 3.530000000000000000e+02
3.935115668988946158e+00 5.871348310723965369e+01 3.530000000000000000e+02
3.910432328427043913e+00 5.729948496979437778e+01 3.530000000000000000e+02
3.885748987865141224e+00 5.588548683234910186e+01 3.530000000000000000e+02
3.861065647303238535e+00 5.447148869490383305e+01 3.530000000000000000e+02
3.836382306741335402e+00 5.305749055745855713e+01 3.530000000000000000e+02
3.811698966179433157e+00 5.164349242001328122e+01 3.530000000000000000e+02
4.058532371798460048e+00 6.578347379446601906e+01 3.540000000000000000e+02
4.033849031236557359e+00 6.436947565702075735e+01 3.540000000000000000e+02
4.009165690674654670e+00 6.295547751957547433e+01 3.540000000000000000e+02
3.984482350112751980e+00 6.154147938213020552e+01 3.540000000000000000e+02
3.959799009550849291e+00 6.012748124468492961e+01 3.540000000000000000e+02
3.935115668988946158e+00 5.871348310723965369e+01 3.540000000000000000e+02
3.910432328427043913e+00 5.729948496979437778e+01 3.540000000000000000e+02
3.885748987865141224e+00 5.588548683234910186e+01 3.540000000000000000e+02
3.861065647303238535e+00 5.447148869490383305e+01 3.540000000000000000e+02
3.836382306741335402e+00 5.305749055745855713e+01 3.540000000000000000e+02
3.811698966179433157e+00 5.164349242001328122e+01 3.540000000000000000e+02
4.058532371798460048e+00 6.578347379446601906e+01 3.550000000000000000e+02
4.033849031236557359e+00 6.436947565702075735e+01 3.550000000000000000e+02
4.009165690674654670e+00 6.295547751957547433e+01 3.550000000000000000e+02
3.984482350112751980e+00 6.154147938213020552e+01 3.550000000000000000e+02
3.959799009550849291e+00 6.012748124468492961e+01 3.550000000000000000e+02
3.935115668988946158e+00 5.871348310723965369e+01 3.550000000000000000e+02
3.910432328427043913e+00 5.729948496979437778e+01 3.550000000000000000e+02
3.885748987865141224e+00 5.588548683234910186e+01 3.550000000000000000e+02
3.861065647303238535e+00 5.447148869490383305e+01 3.550000000000000000e+02
3.836382306741335402e+00 5.305749055745855713e+01 3.550000000000000000e+02
3.811698966179433157e+00 5.164349242001328122e+01 3.550000000000000000e+02
3.339191632794871190e+00 6.508881639602434177e+01 3.560000000000000000e+02
3.314508292232968500e+00 6.367481825857906585e+01 3.560000000000000000e+02
3.289824951671065811e+00 6.226082012113378994e+01 3.560000000000000000e+02
3.265141611109163122e+00 6.084682198368851402e+01 3.560000000000000000e+02
3.240458270547260433e+00 5.943282384624324521e+01 3.560000000000000000e+02
3.215774929985357744e+00 5.801882570879796930e+01 3.560000000000000000e+02
3.191091589423455055e+00 5.660482757135269338e+01 3.560000000000000000e+02
3.166408248861552366e+00 5.519082943390741747e+01 3.560000000000000000e+02
3.141724908299649677e+00 5.377683129646214155e+01 3.560000000000000000e+02
3.117041567737747432e+00 5.236283315901687274e+01 3.560000000000000000e+02
4.058532371798460048e+00 6.578347379446601906e+01 3.570000000000000000e+02
4.033849031236557359e+00 6.436947565702075735e+01 3.570000000000000000e+02
4.009165690674654670e+00 6.295547751957547433e+01 3.570000000000000000e+02
3.984482350112751980e+00 6.154147938213020552e+01 3.570000000000000000e+02
3.959799009550849291e+00 6.012748124468492961e+01 3.570000000000000000e+02
3.935115668988946158e+00 5.871348310723965369e+01 3.570000000000000000e+02
3.910432328427043913e+00 5.729948496979437778e+01 3.570000000000000000e+02
3.885748987865141224e+00 5.588548683234910186e+01 3.570000000000000000e+02
3.861065647303238535e+00 5.447148869490383305e+01 3.570000000000000000e+02
3.836382306741335402e+00 5.305749055745855713e+01 3.570000000000000000e+02
3.811698966179433157e+00 5.164349242001328122e+01 3.570000000000000000e+02
4.058532371798460048e+00 6.578347379446601906e+01 3.580000000000000000e+02
4.033849031236557359e+00 6.436947565702075735e+01 3.580000000000000000e+02
4.009165690674654670e+00 6.295547751957547433e+01 3.580000000000000000e+02
3.984482350112751980e+00 6.154147938213020552e+01 3.580000000000000000e+02
3.959799009550849291e+00 6.012748124468492961e+01 3.580000000000000000e+02
3.935115668988946158e+00 5.871348310723965369e+01 3.580000000000000000e+02
3.910432328427043913e+00 5.729948496979437778e+01 3.580000000000000000e+02
3.885748987865141224e+00 5.588548683234910186e+01 3.580000000000000000e+02
3.861065647303238535e+00 5.447148869490383305e+01 3.580000000000000000e+02
3.836382306741335402e+00 5.305749055745855713e+01 3.580000000000000000e+02
3.811698966179433157e+00 5.164349242001328122e+01 3.580000000000000000e+02
4.058532371798460048e+00 6.578347379446601906e+01 3.590000000000000000e+02
4.033849031236557359e+00 6.436947565702075735e+01 3.590000000000000000e+02
4.009165690674654670e+00 6.295547751957547433e+01 3.590000000000000000e+02
3.984482350112751980e+00 6.154147938213020552e+01 3.590000000000000000e+02
3.959799009550849291e+00 6.012748124468492961e+01 3.590000000000000000e+02
3.935115668988946158e+00 5.871348310723965369e+01 3.590000000000000000e+02
3.910432328427043913e+00 5.729948496979437778e+01 3.590000000000000000e+02
3.885748987865141224e+00 5.588548683234910186e+01 3.590000000000000000e+02
3.861065647303238535e+00 5.447148869490383305e+01 3.590000000000000000e+02
3.836382306741335402e+00 5.305749055745855713e+01 3.590000000000000000e+02
3.811698966179433157e+00 5.164349242001328122e+01 3.590000000000000000e+02
4.058532371798460048e+00 6.578347379446601906e+01 3.600000000000000000e+02
4.033849031236557359e+00 6.436947565702075735e+01 3.600000000000000000e+02
4.009165690674654670e+00 6.295547751957547433e+01 3.600000000000000000e+02
3.984482350112751980e+00 6.154147938213020552e+01 3.600000000000000000e+02
3.959799009550849291e+00 6.012748124468492961e+01 3.600000000000000000e+02
3.935115668988946158e+00 5.871348310723965369e+01 3.600000000000000000e+02
3.910432328427043913e+00 5.729948496979437778e+01 3.600000000000000000e+02
3.885748987865141224e+00 5.588548683234910186e+01 3.600000000000000000e+02
3.861065647303238535e+00 5.447148869490383305e+01 3.600000000000000000e+02
3.836382306741335402e+00 5.305749055745855713e+01 3.600000000000000000e+02
3.811698966179433157e+00 5.164349242001328122e+01 3.600000000000000000e+02
4.058532371798460048e+00 6.578347379446601906e+01 3.610000000000000000e+02
4.033849031236557359e+00 6.436947565702075735e+01 3.610000000000000000e+02
4.009165690674654670e+00 6.295547751957547433e+01 3.610000000000000000e+02
3.984482350112751980e+00 6.154147938213020552e+01 3.610000000000000000e+02
3.959799009550849291e+00 6.012748124468492961e+01 3.610000000000000000e+02
3.935115668988946158e+00 5.871348310723965369e+01 3.610000000000000000e+02
3.910432328427043913e+00 5.729948496979437778e+01 3.610000000000000000e+02
3.885748987865141224e+00 5.588548683234910186e+01 3.610000000000000000e+02
3.861065647303238535e+00 5.447148869490383305e+01 3.610000000000000000e+02
3.836382306741335402e+00 5.305749055745855713e+01 3.610000000000000000e+02
3.811698966179433157e+00 5.164349242001328122e+01 3.610000000000000000e+02
4.058532371798460048e+00 6.578347379446601906e+01 3.620000000000000000e+02
4.033849031236557359e+00 6.436947565702075735e+01 3.620000000000000000e+02
4.009165690674654670e+00 6.295547751957547433e+01 3.620000000000000000e+02
3.984482350112751980e+00 6.154147938213020552e+01 3.620000000000000000e+02
3.959799009550849291e+00 6.012748124468492961e+01 3.620000000000000000e+02
3.935115668988946158e+00 5.871348310723965369e+01 3.620000000000000000e+02
3.910432328427043913e+00 5.729948496979437778e+01 3.620000000000000000e+02
3.885748987865141224e+00 5.588548683234910186e+01 3.620000000000000000e+02
3.861065647303238535e+00 5.447148869490383305e+01 3.620000000000000000e+02
3.836382306741335402e+00 5.305749055745855713e+01 3.620000000000000000e+02
3.811698966179433157e+00 5.164349242001328122e+01 3.620000000000000000e+02
4.058532371798460048e+00 6.578347379446601906e+01 3.630000000000000000e+02
4.033849031236557359e+00 6.436947565702075735e+01 3.630000000000000000e+02
4.009165690674654670e+00 6.295547751957547433e+01 3.630000000000000000e+02
3.984482350112751980e+00 6.154147938213020552e+01 3.630000000000000000e+02
3.959799009550849291e+00 6.012748124468492961e+01 3.630000000000000000e+02
3.935115668988946158e+00 5.871348310723965369e+01 3.630000000000000000e+02
3.910432328427043913e+00 5.729948496979437778e+01 3.630000000000000000e+02
3.885748987865141224e+00 5.588548683234910186e+01 3.630000000000000000e+02
3.861065647303238535e+00 5.447148869490383305e+01 3.630000000000000000e+02
3.836382306741335402e+00 5.305749055745855713e+01 3.630000000000000000e+02
3.811698966179433157e+00 5.164349242001328122e+01 3.630000000000000000e+02
3.339191632794871190e+00 6.508881639602434177e+01 3.640000000000000000e+02
3.314508292232968500e+00 6.367481825857906585e+01 3.640000000000000000e+02
3.289824951671065811e+00 6.226082012113378994e+01 3.640000000000000000e+02
3.265141611109163122e+00 6.084682198368851402e+01 3.640000000000000000e+02
3.240458270547260433e+00 5.943282384624324521e+01 3.640000000000000000e+02
3.215774929985357744e+00 5.801882570879796930e+01 3.640000000000000000e+02
3.191091589423455055e+00 5.660482757135269338e+01 3.640000000000000000e+02
3.166408248861552366e+00 5.519082943390741747e+01 3.640000000000000000e+02
3.141724908299649677e+00 5.377683129646214155e+01 3.640000000000000000e+02
4.058532371798460048e+00 6.578347379446601906e+01 3.650000000000000000e+02
4.033849031236557359e+00 6.436947565702075735e+01 3.650000000000000000e+02
4.009165690674654670e+00 6.295547751957547433e+01 3.650000000000000000e+02
3.984482350112751980e+00 6.154147938213020552e+01 3.650000000000000000e+02
3.959799009550849291e+00 6.012748124468492961e+01 3.650000000000000000e+02
3.935115668988946158e+00 5.871348310723965369e+01 3.650000000000000000e+02
3.910432328427043913e+00 5.729948496979437778e+01 3.650000000000000000e+02
3.885748987865141224e+00 5.588548683234910186e+01 3.650000000000000000e+02
3.861065647303238535e+00 5.447148869490383305e+01 3.650000000000000000e+02
3.836382306741335402e+00 5.305749055745855713e+01 3.650000000000000000e+02
4.058532371798460048e+00 6.578347379446601906e+01 3.660000000000000000e+02
4.033849031236557359e+00 6.436947565702075735e+01 3.660000000000000000e+02
4.009165690674654670e+00 6.295547751957547433e+01 3.660000000000000000e+02
3.984482350112751980e+00 6.154147938213020552e+01 3.660000000000000000e+02
3.959799009550849291e+00 6.012748124468492961e+01 3.660000000000000000e+02
3.935115668988946158e+00 5.871348310723965369e+01 3.660000000000000000e+02
3.910432328427043913e+00 5.729948496979437778e+01 3.660000000000000000e+02
3.885748987865141224e+00 5.588548683234910186e+01 3.660000000000000000e+02
3.861065647303238535e+00 5.447148869490383305e+01 3.660000000000000000e+02
3.836382306741335402e+00 5.305749055745855713e+01 3.660000000000000000e+02
4.058532371798460048e+00 6.578347379446601906e+01 3.670000000000000000e+02
4.033849031236557359e+00 6.436947565702075735e+01 3.670000000000000000e+02
4.009165690674654670e+00 6.295547751957547433e+01 3.670000000000000000e+02
3.984482350112751980e+00 6.154147938213020552e+01 3.670000000000000000e+02
3.959799009550849291e+00 6.012748124468492961e+01 3.670000000000000000e+02
3.935115668988946158e+00 5.871348310723965369e+01 3.670000000000000000e+02
3.910432328427043913e+00 5.729948496979437778e+01 3.670000000000000000e+02
3.885748987865141224e+00 5.588548683234910186e+01 3.670000000000000000e+02
3.861065647303238535e+00 5.447148869490383305e+01 3.670000000000000000e+02
3.836382306741335402e+00 5.305749055745855713e+01 3.670000000000000000e+02
4.058532371798460048e+00 6.578347379446601906e+01 3.680000000000000000e+02
4.033849031236557359e+00 6.436947565702075735e+01 3.680000000000000000e+02
4.009165690674654670e+00 6.295547751957547433e+01 3.680000000000000000e+02
3.984482350112751980e+00 6.154147938213020552e+01 3.680000000000000000e+02
3.959799009550849291e+00 6.012748124468492961e+01 3.680000000000000000e+02
3.935115668988946158e+00 5.871348310723965369e+01 3.680000000000000000e+02
3.910432328427043913e+00 5.729948496979437778e+01 3.680000000000000000e+02
3.885748987865141224e+00 5.588548683234910186e+01 3.680000000000000000e+02
3.861065647303238535e+00 5.447148869490383305e+01 3.680000000000000000e+02
3.836382306741335402e+00 5.305749055745855713e+01 3.680000000000000000e+02
3.811698966179433157e+00 5.164349242001328122e+01 3.680000000000000000e+02
4.058532371798460048e+00 6.578347379446601906e+01 3.690000000000000000e+02
4.033849031236557359e+00 6.436947565702075735e+01 3.690000000000000000e+02
4.009165690674654670e+00 6.295547751957547433e+01 3.690000000000000000e+02
3.984482350112751980e+00 6.154147938213020552e+01 3.690000000000000000e+02
3.959799009550849291e+00 6.012748124468492961e+01 3.690000000000000000e+02
3.935115668988946158e+00 5.871348310723965369e+01 3.690000000000000000e+02
3.910432328427043913e+00 5.729948496979437778e+01 3.690000000000000000e+02
3.885748987865141224e+00 5.588548683234910186e+01 3.690000000000000000e+02
3.861065647303238535e+00 5.447148869490383305e+01 3.690000000000000000e+02
3.836382306741335402e+00 5.305749055745855713e+01 3.690000000000000000e+02
3.811698966179433157e+00 5.164349242001328122e+01 3.690000000000000000e+02
4.058532371798460048e+00 6.578347379446601906e+01 3.700000000000000000e+02
4.033849031236557359e+00 6.436947565702075735e+01 3.700000000000000000e+02
4.009165690674654670e+00 6.295547751957547433e+01 3.700000000000000000e+02
3.984482350112751980e+00 6.154147938213020552e+01 3.700000000000000000e+02
3.959799009550849291e+00 6.012748124468492961e+01 3.700000000000000000e+02
3.935115668988946158e+00 5.871348310723965369e+01 3.700000000000000000e+02
3.910432328427043913e+00 5.729948496979437778e+01 3.700000000000000000e+02
3.885748987865141224e+00 5.588548683234910186e+01 3.700000000000000000e+02
3.861065647303238535e+00 5.447148869490383305e+01 3.700000000000000000e+02
3.836382306741335402e+00 5.305749055745855713e+01 3.700000000000000000e+02
3.811698966179433157e+00 5.164349242001328122e+01 3.700000000000000000e+02
4.058532371798460048e+00 6.578347379446601906e+01 3.710000000000000000e+02
4.033849031236557359e+00 6.436947565702075735e+01 3.710000000000000000e+02
4.009165690674654670e+00 6.295547751957547433e+01 3.710000000000000000e+02
3.984482350112751980e+00 6.154147938213020552e+01 3.710000000000000000e+02
3.959799009550849291e+00 6.012748124468492961e+01 3.710000000000000000e+02
3.935115668988946158e+00 5.871348310723965369e+01 3.710000000000000000e+02
3.910432328427043913e+00 5.729948496979437778e+01 3.710000000000000000e+02
3.885748987865141224e+00 5.588548683234910186e+01 3.710000000000000000e+02
3.861065647303238535e+00 5.447148869490383305e+01 3.710000000000000000e+02
3.836382306741335402e+00 5.305749055745855713e+01 3.710000000000000000e+02
3.811698966179433157e+00 5.164349242001328122e+01 3.710000000000000000e+02
3.339191632794871190e+00 6.508881639602434177e+01 3.720000000000000000e+02
3.314508292232968500e+00 6.367481825857906585e+01 3.720000000000000000e+02
3.289824951671065811e+00 6.226082012113378994e+01 3.720000000000000000e+02
3.265141611109163122e+00 6.084682198368851402e+01 3.720000000000000000e+02
3.240458270547260433e+00 5.943282384624324521e+01 3.720000000000000000e+02
3.215774929985357744e+00 5.801882570879796930e+01 3.720000000000000000e+02
3.191091589423455055e+00 5.660482757135269338e+01 3.720000000000000000e+02
3.166408248861552366e+00 5.519082943390741747e+01 3.720000000000000000e+02
3.141724908299649677e+00 5.377683129646214155e+01 3.720000000000000000e+02
3.117041567737747432e+00 5.236283315901687274e+01 3.720000000000000000e+02
4.058532371798460048e+00 6.578347379446601906e+01 3.730000000000000000e+02
4.033849031236557359e+00 6.436947565702075735e+01 3.730000000000000000e+02
4.009165690674654670e+00 6.295547751957547433e+01 3.730000000000000000e+02
3.984482350112751980e+00 6.154147938213020552e+01 3.730000000000000000e+02
3.959799009550849291e+00 6.012748124468492961e+01 3.730000000000000000e+02
3.935115668988946158e+00 5.871348310723965369e+01 3.730000000000000000e+02
3.910432328427043913e+00 5.729948496979437778e+01 3.730000000000000000e+02
3.885748987865141224e+00 5.588548683234910186e+01 3.730000000000000000e+02
3.861065647303238535e+00 5.447148869490383305e+01 3.730000000000000000e+02
3.836382306741335402e+00 5.305749055745855713e+01 3.730000000000000000e+02
3.811698966179433157e+00 5.164349242001328122e+01 3.730000000000000000e+02
4.058532371798460048e+00 6.578347379446601906e+01 3.740000000000000000e+02
4.033849031236557359e+00 6.436947565702075735e+01 3.740000000000000000e+02
4.009165690674654670e+00 6.295547751957547433e+01 3.740000000000000000e+02
3.984482350112751980e+00 6.154147938213020552e+01 3.740000000000000000e+02
3.959799009550849291e+00 6.012748124468492961e+01 3.740000000000000000e+02
3.935115668988946158e+00 5.871348310723965369e+01 3.740000000000000000e+02
3.910432328427043913e+00 5.729948496979437778e+01 3.740000000000000000e+02
3.885748987865141224e+00 5.588548683234910186e+01 3.740000000000000000e+02
3.861065647303238535e+00 5.447148869490383305e+01 3.740000000000000000e+02
3.836382306741335402e+00 5.305749055745855713e+01 3.740000000000000000e+02
3.811698966179433157e+00 5.164349242001328122e+01 3.740000000000000000e+02
3.339191632794871190e+00 6.508881639602434177e+01 3.750000000000000000e+02
3.314508292232968500e+00 6.367481825857906585e+01 3.750000000000000000e+02
3.289824951671065811e+00 6.226082012113378994e+01 3.750000000000000000e+02
3.265141611109163122e+00 6.084682198368851402e+01 3.750000000000000000e+02
3.240458270547260433e+00 5.943282384624324521e+01 3.750000000000000000e+02
3.215774929985357744e+00 5.801882570879796930e+01 3.750000000000000000e+02
3.191091589423455055e+00 5.660482757135269338e+01 3.750000000000000000e+02
3.166408248861552366e+00 5.519082943390741747e+01 3.750000000000000000e+02
3.141724908299649677e+00 5.377683129646214155e+01 3.750000000000000000e+02
3.117041567737747432e+00 5.236283315901687274e+01 3.750000000000000000e+02
3.339191632794871190e+00 6.508881639602434177e+01 3.760000000000000000e+02
3.314508292232968500e+00 6.367481825857906585e+01 3.760000000000000000e+02
3.289824951671065811e+00 6.226082012113378994e+01 3.760000000000000000e+02
3.265141611109163122e+00 6.084682198368851402e+01 3.760000000000000000e+02
3.240458270547260433e+00 5.943282384624324521e+01 3.760000000000000000e+02
3.215774929985357744e+00 5.801882570879796930e+01 3.760000000000000000e+02
3.191091589423455055e+00 5.660482757135269338e+01 3.760000000000000000e+02
3.166408248861552366e+00 5.519082943390741747e+01 3.760000000000000000e+02
3.141724908299649677e+00 5.377683129646214155e+01 3.760000000000000000e+02
3.117041567737747432e+00 5.236283315901687274e+01 3.760000000000000000e+02
3.339191632794871190e+00 6.508881639602434177e+01 3.770000000000000000e+02
3.314508292232968500e+00 6.367481825857906585e+01 3.770000000000000000e+02
3.289824951671065811e+00 6.226082012113378994e+01 3.770000000000000000e+02
3.265141611109163122e+00 6.084682198368851402e+01 3.770000000000000000e+02
3.240458270547260433e+00 5.943282384624324521e+01 3.770000000000000000e+02
3.215774929985357744e+00 5.801882570879796930e+01 3.770000000000000000e+02
3.191091589423455055e+00 5.660482757135269338e+01 3.770000000000000000e+02
3.166408248861552366e+00 5.519082943390741747e+01 3.770000000000000000e+02
3.141724908299649677e+00 5.377683129646214155e+01 3.770000000000000000e+02
3.117041567737747432e+00 5.236283315901687274e+01 3.770000000000000000e+02
4.058532371798460048e+00 6.578347379446601906e+01 3.780000000000000000e+02
4.033849031236557359e+00 6.436947565702075735e+01 3.780000000000000000e+02
4.009165690674654670e+00 6.295547751957547433e+01 3.780000000000000000e+02
3.984482350112751980e+00 6.154147938213020552e+01 3.780000000000000000e+02
3.959799009550849291e+00 6.012748124468492961e+01 3.780000000000000000e+02
3.935115668988946158e+00 5.871348310723965369e+01 3.780000000000000000e+02
3.910432328427043913e+00 5.729948496979437778e+01 3.780000000000000000e+02
3.885748987865141224e+00 5.588548683234910186e+01 3.780000000000000000e+02
3.861065647303238535e+00 5.447148869490383305e+01 3.780000000000000000e+02
3.836382306741335402e+00 5.305749055745855713e+01 3.780000000000000000e+02
3.811698966179433157e+00 5.164349242001328122e+01 3.780000000000000000e+02
3.339191632794871190e+00 6.508881639602434177e+01 3.790000000000000000e+02
3.314508292232968500e+00 6.367481825857906585e+01 3.790000000000000000e+02
3.289824951671065811e+00 6.226082012113378994e+01 3.790000000000000000e+02
3.265141611109163122e+00 6.084682198368851402e+01 3.790000000000000000e+02
3.240458270547260433e+00 5.943282384624324521e+01 3.790000000000000000e+02
3.215774929985357744e+00 5.801882570879796930e+01 3.790000000000000000e+02
3.191091589423455055e+00 5.660482757135269338e+01 3.790000000000000000e+02
3.166408248861552366e+00 5.519082943390741747e+01 3.790000000000000000e+02
3.141724908299649677e+00 5.377683129646214155e+01 3.790000000000000000e+02
3.117041567737747432e+00 5.236283315901687274e+01 3.790000000000000000e+02
4.058532371798460048e+00 6.578347379446601906e+01 3.800000000000000000e+02
4.033849031236557359e+00 6.436947565702075735e+01 3.800000000000000000e+02
4.009165690674654670e+00 6.295547751957547433e+01 3.800000000000000000e+02
3.984482350112751980e+00 6.154147938213020552e+01 3.800000000000000000e+02
3.959799009550849291e+00 6.012748124468492961e+01 3.800000000000000000e+02
3.935115668988946158e+00 5.871348310723965369e+01 3.800000000000000000e+02
3.910432328427043913e+00 5.729948496979437778e+01 3.800000000000000000e+02
3.885748987865141224e+00 5.588548683234910186e+01 3.800000000000000000e+02
3.861065647303238535e+00 5.447148869490383305e+01 3.800000000000000000e+02
3.836382306741335402e+00 5.305749055745855713e+01 3.800000000000000000e+02
3.811698966179433157e+00 5.164349242001328122e+01 3.800000000000000000e+02
3.339191632794871190e+00 6.508881639602434177e+01 3.810000000000000000e+02
3.314508292232968500e+00 6.367481825857906585e+01 3.810000000000000000e+02
3.289824951671065811e+00 6.226082012113378994e+01 3.810000000000000000e+02
3.265141611109163122e+00 6.084682198368851402e+01 3.810000000000000000e+02
3.240458270547260433e+00 5.943282384624324521e+01 3.810000000000000000e+02
3.215774929985357744e+00 5.801882570879796930e+01 3.810000000000000000e+02
3.191091589423455055e+00 5.660482757135269338e+01 3.810000000000000000e+02
3.166408248861552366e+00 5.519082943390741747e+01 3.810000000000000000e+02
3.141724908299649677e+00 5.377683129646214155e+01 3.810000000000000000e+02
4.058532371798460048e+00 6.578347379446601906e+01 3.820000000000000000e+02
4.033849031236557359e+00 6.436947565702075735e+01 3.820000000000000000e+02
4.009165690674654670e+00 6.295547751957547433e+01 3.820000000000000000e+02
3.984482350112751980e+00 6.154147938213020552e+01 3.820000000000000000e+02
3.959799009550849291e+00 6.012748124468492961e+01 3.820000000000000000e+02
3.935115668988946158e+00 5.871348310723965369e+01 3.820000000000000000e+02
3.910432328427043913e+00 5.729948496979437778e+01 3.820000000000000000e+02
3.885748987865141224e+00 5.588548683234910186e+01 3.820000000000000000e+02
3.861065647303238535e+00 5.447148869490383305e+01 3.820000000000000000e+02
3.836382306741335402e+00 5.305749055745855713e+01 3.820000000000000000e+02
4.058532371798460048e+00 6.578347379446601906e+01 3.830000000000000000e+02
4.033849031236557359e+00 6.436947565702075735e+01 3.830000000000000000e+02
4.009165690674654670e+00 6.295547751957547433e+01 3.830000000000000000e+02
3.984482350112751980e+00 6.154147938213020552e+01 3.830000000000000000e+02
3.959799009550849291e+00 6.012748124468492961e+01 3.830000000000000000e+02
3.935115668988946158e+00 5.871348310723965369e+01 3.830000000000000000e+02
3.910432328427043913e+00 5.729948496979437778e+01 3.830000000000000000e+02
3.885748987865141224e+00 5.588548683234910186e+01 3.830000000000000000e+02
3.861065647303238535e+00 5.447148869490383305e+01 3.830000000000000000e+02
3.836382306741335402e+00 5.305749055745855713e+01 3.830000000000000000e+02
4.058532371798460048e+00 6.578347379446601906e+01 3.840000000000000000e+02
4.033849031236557359e+00 6.436947565702075735e+01 3.840000000000000000e+02
4.009165690674654670e+00 6.295547751957547433e+01 3.840000000000000000e+02
3.984482350112751980e+00 6.154147938213020552e+01 3.840000000000000000e+02
3.959799009550849291e+00 6.012748124468492961e+01 3.840000000000000000e+02
3.935115668988946158e+00 5.871348310723965369e+01 3.840000000000000000e+02
3.910432328427043913e+00 5.729948496979437778e+01 3.840000000000000000e+02
3.885748987865141224e+00 5.588548683234910186e+01 3.840000000000000000e+02
3.861065647303238535e+00 5.447148869490383305e+01 3.840000000000000000e+02
3.836382306741335402e+00 5.305749055745855713e+01 3.840000000000000000e+02
3.339191632794871190e+00 6.508881639602434177e+01 3.850000000000000000e+02
3.314508292232968500e+00 6.367481825857906585e+01 3.850000000000000000e+02
3.289824951671065811e+00 6.226082012113378994e+01 3.850000000000000000e+02
3.265141611109163122e+00 6.084682198368851402e+01 3.850000000000000000e+02
3.240458270547260433e+00 5.943282384624324521e+01 3.850000000000000000e+02
3.215774929985357744e+00 5.801882570879796930e+01 3.850000000000000000e+02
3.191091589423455055e+00 5.660482757135269338e+01 3.850000000000000000e+02
3.166408248861552366e+00 5.519082943390741747e+01 3.850000000000000000e+02
3.141724908299649677e+00 5.377683129646214155e+01 3.850000000000000000e+02
3.339191632794871190e+00 6.508881639602434177e+01 3.860000000000000000e+02
3.314508292232968500e+00 6.367481825857906585e+01 3.860000000000000000e+02
3.289824951671065811e+00 6.226082012113378994e+01 3.860000000000000000e+02
3.265141611109163122e+00 6.084682198368851402e+01 3.860000000000000000e+02
3.240458270547260433e+00 5.943282384624324521e+01 3.860000000000000000e+02
3.215774929985357744e+00 5.801882570879796930e+01 3.860000000000000000e+02
3.191091589423455055e+00 5.660482757135269338e+01 3.860000000000000000e+02
3.166408248861552366e+00 5.519082943390741747e+01 3.860000000000000000e+02
3.141724908299649677e+00 5.377683129646214155e+01 3.860000000000000000e+02
3.339191632794871190e+00 6.508881639602434177e+01 3.870000000000000000e+02
3.314508292232968500e+00 6.367481825857906585e+01 3.870000000000000000e+02
3.289824951671065811e+00 6.226082012113378994e+01 3.870000000000000000e+02
3.265141611109163122e+00 6.084682198368851402e+01 3.870000000000000000e+02
3.240458270547260433e+00 5.943282384624324521e+01 3.870000000000000000e+02
3.215774929985357744e+00 5.801882570879796930e+01 3.870000000000000000e+02
3.191091589423455055e+00 5.660482757135269338e+01 3.870000000000000000e+02
3.166408248861552366e+00 5.519082943390741747e+01 3.870000000000000000e+02
3.141724908299649677e+00 5.377683129646214155e+01 3.870000000000000000e+02
3.339191632794871190e+00 6.508881639602434177e+01 3.880000000000000000e+02
3.314508292232968500e+00 6.367481825857906585e+01 3.880000000000000000e+02
3.289824951671065811e+00 6.226082012113378994e+01 3.880000000000000000e+02
3.265141611109163122e+00 6.084682198368851402e+01 3.880000000000000000e+02
3.240458270547260433e+00 5.943282384624324521e+01 3.880000000000000000e+02
3.215774929985357744e+00 5.801882570879796930e+01 3.880000000000000000e+02
3.191091589423455055e+00 5.660482757135269338e+01 3.880000000000000000e+02
3.166408248861552366e+00 5.519082943390741747e+01 3.880000000000000000e+02
3.141724908299649677e+00 5.377683129646214155e+01 3.880000000000000000e+02
3.339191632794871190e+00 6.508881639602434177e+01 3.890000000000000000e+02
3.314508292232968500e+00 6.367481825857906585e+01 3.890000000000000000e+02
3.289824951671065811e+00 6.226082012113378994e+01 3.890000000000000000e+02
3.265141611109163122e+00 6.084682198368851402e+01 3.890000000000000000e+02
3.240458270547260433e+00 5.943282384624324521e+01 3.890000000000000000e+02
3.215774929985357744e+00 5.801882570879796930e+01 3.890000000000000000e+02
3.191091589423455055e+00 5.660482757135269338e+01 3.890000000000000000e+02
3.166408248861552366e+00 5.519082943390741747e+01 3.890000000000000000e+02
3.141724908299649677e+00 5.377683129646214155e+01 3.890000000000000000e+02
3.339191632794871190e+00 6.508881639602434177e+01 3.900000000000000000e+02
3.314508292232968500e+00 6.367481825857906585e+01 3.900000000000000000e+02
3.289824951671065811e+00 6.226082012113378994e+01 3.900000000000000000e+02
3.265141611109163122e+00 6.084682198368851402e+01 3.900000000000000000e+02
3.240458270547260433e+00 5.943282384624324521e+01 3.900000000000000000e+02
3.215774929985357744e+00 5.801882570879796930e+01 3.900000000000000000e+02
3.191091589423455055e+00 5.660482757135269338e+01 3.900000000000000000e+02
3.166408248861552366e+00 5.519082943390741747e+01 3.900000000000000000e+02
3.141724908299649677e+00 5.377683129646214155e+01 3.900000000000000000e+02
3.339191632794871190e+00 6.508881639602434177e+01 3.910000000000000000e+02
3.314508292232968500e+00 6.367481825857906585e+01 3.910000000000000000e+02
3.289824951671065811e+00 6.226082012113378994e+01 3.910000000000000000e+02
3.265141611109163122e+00 6.084682198368851402e+01 3.910000000000000000e+02
3.240458270547260433e+00 5.943282384624324521e+01 3.910000000000000000e+02
3.215774929985357744e+00 5.801882570879796930e+01 3.910000000000000000e+02
3.191091589423455055e+00 5.660482757135269338e+01 3.910000000000000000e+02
3.166408248861552366e+00 5.519082943390741747e+01 3.910000000000000000e+02
3.141724908299649677e+00 5.377683129646214155e+01 3.910000000000000000e+02
3.117041567737747432e+00 5.236283315901687274e+01 3.910000000000000000e+02
3.339191632794871190e+00 6.508881639602434177e+01 3.920000000000000000e+02
3.314508292232968500e+00 6.367481825857906585e+01 3.920000000000000000e+02
3.289824951671065811e+00 6.226082012113378994e+01 3.920000000000000000e+02
3.265141611109163122e+00 6.084682198368851402e+01 3.920000000000000000e+02
3.240458270547260433e+00 5.943282384624324521e+01 3.920000000000000000e+02
3.215774929985357744e+00 5.801882570879796930e+01 3.920000000000000000e+02
3.191091589423455055e+00 5.660482757135269338e+01 3.920000000000000000e+02
3.166408248861552366e+00 5.519082943390741747e+01 3.920000000000000000e+02
3.141724908299649677e+00 5.377683129646214155e+01 3.920000000000000000e+02
3.339191632794871190e+00 6.508881639602434177e+01 3.930000000000000000e+02
3.314508292232968500e+00 6.367481825857906585e+01 3.930000000000000000e+02
3.289824951671065811e+00 6.226082012113378994e+01 3.930000000000000000e+02
3.265141611109163122e+00 6.084682198368851402e+01 3.930000000000000000e+02
3.240458270547260433e+00 5.943282384624324521e+01 3.930000000000000000e+02
3.215774929985357744e+00 5.801882570879796930e+01 3.930000000000000000e+02
3.191091589423455055e+00 5.660482757135269338e+01 3.930000000000000000e+02
3.166408248861552366e+00 5.519082943390741747e+01 3.930000000000000000e+02
3.141724908299649677e+00 5.377683129646214155e+01 3.930000000000000000e+02
3.339191632794871190e+00 6.508881639602434177e+01 3.940000000000000000e+02
3.314508292232968500e+00 6.367481825857906585e+01 3.940000000000000000e+02
3.289824951671065811e+00 6.226082012113378994e+01 3.940000000000000000e+02
3.265141611109163122e+00 6.084682198368851402e+01 3.940000000000000000e+02
3.240458270547260433e+00 5.943282384624324521e+01 3.940000000000000000e+02
3.215774929985357744e+00 5.801882570879796930e+01 3.940000000000000000e+02
3.191091589423455055e+00 5.660482757135269338e+01 3.940000000000000000e+02
3.166408248861552366e+00 5.519082943390741747e+01 3.940000000000000000e+02
3.141724908299649677e+00 5.377683129646214155e+01 3.940000000000000000e+02
3.339191632794871190e+00 6.508881639602434177e+01 3.950000000000000000e+02
3.314508292232968500e+00 6.367481825857906585e+01 3.950000000000000000e+02
3.289824951671065811e+00 6.226082012113378994e+01 3.950000000000000000e+02
3.265141611109163122e+00 6.084682198368851402e+01 3.950000000000000000e+02
3.240458270547260433e+00 5.943282384624324521e+01 3.950000000000000000e+02
3.215774929985357744e+00 5.801882570879796930e+01 3.950000000000000000e+02
3.191091589423455055e+00 5.660482757135269338e+01 3.950000000000000000e+02
3.166408248861552366e+00 5.519082943390741747e+01 3.950000000000000000e+02
3.141724908299649677e+00 5.377683129646214155e+01 3.950000000000000000e+02
4.058532371798460048e+00 6.578347379446601906e+01 3.960000000000000000e+02
4.033849031236557359e+00 6.436947565702075735e+01 3.960000000000000000e+02
4.009165690674654670e+00 6.295547751957547433e+01 3.960000000000000000e+02
3.984482350112751980e+00 6.154147938213020552e+01 3.960000000000000000e+02
3.959799009550849291e+00 6.012748124468492961e+01 3.960000000000000000e+02
3.935115668988946158e+00 5.871348310723965369e+01 3.960000000000000000e+02
3.910432328427043913e+00 5.729948496979437778e+01 3.960000000000000000e+02
3.885748987865141224e+00 5.588548683234910186e+01 3.960000000000000000e+02
3.861065647303238535e+00 5.447148869490383305e+01 3.960000000000000000e+02
3.836382306741335402e+00 5.305749055745855713e+01 3.960000000000000000e+02
4.058532371798460048e+00 6.578347379446601906e+01 3.970000000000000000e+02
4.033849031236557359e+00 6.436947565702075735e+01 3.970000000000000000e+02
4.009165690674654670e+00 6.295547751957547433e+01 3.970000000000000000e+02
3.984482350112751980e+00 6.154147938213020552e+01 3.970000000000000000e+02
3.959799009550849291e+00 6.012748124468492961e+01 3.970000000000000000e+02
3.935115668988946158e+00 5.871348310723965369e+01 3.970000000000000000e+02
3.910432328427043913e+00 5.729948496979437778e+01 3.970000000000000000e+02
3.885748987865141224e+00 5.588548683234910186e+01 3.970000000000000000e+02
3.861065647303238535e+00 5.447148869490383305e+01 3.970000000000000000e+02
3.836382306741335402e+00 5.305749055745855713e+01 3.970000000000000000e+02
4.058532371798460048e+00 6.578347379446601906e+01 3.980000000000000000e+02
4.033849031236557359e+00 6.436947565702075735e+01 3.980000000000000000e+02
4.009165690674654670e+00 6.295547751957547433e+01 3.980000000000000000e+02
3.984482350112751980e+00 6.154147938213020552e+01 3.980000000000000000e+02
3.959799009550849291e+00 6.012748124468492961e+01 3.980000000000000000e+02
3.935115668988946158e+00 5.871348310723965369e+01 3.980000000000000000e+02
3.910432328427043913e+00 5.729948496979437778e+01 3.980000000000000000e+02
3.885748987865141224e+00 5.588548683234910186e+01 3.980000000000000000e+02
3.861065647303238535e+00 5.447148869490383305e+01 3.980000000000000000e+02
3.836382306741335402e+00 5.305749055745855713e+01 3.980000000000000000e+02
4.058532371798460048e+00 6.578347379446601906e+01 3.990000000000000000e+02
4.033849031236557359e+00 6.436947565702075735e+01 3.990000000000000000e+02
4.009165690674654670e+00 6.295547751957547433e+01 3.990000000000000000e+02
3.984482350112751980e+00 6.154147938213020552e+01 3.990000000000000000e+02
3.959799009550849291e+00 6.012748124468492961e+01 3.990000000000000000e+02
3.935115668988946158e+00 5.871348310723965369e+01 3.990000000000000000e+02
3.910432328427043913e+00 5.729948496979437778e+01 3.990000000000000000e+02
3.885748987865141224e+00 5.588548683234910186e+01 3.990000000000000000e+02
3.861065647303238535e+00 5.447148869490383305e+01 3.990000000000000000e+02
3.836382306741335402e+00 5.305749055745855713e+01 3.990000000000000000e+02
4.058532371798460048e+00 6.578347379446601906e+01 4.000000000000000000e+02
4.033849031236557359e+00 6.436947565702075735e+01 4.000000000000000000e+02
4.009165690674654670e+00 6.295547751957547433e+01 4.000000000000000000e+02
3.984482350112751980e+00 6.154147938213020552e+01 4.000000000000000000e+02
3.959799009550849291e+00 6.012748124468492961e+01 4.000000000000000000e+02
3.935115668988946158e+00 5.871348310723965369e+01 4.000000000000000000e+02
3.910432328427043913e+00 5.729948496979437778e+01 4.000000000000000000e+02
3.885748987865141224e+00 5.588548683234910186e+01 4.000000000000000000e+02
3.861065647303238535e+00 5.447148869490383305e+01 4.000000000000000000e+02
3.836382306741335402e+00 5.305749055745855713e+01 4.000000000000000000e+02
4.058532371798460048e+00 6.578347379446601906e+01 4.010000000000000000e+02
4.033849031236557359e+00 6.436947565702075735e+01 4.010000000000000000e+02
4.009165690674654670e+00 6.295547751957547433e+01 4.010000000000000000e+02
3.984482350112751980e+00 6.154147938213020552e+01 4.010000000000000000e+02
3.959799009550849291e+00 6.012748124468492961e+01 4.010000000000000000e+02
3.935115668988946158e+00 5.871348310723965369e+01 4.010000000000000000e+02
3.910432328427043913e+00 5.729948496979437778e+01 4.010000000000000000e+02
3.885748987865141224e+00 5.588548683234910186e+01 4.010000000000000000e+02
3.861065647303238535e+00 5.447148869490383305e+01 4.010000000000000000e+02
3.836382306741335402e+00 5.305749055745855713e+01 4.010000000000000000e+02
4.058532371798460048e+00 6.578347379446601906e+01 4.020000000000000000e+02
4.033849031236557359e+00 6.436947565702075735e+01 4.020000000000000000e+02
4.009165690674654670e+00 6.295547751957547433e+01 4.020000000000000000e+02
3.984482350112751980e+00 6.154147938213020552e+01 4.020000000000000000e+02
3.959799009550849291e+00 6.012748124468492961e+01 4.020000000000000000e+02
3.935115668988946158e+00 5.871348310723965369e+01 4.020000000000000000e+02
3.910432328427043913e+00 5.729948496979437778e+01 4.020000000000000000e+02
3.885748987865141224e+00 5.588548683234910186e+01 4.020000000000000000e+02
3.861065647303238535e+00 5.447148869490383305e+01 4.020000000000000000e+02
3.836382306741335402e+00 5.305749055745855713e+01 4.020000000000000000e+02
3.811698966179433157e+00 5.164349242001328122e+01 4.020000000000000000e+02
4.058532371798460048e+00 6.578347379446601906e+01 4.030000000000000000e+02
4.033849031236557359e+00 6.436947565702075735e+01 4.030000000000000000e+02
4.009165690674654670e+00 6.295547751957547433e+01 4.030000000000000000e+02
3.984482350112751980e+00 6.154147938213020552e+01 4.030000000000000000e+02
3.959799009550849291e+00 6.012748124468492961e+01 4.030000000000000000e+02
3.935115668988946158e+00 5.871348310723965369e+01 4.030000000000000000e+02
3.910432328427043913e+00 5.729948496979437778e+01 4.030000000000000000e+02
3.885748987865141224e+00 5.588548683234910186e+01 4.030000000000000000e+02
3.861065647303238535e+00 5.447148869490383305e+01 4.030000000000000000e+02
3.836382306741335402e+00 5.305749055745855713e+01 4.030000000000000000e+02
3.811698966179433157e+00 5.164349242001328122e+01 4.030000000000000000e+02
4.058532371798460048e+00 6.578347379446601906e+01 4.040000000000000000e+02
4.033849031236557359e+00 6.436947565702075735e+01 4.040000000000000000e+02
4.009165690674654670e+00 6.295547751957547433e+01 4.040000000000000000e+02
3.984482350112751980e+00 6.154147938213020552e+01 4.040000000000000000e+02
3.959799009550849291e+00 6.012748124468492961e+01 4.040000000000000000e+02
3.935115668988946158e+00 5.871348310723965369e+01 4.040000000000000000e+02
3.910432328427043913e+00 5.729948496979437778e+01 4.040000000000000000e+02
3.885748987865141224e+00 5.588548683234910186e+01 4.040000000000000000e+02
3.861065647303238535e+00 5.447148869490383305e+01 4.040000000000000000e+02
3.836382306741335402e+00 5.305749055745855713e+01 4.040000000000000000e+02
3.811698966179433157e+00 5.164349242001328122e+01 4.040000000000000000e+02
4.058532371798460048e+00 6.578347379446601906e+01 4.050000000000000000e+02
4.033849031236557359e+00 6.436947565702075735e+01 4.050000000000000000e+02
4.009165690674654670e+00 6.295547751957547433e+01 4.050000000000000000e+02
3.984482350112751980e+00 6.154147938213020552e+01 4.050000000000000000e+02
3.959799009550849291e+00 6.012748124468492961e+01 4.050000000000000000e+02
3.935115668988946158e+00 5.871348310723965369e+01 4.050000000000000000e+02
3.910432328427043913e+00 5.729948496979437778e+01 4.050000000000000000e+02
3.885748987865141224e+00 5.588548683234910186e+01 4.050000000000000000e+02
3.861065647303238535e+00 5.447148869490383305e+01 4.050000000000000000e+02
3.836382306741335402e+00 5.305749055745855713e+01 4.050000000000000000e+02
3.811698966179433157e+00 5.164349242001328122e+01 4.050000000000000000e+02
4.058532371798460048e+00 6.578347379446601906e+01 4.060000000000000000e+02
4.033849031236557359e+00 6.436947565702075735e+01 4.060000000000000000e+02
4.009165690674654670e+00 6.295547751957547433e+01 4.060000000000000000e+02
3.984482350112751980e+00 6.154147938213020552e+01 4.060000000000000000e+02
3.959799009550849291e+00 6.012748124468492961e+01 4.060000000000000000e+02
3.935115668988946158e+00 5.871348310723965369e+01 4.060000000000000000e+02
3.910432328427043913e+00 5.729948496979437778e+01 4.060000000000000000e+02
3.885748987865141224e+00 5.588548683234910186e+01 4.060000000000000000e+02
3.861065647303238535e+00 5.447148869490383305e+01 4.060000000000000000e+02
3.836382306741335402e+00 5.305749055745855713e+01 4.060000000000000000e+02
3.811698966179433157e+00 5.164349242001328122e+01 4.060000000000000000e+02
4.058532371798460048e+00 6.578347379446601906e+01 4.070000000000000000e+02
4.033849031236557359e+00 6.436947565702075735e+01 4.070000000000000000e+02
4.009165690674654670e+00 6.295547751957547433e+01 4.070000000000000000e+02
3.984482350112751980e+00 6.154147938213020552e+01 4.070000000000000000e+02
3.959799009550849291e+00 6.012748124468492961e+01 4.070000000000000000e+02
3.935115668988946158e+00 5.871348310723965369e+01 4.070000000000000000e+02
3.910432328427043913e+00 5.729948496979437778e+01 4.070000000000000000e+02
3.885748987865141224e+00 5.588548683234910186e+01 4.070000000000000000e+02
3.861065647303238535e+00 5.447148869490383305e+01 4.070000000000000000e+02
3.836382306741335402e+00 5.305749055745855713e+01 4.070000000000000000e+02
4.058532371798460048e+00 6.578347379446601906e+01 4.080000000000000000e+02
4.033849031236557359e+00 6.436947565702075735e+01 4.080000000000000000e+02
4.009165690674654670e+00 6.295547751957547433e+01 4.080000000000000000e+02
3.984482350112751980e+00 6.154147938213020552e+01 4.080000000000000000e+02
3.959799009550849291e+00 6.012748124468492961e+01 4.080000000000000000e+02
3.935115668988946158e+00 5.871348310723965369e+01 4.080000000000000000e+02
3.910432328427043913e+00 5.729948496979437778e+01 4.080000000000000000e+02
3.885748987865141224e+00 5.588548683234910186e+01 4.080000000000000000e+02
3.861065647303238535e+00 5.447148869490383305e+01 4.080000000000000000e+02
3.836382306741335402e+00 5.305749055745855713e+01 4.080000000000000000e+02
3.811698966179433157e+00 5.164349242001328122e+01 4.080000000000000000e+02
4.058532371798460048e+00 6.578347379446601906e+01 4.090000000000000000e+02
4.033849031236557359e+00 6.436947565702075735e+01 4.090000000000000000e+02
4.009165690674654670e+00 6.295547751957547433e+01 4.090000000000000000e+02
3.984482350112751980e+00 6.154147938213020552e+01 4.090000000000000000e+02
3.959799009550849291e+00 6.012748124468492961e+01 4.090000000000000000e+02
3.935115668988946158e+00 5.871348310723965369e+01 4.090000000000000000e+02
3.910432328427043913e+00 5.729948496979437778e+01 4.090000000000000000e+02
3.885748987865141224e+00 5.588548683234910186e+01 4.090000000000000000e+02
3.861065647303238535e+00 5.447148869490383305e+01 4.090000000000000000e+02
3.836382306741335402e+00 5.305749055745855713e+01 4.090000000000000000e+02
3.811698966179433157e+00 5.164349242001328122e+01 4.090000000000000000e+02
4.058532371798460048e+00 6.578347379446601906e+01 4.100000000000000000e+02
4.033849031236557359e+00 6.436947565702075735e+01 4.100000000000000000e+02
4.009165690674654670e+00 6.295547751957547433e+01 4.100000000000000000e+02
3.984482350112751980e+00 6.154147938213020552e+01 4.100000000000000000e+02
3.959799009550849291e+00 6.012748124468492961e+01 4.100000000000000000e+02
3.935115668988946158e+00 5.871348310723965369e+01 4.100000000000000000e+02
3.910432328427043913e+00 5.729948496979437778e+01 4.100000000000000000e+02
3.885748987865141224e+00 5.588548683234910186e+01 4.100000000000000000e+02
3.861065647303238535e+00 5.447148869490383305e+01 4.100000000000000000e+02
3.836382306741335402e+00 5.305749055745855713e+01 4.100000000000000000e+02
3.811698966179433157e+00 5.164349242001328122e+01 4.100000000000000000e+02
4.058532371798460048e+00 6.578347379446601906e+01 4.110000000000000000e+02
4.033849031236557359e+00 6.436947565702075735e+01 4.110000000000000000e+02
4.009165690674654670e+00 6.295547751957547433e+01 4.110000000000000000e+02
3.984482350112751980e+00 6.154147938213020552e+01 4.110000000000000000e+02
3.959799009550849291e+00 6.012748124468492961e+01 4.110000000000000000e+02
3.935115668988946158e+00 5.871348310723965369e+01 4.110000000000000000e+02
3.910432328427043913e+00 5.729948496979437778e+01 4.110000000000000000e+02
3.885748987865141224e+00 5.588548683234910186e+01 4.110000000000000000e+02
3.861065647303238535e+00 5.447148869490383305e+01 4.110000000000000000e+02
3.836382306741335402e+00 5.305749055745855713e+01 4.110000000000000000e+02
3.811698966179433157e+00 5.164349242001328122e+01 4.110000000000000000e+02
4.058532371798460048e+00 6.578347379446601906e+01 4.120000000000000000e+02
4.033849031236557359e+00 6.436947565702075735e+01 4.120000000000000000e+02
4.009165690674654670e+00 6.295547751957547433e+01 4.120000000000000000e+02
3.984482350112751980e+00 6.154147938213020552e+01 4.120000000000000000e+02
3.959799009550849291e+00 6.012748124468492961e+01 4.120000000000000000e+02
3.935115668988946158e+00 5.871348310723965369e+01 4.120000000000000000e+02
3.910432328427043913e+00 5.729948496979437778e+01 4.120000000000000000e+02
3.885748987865141224e+00 5.588548683234910186e+01 4.120000000000000000e+02
3.861065647303238535e+00 5.447148869490383305e+01 4.120000000000000000e+02
3.836382306741335402e+00 5.305749055745855713e+01 4.120000000000000000e+02
3.811698966179433157e+00 5.164349242001328122e+01 4.120000000000000000e+02
4.058532371798460048e+00 6.578347379446601906e+01 4.130000000000000000e+02
4.033849031236557359e+00 6.436947565702075735e+01 4.130000000000000000e+02
4.009165690674654670e+00 6.295547751957547433e+01 4.130000000000000000e+02
3.984482350112751980e+00 6.154147938213020552e+01 4.130000000000000000e+02
3.959799009550849291e+00 6.012748124468492961e+01 4.130000000000000000e+02
3.935115668988946158e+00 5.871348310723965369e+01 4.130000000000000000e+02
3.910432328427043913e+00 5.729948496979437778e+01 4.130000000000000000e+02
3.885748987865141224e+00 5.588548683234910186e+01 4.130000000000000000e+02
3.861065647303238535e+00 5.447148869490383305e+01 4.130000000000000000e+02
3.836382306741335402e+00 5.305749055745855713e+01 4.130000000000000000e+02
3.811698966179433157e+00 5.164349242001328122e+01 4.130000000000000000e+02
3.339191632794871190e+00 6.508881639602434177e+01 4.140000000000000000e+02
3.314508292232968500e+00 6.367481825857906585e+01 4.140000000000000000e+02
3.289824951671065811e+00 6.226082012113378994e+01 4.140000000000000000e+02
3.265141611109163122e+00 6.084682198368851402e+01 4.140000000000000000e+02
3.240458270547260433e+00 5.943282384624324521e+01 4.140000000000000000e+02
3.215774929985357744e+00 5.801882570879796930e+01 4.140000000000000000e+02
3.191091589423455055e+00 5.660482757135269338e+01 4.140000000000000000e+02
3.166408248861552366e+00 5.519082943390741747e+01 4.140000000000000000e+02
3.141724908299649677e+00 5.377683129646214155e+01 4.140000000000000000e+02
3.117041567737747432e+00 5.236283315901687274e+01 4.140000000000000000e+02
4.058532371798460048e+00 6.578347379446601906e+01 4.150000000000000000e+02
4.033849031236557359e+00 6.436947565702075735e+01 4.150000000000000000e+02
