4.185681160468719852e+00 -2.128249737501340277e+00 3.050000000000000000e+02
5.520221820105772892e+00 -1.660274067433441525e+00 3.050000000000000000e+02
-2.487022137716546233e+00 -4.468128087840835150e+00 3.060000000000000000e+02
-1.152481478079493193e+00 -4.000152417772936175e+00 3.060000000000000000e+02
1.820591815575602901e-01 -3.532176747705037201e+00 3.060000000000000000e+02
1.516599841194613774e+00 -3.064201077637138226e+00 3.060000000000000000e+02
2.851140500831666813e+00 -2.596225407569239252e+00 3.060000000000000000e+02
4.185681160468719852e+00 -2.128249737501340277e+00 3.060000000000000000e+02
5.520221820105772892e+00 -1.660274067433441525e+00 3.060000000000000000e+02
6.854762479742825931e+00 -1.192298397365542773e+00 3.060000000000000000e+02
-2.487022137716546233e+00 -4.468128087840835150e+00 3.070000000000000000e+02
-1.152481478079493193e+00 -4.000152417772936175e+00 3.070000000000000000e+02
1.820591815575602901e-01 -3.532176747705037201e+00 3.070000000000000000e+02
1.516599841194613774e+00 -3.064201077637138226e+00 3.070000000000000000e+02
2.851140500831666813e+00 -2.596225407569239252e+00 3.070000000000000000e+02
4.185681160468719852e+00 -2.128249737501340277e+00 3.070000000000000000e+02
5.520221820105772892e+00 -1.660274067433441525e+00 3.070000000000000000e+02
6.854762479742825931e+00 -1.192298397365542773e+00 3.070000000000000000e+02
8.189303139379878971e+00 -7.243227272976437980e-01 3.070000000000000000e+02
-2.487022137716546233e+00 -4.468128087840835150e+00 3.080000000000000000e+02
-1.152481478079493193e+00 -4.000152417772936175e+00 3.080000000000000000e+02
1.820591815575602901e-01 -3.532176747705037201e+00 3.080000000000000000e+02
1.516599841194613774e+00 -3.064201077637138226e+00 3.080000000000000000e+02
2.851140500831666813e+00 -2.596225407569239252e+00 3.080000000000000000e+02
4.185681160468719852e+00 -2.128249737501340277e+00 3.080000000000000000e+02
5.520221820105772892e+00 -1.660274067433441525e+00 3.080000000000000000e+02
6.854762479742825931e+00 -1.192298397365542773e+00 3.080000000000000000e+02
8.189303139379878971e+00 -7.243227272976437980e-01 3.080000000000000000e+02
-1.585763972864071114e+00 -4.901410582625412182e+00 3.090000000000000000e+02
-2.512233132270171865e-01 -4.433434912557513208e+00 3.090000000000000000e+02
1.083317346410036297e+00 -3.965459242489614233e+00 3.090000000000000000e+02
2.417858006047089781e+00 -3.497483572421715259e+00 3.090000000000000000e+02
3.752398665684142820e+00 -3.029507902353816284e+00 3.090000000000000000e+02
5.086939325321195859e+00 -2.561532232285917310e+00 3.090000000000000000e+02
6.421479984958248899e+00 -2.093556562218018779e+00 3.090000000000000000e+02
7.756020644595301938e+00 -1.625580892150120027e+00 3.090000000000000000e+02
-1.585763972864071114e+00 -4.901410582625412182e+00 3.100000000000000000e+02
-2.512233132270171865e-01 -4.433434912557513208e+00 3.100000000000000000e+02
1.083317346410036297e+00 -3.965459242489614233e+00 3.100000000000000000e+02
2.417858006047089781e+00 -3.497483572421715259e+00 3.100000000000000000e+02
3.752398665684142820e+00 -3.029507902353816284e+00 3.100000000000000000e+02
5.086939325321195859e+00 -2.561532232285917310e+00 3.100000000000000000e+02
6.421479984958248899e+00 -2.093556562218018779e+00 3.100000000000000000e+02
7.756020644595301938e+00 -1.625580892150120027e+00 3.100000000000000000e+02
-1.585763972864071114e+00 -4.901410582625412182e+00 3.110000000000000000e+02
-2.512233132270171865e-01 -4.433434912557513208e+00 3.110000000000000000e+02
1.083317346410036297e+00 -3.965459242489614233e+00 3.110000000000000000e+02
2.417858006047089781e+00 -3.497483572421715259e+00 3.110000000000000000e+02
3.752398665684142820e+00 -3.029507902353816284e+00 3.110000000000000000e+02
5.086939325321195859e+00 -2.561532232285917310e+00 3.110000000000000000e+02
6.421479984958248899e+00 -2.093556562218018779e+00 3.110000000000000000e+02
7.756020644595301938e+00 -1.625580892150120027e+00 3.110000000000000000e+02
-1.585763972864071114e+00 -4.901410582625412182e+00 3.120000000000000000e+02
-2.512233132270171865e-01 -4.433434912557513208e+00 3.120000000000000000e+02
1.083317346410036297e+00 -3.965459242489614233e+00 3.120000000000000000e+02
2.417858006047089781e+00 -3.497483572421715259e+00 3.120000000000000000e+02
3.752398665684142820e+00 -3.029507902353816284e+00 3.120000000000000000e+02
5.086939325321195859e+00 -2.561532232285917310e+00 3.120000000000000000e+02
6.421479984958248899e+00 -2.093556562218018779e+00 3.120000000000000000e+02
7.756020644595301938e+00 -1.625580892150120027e+00 3.120000000000000000e+02
9.090561304232355866e+00 -1.157605222082221275e+00 3.120000000000000000e+02
-1.585763972864071114e+00 -4.901410582625412182e+00 3.130000000000000000e+02
-2.512233132270171865e-01 -4.433434912557513208e+00 3.130000000000000000e+02
1.083317346410036297e+00 -3.965459242489614233e+00 3.130000000000000000e+02
2.417858006047089781e+00 -3.497483572421715259e+00 3.130000000000000000e+02
3.752398665684142820e+00 -3.029507902353816284e+00 3.130000000000000000e+02
5.086939325321195859e+00 -2.561532232285917310e+00 3.130000000000000000e+02
6.421479984958248899e+00 -2.093556562218018779e+00 3.130000000000000000e+02
7.756020644595301938e+00 -1.625580892150120027e+00 3.130000000000000000e+02
9.090561304232355866e+00 -1.157605222082221275e+00 3.130000000000000000e+02
-1.585763972864071114e+00 -4.901410582625412182e+00 3.140000000000000000e+02
-2.512233132270171865e-01 -4.433434912557513208e+00 3.140000000000000000e+02
1.083317346410036297e+00 -3.965459242489614233e+00 3.140000000000000000e+02
2.417858006047089781e+00 -3.497483572421715259e+00 3.140000000000000000e+02
3.752398665684142820e+00 -3.029507902353816284e+00 3.140000000000000000e+02
5.086939325321195859e+00 -2.561532232285917310e+00 3.140000000000000000e+02
6.421479984958248899e+00 -2.093556562218018779e+00 3.140000000000000000e+02
7.756020644595301938e+00 -1.625580892150120027e+00 3.140000000000000000e+02
9.090561304232355866e+00 -1.157605222082221275e+00 3.140000000000000000e+02
-1.585763972864071114e+00 -4.901410582625412182e+00 3.150000000000000000e+02
-2.512233132270171865e-01 -4.433434912557513208e+00 3.150000000000000000e+02
1.083317346410036297e+00 -3.965459242489614233e+00 3.150000000000000000e+02
2.417858006047089781e+00 -3.497483572421715259e+00 3.150000000000000000e+02
3.752398665684142820e+00 -3.029507902353816284e+00 3.150000000000000000e+02
5.086939325321195859e+00 -2.561532232285917310e+00 3.150000000000000000e+02
6.421479984958248899e+00 -2.093556562218018779e+00 3.150000000000000000e+02
7.756020644595301938e+00 -1.625580892150120027e+00 3.150000000000000000e+02
9.090561304232355866e+00 -1.157605222082221275e+00 3.150000000000000000e+02
-1.585763972864071114e+00 -4.901410582625412182e+00 3.160000000000000000e+02
-2.512233132270171865e-01 -4.433434912557513208e+00 3.160000000000000000e+02
1.083317346410036297e+00 -3.965459242489614233e+00 3.160000000000000000e+02
2.417858006047089781e+00 -3.497483572421715259e+00 3.160000000000000000e+02
3.752398665684142820e+00 -3.029507902353816284e+00 3.160000000000000000e+02
5.086939325321195859e+00 -2.561532232285917310e+00 3.160000000000000000e+02
6.421479984958248899e+00 -2.093556562218018779e+00 3.160000000000000000e+02
7.756020644595301938e+00 -1.625580892150120027e+00 3.160000000000000000e+02
9.090561304232355866e+00 -1.157605222082221275e+00 3.160000000000000000e+02
-1.585763972864071114e+00 -4.901410582625412182e+00 3.170000000000000000e+02
-2.512233132270171865e-01 -4.433434912557513208e+00 3.170000000000000000e+02
1.083317346410036297e+00 -3.965459242489614233e+00 3.170000000000000000e+02
2.417858006047089781e+00 -3.497483572421715259e+00 3.170000000000000000e+02
3.752398665684142820e+00 -3.029507902353816284e+00 3.170000000000000000e+02
5.086939325321195859e+00 -2.561532232285917310e+00 3.170000000000000000e+02
6.421479984958248899e+00 -2.093556562218018779e+00 3.170000000000000000e+02
7.756020644595301938e+00 -1.625580892150120027e+00 3.170000000000000000e+02
9.090561304232355866e+00 -1.157605222082221275e+00 3.170000000000000000e+02
-1.585763972864071114e+00 -4.901410582625412182e+00 3.180000000000000000e+02
-2.512233132270171865e-01 -4.433434912557513208e+00 3.180000000000000000e+02
1.083317346410036297e+00 -3.965459242489614233e+00 3.180000000000000000e+02
2.417858006047089781e+00 -3.497483572421715259e+00 3.180000000000000000e+02
3.752398665684142820e+00 -3.029507902353816284e+00 3.180000000000000000e+02
5.086939325321195859e+00 -2.561532232285917310e+00 3.180000000000000000e+02
6.421479984958248899e+00 -2.093556562218018779e+00 3.180000000000000000e+02
7.756020644595301938e+00 -1.625580892150120027e+00 3.180000000000000000e+02
9.090561304232355866e+00 -1.157605222082221275e+00 3.180000000000000000e+02
-1.585763972864071114e+00 -4.901410582625412182e+00 3.190000000000000000e+02
-2.512233132270171865e-01 -4.433434912557513208e+00 3.190000000000000000e+02
1.083317346410036297e+00 -3.965459242489614233e+00 3.190000000000000000e+02
2.417858006047089781e+00 -3.497483572421715259e+00 3.190000000000000000e+02
3.752398665684142820e+00 -3.029507902353816284e+00 3.190000000000000000e+02
5.086939325321195859e+00 -2.561532232285917310e+00 3.190000000000000000e+02
6.421479984958248899e+00 -2.093556562218018779e+00 3.190000000000000000e+02
7.756020644595301938e+00 -1.625580892150120027e+00 3.190000000000000000e+02
9.090561304232355866e+00 -1.157605222082221275e+00 3.190000000000000000e+02
-1.585763972864071114e+00 -4.901410582625412182e+00 3.200000000000000000e+02
-2.512233132270171865e-01 -4.433434912557513208e+00 3.200000000000000000e+02
1.083317346410036297e+00 -3.965459242489614233e+00 3.200000000000000000e+02
2.417858006047089781e+00 -3.497483572421715259e+00 3.200000000000000000e+02
3.752398665684142820e+00 -3.029507902353816284e+00 3.200000000000000000e+02
5.086939325321195859e+00 -2.561532232285917310e+00 3.200000000000000000e+02
6.421479984958248899e+00 -2.093556562218018779e+00 3.200000000000000000e+02
7.756020644595301938e+00 -1.625580892150120027e+00 3.200000000000000000e+02
9.090561304232355866e+00 -1.157605222082221275e+00 3.200000000000000000e+02
-1.585763972864071114e+00 -4.901410582625412182e+00 3.210000000000000000e+02
-2.512233132270171865e-01 -4.433434912557513208e+00 3.210000000000000000e+02
1.083317346410036297e+00 -3.965459242489614233e+00 3.210000000000000000e+02
2.417858006047089781e+00 -3.497483572421715259e+00 3.210000000000000000e+02
3.752398665684142820e+00 -3.029507902353816284e+00 3.210000000000000000e+02
5.086939325321195859e+00 -2.561532232285917310e+00 3.210000000000000000e+02
6.421479984958248899e+00 -2.093556562218018779e+00 3.210000000000000000e+02
7.756020644595301938e+00 -1.625580892150120027e+00 3.210000000000000000e+02
9.090561304232355866e+00 -1.157605222082221275e+00 3.210000000000000000e+02
-1.585763972864071114e+00 -4.901410582625412182e+00 3.220000000000000000e+02
-2.512233132270171865e-01 -4.433434912557513208e+00 3.220000000000000000e+02
1.083317346410036297e+00 -3.965459242489614233e+00 3.220000000000000000e+02
2.417858006047089781e+00 -3.497483572421715259e+00 3.220000000000000000e+02
3.752398665684142820e+00 -3.029507902353816284e+00 3.220000000000000000e+02
5.086939325321195859e+00 -2.561532232285917310e+00 3.220000000000000000e+02
6.421479984958248899e+00 -2.093556562218018779e+00 3.220000000000000000e+02
7.756020644595301938e+00 -1.625580892150120027e+00 3.220000000000000000e+02
9.090561304232355866e+00 -1.157605222082221275e+00 3.220000000000000000e+02
-1.585763972864071114e+00 -4.901410582625412182e+00 3.230000000000000000e+02
-2.512233132270171865e-01 -4.433434912557513208e+00 3.230000000000000000e+02
1.083317346410036297e+00 -3.965459242489614233e+00 3.230000000000000000e+02
2.417858006047089781e+00 -3.497483572421715259e+00 3.230000000000000000e+02
3.752398665684142820e+00 -3.029507902353816284e+00 3.230000000000000000e+02
5.086939325321195859e+00 -2.561532232285917310e+00 3.230000000000000000e+02
6.421479984958248899e+00 -2.093556562218018779e+00 3.230000000000000000e+02
7.756020644595301938e+00 -1.625580892150120027e+00 3.230000000000000000e+02
9.090561304232355866e+00 -1.157605222082221275e+00 3.230000000000000000e+02
-1.585763972864071114e+00 -4.901410582625412182e+00 3.240000000000000000e+02
-2.512233132270171865e-01 -4.433434912557513208e+00 3.240000000000000000e+02
1.083317346410036297e+00 -3.965459242489614233e+00 3.240000000000000000e+02
2.417858006047089781e+00 -3.497483572421715259e+00 3.240000000000000000e+02
3.752398665684142820e+00 -3.029507902353816284e+00 3.240000000000000000e+02
5.086939325321195859e+00 -2.561532232285917310e+00 3.240000000000000000e+02
6.421479984958248899e+00 -2.093556562218018779e+00 3.240000000000000000e+02
7.756020644595301938e+00 -1.625580892150120027e+00 3.240000000000000000e+02
9.090561304232355866e+00 -1.157605222082221275e+00 3.240000000000000000e+02
-1.585763972864071114e+00 -4.901410582625412182e+00 3.250000000000000000e+02
-2.512233132270171865e-01 -4.433434912557513208e+00 3.250000000000000000e+02
1.083317346410036297e+00 -3.965459242489614233e+00 3.250000000000000000e+02
2.417858006047089781e+00 -3.497483572421715259e+00 3.250000000000000000e+02
3.752398665684142820e+00 -3.029507902353816284e+00 3.250000000000000000e+02
5.086939325321195859e+00 -2.561532232285917310e+00 3.250000000000000000e+02
6.421479984958248899e+00 -2.093556562218018779e+00 3.250000000000000000e+02
7.756020644595301938e+00 -1.625580892150120027e+00 3.250000000000000000e+02
9.090561304232355866e+00 -1.157605222082221275e+00 3.250000000000000000e+02
-1.585763972864071114e+00 -4.901410582625412182e+00 3.260000000000000000e+02
-2.512233132270171865e-01 -4.433434912557513208e+00 3.260000000000000000e+02
1.083317346410036297e+00 -3.965459242489614233e+00 3.260000000000000000e+02
2.417858006047089781e+00 -3.497483572421715259e+00 3.260000000000000000e+02
3.752398665684142820e+00 -3.029507902353816284e+00 3.260000000000000000e+02
5.086939325321195859e+00 -2.561532232285917310e+00 3.260000000000000000e+02
6.421479984958248899e+00 -2.093556562218018779e+00 3.260000000000000000e+02
7.756020644595301938e+00 -1.625580892150120027e+00 3.260000000000000000e+02
9.090561304232355866e+00 -1.157605222082221275e+00 3.260000000000000000e+02
-1.585763972864071114e+00 -4.901410582625412182e+00 3.270000000000000000e+02
-2.512233132270171865e-01 -4.433434912557513208e+00 3.270000000000000000e+02
1.083317346410036297e+00 -3.965459242489614233e+00 3.270000000000000000e+02
2.417858006047089781e+00 -3.497483572421715259e+00 3.270000000000000000e+02
3.752398665684142820e+00 -3.029507902353816284e+00 3.270000000000000000e+02
5.086939325321195859e+00 -2.561532232285917310e+00 3.270000000000000000e+02
6.421479984958248899e+00 -2.093556562218018779e+00 3.270000000000000000e+02
7.756020644595301938e+00 -1.625580892150120027e+00 3.270000000000000000e+02
9.090561304232355866e+00 -1.157605222082221275e+00 3.270000000000000000e+02
-1.585763972864071114e+00 -4.901410582625412182e+00 3.280000000000000000e+02
-2.512233132270171865e-01 -4.433434912557513208e+00 3.280000000000000000e+02
1.083317346410036297e+00 -3.965459242489614233e+00 3.280000000000000000e+02
2.417858006047089781e+00 -3.497483572421715259e+00 3.280000000000000000e+02
3.752398665684142820e+00 -3.029507902353816284e+00 3.280000000000000000e+02
5.086939325321195859e+00 -2.561532232285917310e+00 3.280000000000000000e+02
6.421479984958248899e+00 -2.093556562218018779e+00 3.280000000000000000e+02
7.756020644595301938e+00 -1.625580892150120027e+00 3.280000000000000000e+02
9.090561304232355866e+00 -1.157605222082221275e+00 3.280000000000000000e+02
-1.585763972864071114e+00 -4.901410582625412182e+00 3.290000000000000000e+02
-2.512233132270171865e-01 -4.433434912557513208e+00 3.290000000000000000e+02
1.083317346410036297e+00 -3.965459242489614233e+00 3.290000000000000000e+02
2.417858006047089781e+00 -3.497483572421715259e+00 3.290000000000000000e+02
3.752398665684142820e+00 -3.029507902353816284e+00 3.290000000000000000e+02
5.086939325321195859e+00 -2.561532232285917310e+00 3.290000000000000000e+02
6.421479984958248899e+00 -2.093556562218018779e+00 3.290000000000000000e+02
7.756020644595301938e+00 -1.625580892150120027e+00 3.290000000000000000e+02
9.090561304232355866e+00 -1.157605222082221275e+00 3.290000000000000000e+02
1.042510196386940891e+01 -6.896295520143218560e-01 3.290000000000000000e+02
-1.585763972864071114e+00 -4.901410582625412182e+00 3.300000000000000000e+02
-2.512233132270171865e-01 -4.433434912557513208e+00 3.300000000000000000e+02
1.083317346410036297e+00 -3.965459242489614233e+00 3.300000000000000000e+02
2.417858006047089781e+00 -3.497483572421715259e+00 3.300000000000000000e+02
3.752398665684142820e+00 -3.029507902353816284e+00 3.300000000000000000e+02
5.086939325321195859e+00 -2.561532232285917310e+00 3.300000000000000000e+02
6.421479984958248899e+00 -2.093556562218018779e+00 3.300000000000000000e+02
7.756020644595301938e+00 -1.625580892150120027e+00 3.300000000000000000e+02
9.090561304232355866e+00 -1.157605222082221275e+00 3.300000000000000000e+02
1.042510196386940891e+01 -6.896295520143218560e-01 3.300000000000000000e+02
-1.585763972864071114e+00 -4.901410582625412182e+00 3.310000000000000000e+02
-2.512233132270171865e-01 -4.433434912557513208e+00 3.310000000000000000e+02
1.083317346410036297e+00 -3.965459242489614233e+00 3.310000000000000000e+02
2.417858006047089781e+00 -3.497483572421715259e+00 3.310000000000000000e+02
3.752398665684142820e+00 -3.029507902353816284e+00 3.310000000000000000e+02
5.086939325321195859e+00 -2.561532232285917310e+00 3.310000000000000000e+02
6.421479984958248899e+00 -2.093556562218018779e+00 3.310000000000000000e+02
7.756020644595301938e+00 -1.625580892150120027e+00 3.310000000000000000e+02
9.090561304232355866e+00 -1.157605222082221275e+00 3.310000000000000000e+02
1.042510196386940891e+01 -6.896295520143218560e-01 3.310000000000000000e+02
-6.845058080115942190e-01 -5.334693077409989215e+00 3.320000000000000000e+02
6.500348516254592646e-01 -4.866717407342090240e+00 3.320000000000000000e+02
1.984575511262512304e+00 -4.398741737274191266e+00 3.320000000000000000e+02
3.319116170899565788e+00 -3.930766067206292291e+00 3.320000000000000000e+02
4.653656830536618827e+00 -3.462790397138393761e+00 3.320000000000000000e+02
5.988197490173671866e+00 -2.994814727070494786e+00 3.320000000000000000e+02
7.322738149810724906e+00 -2.526839057002595812e+00 3.320000000000000000e+02
8.657278809447777945e+00 -2.058863386934697282e+00 3.320000000000000000e+02
9.991819469084830985e+00 -1.590887716866798307e+00 3.320000000000000000e+02
-6.845058080115942190e-01 -5.334693077409989215e+00 3.330000000000000000e+02
6.500348516254592646e-01 -4.866717407342090240e+00 3.330000000000000000e+02
1.984575511262512304e+00 -4.398741737274191266e+00 3.330000000000000000e+02
3.319116170899565788e+00 -3.930766067206292291e+00 3.330000000000000000e+02
4.653656830536618827e+00 -3.462790397138393761e+00 3.330000000000000000e+02
5.988197490173671866e+00 -2.994814727070494786e+00 3.330000000000000000e+02
7.322738149810724906e+00 -2.526839057002595812e+00 3.330000000000000000e+02
8.657278809447777945e+00 -2.058863386934697282e+00 3.330000000000000000e+02
9.991819469084830985e+00 -1.590887716866798307e+00 3.330000000000000000e+02
-6.845058080115942190e-01 -5.334693077409989215e+00 3.340000000000000000e+02
6.500348516254592646e-01 -4.866717407342090240e+00 3.340000000000000000e+02
1.984575511262512304e+00 -4.398741737274191266e+00 3.340000000000000000e+02
3.319116170899565788e+00 -3.930766067206292291e+00 3.340000000000000000e+02
4.653656830536618827e+00 -3.462790397138393761e+00 3.340000000000000000e+02
5.988197490173671866e+00 -2.994814727070494786e+00 3.340000000000000000e+02
7.322738149810724906e+00 -2.526839057002595812e+00 3.340000000000000000e+02
8.657278809447777945e+00 -2.058863386934697282e+00 3.340000000000000000e+02
-6.845058080115942190e-01 -5.334693077409989215e+00 3.350000000000000000e+02
6.500348516254592646e-01 -4.866717407342090240e+00 3.350000000000000000e+02
1.984575511262512304e+00 -4.398741737274191266e+00 3.350000000000000000e+02
3.319116170899565788e+00 -3.930766067206292291e+00 3.350000000000000000e+02
4.653656830536618827e+00 -3.462790397138393761e+00 3.350000000000000000e+02
5.988197490173671866e+00 -2.994814727070494786e+00 3.350000000000000000e+02
7.322738149810724906e+00 -2.526839057002595812e+00 3.350000000000000000e+02
8.657278809447777945e+00 -2.058863386934697282e+00 3.350000000000000000e+02
9.991819469084830985e+00 -1.590887716866798307e+00 3.350000000000000000e+02
-1.585763972864071114e+00 -4.901410582625412182e+00 3.360000000000000000e+02
-2.512233132270171865e-01 -4.433434912557513208e+00 3.360000000000000000e+02
1.083317346410036297e+00 -3.965459242489614233e+00 3.360000000000000000e+02
2.417858006047089781e+00 -3.497483572421715259e+00 3.360000000000000000e+02
3.752398665684142820e+00 -3.029507902353816284e+00 3.360000000000000000e+02
5.086939325321195859e+00 -2.561532232285917310e+00 3.360000000000000000e+02
6.421479984958248899e+00 -2.093556562218018779e+00 3.360000000000000000e+02
7.756020644595301938e+00 -1.625580892150120027e+00 3.360000000000000000e+02
9.090561304232355866e+00 -1.157605222082221275e+00 3.360000000000000000e+02
1.042510196386940891e+01 -6.896295520143218560e-01 3.360000000000000000e+02
-6.845058080115942190e-01 -5.334693077409989215e+00 3.370000000000000000e+02
6.500348516254592646e-01 -4.866717407342090240e+00 3.370000000000000000e+02
1.984575511262512304e+00 -4.398741737274191266e+00 3.370000000000000000e+02
3.319116170899565788e+00 -3.930766067206292291e+00 3.370000000000000000e+02
4.653656830536618827e+00 -3.462790397138393761e+00 3.370000000000000000e+02
5.988197490173671866e+00 -2.994814727070494786e+00 3.370000000000000000e+02
7.322738149810724906e+00 -2.526839057002595812e+00 3.370000000000000000e+02
8.657278809447777945e+00 -2.058863386934697282e+00 3.370000000000000000e+02
9.991819469084830985e+00 -1.590887716866798307e+00 3.370000000000000000e+02
-6.845058080115942190e-01 -5.334693077409989215e+00 3.380000000000000000e+02
6.500348516254592646e-01 -4.866717407342090240e+00 3.380000000000000000e+02
1.984575511262512304e+00 -4.398741737274191266e+00 3.380000000000000000e+02
3.319116170899565788e+00 -3.930766067206292291e+00 3.380000000000000000e+02
4.653656830536618827e+00 -3.462790397138393761e+00 3.380000000000000000e+02
5.988197490173671866e+00 -2.994814727070494786e+00 3.380000000000000000e+02
7.322738149810724906e+00 -2.526839057002595812e+00 3.380000000000000000e+02
8.657278809447777945e+00 -2.058863386934697282e+00 3.380000000000000000e+02
9.991819469084830985e+00 -1.590887716866798307e+00 3.380000000000000000e+02
-6.845058080115942190e-01 -5.334693077409989215e+00 3.390000000000000000e+02
6.500348516254592646e-01 -4.866717407342090240e+00 3.390000000000000000e+02
1.984575511262512304e+00 -4.398741737274191266e+00 3.390000000000000000e+02
3.319116170899565788e+00 -3.930766067206292291e+00 3.390000000000000000e+02
4.653656830536618827e+00 -3.462790397138393761e+00 3.390000000000000000e+02
5.988197490173671866e+00 -2.994814727070494786e+00 3.390000000000000000e+02
7.322738149810724906e+00 -2.526839057002595812e+00 3.390000000000000000e+02
8.657278809447777945e+00 -2.058863386934697282e+00 3.390000000000000000e+02
9.991819469084830985e+00 -1.590887716866798307e+00 3.390000000000000000e+02
-6.845058080115942190e-01 -5.334693077409989215e+00 3.400000000000000000e+02
6.500348516254592646e-01 -4.866717407342090240e+00 3.400000000000000000e+02
1.984575511262512304e+00 -4.398741737274191266e+00 3.400000000000000000e+02
3.319116170899565788e+00 -3.930766067206292291e+00 3.400000000000000000e+02
4.653656830536618827e+00 -3.462790397138393761e+00 3.400000000000000000e+02
5.988197490173671866e+00 -2.994814727070494786e+00 3.400000000000000000e+02
7.322738149810724906e+00 -2.526839057002595812e+00 3.400000000000000000e+02
8.657278809447777945e+00 -2.058863386934697282e+00 3.400000000000000000e+02
9.991819469084830985e+00 -1.590887716866798307e+00 3.400000000000000000e+02
-6.845058080115942190e-01 -5.334693077409989215e+00 3.410000000000000000e+02
6.500348516254592646e-01 -4.866717407342090240e+00 3.410000000000000000e+02
1.984575511262512304e+00 -4.398741737274191266e+00 3.410000000000000000e+02
3.319116170899565788e+00 -3.930766067206292291e+00 3.410000000000000000e+02
4.653656830536618827e+00 -3.462790397138393761e+00 3.410000000000000000e+02
5.988197490173671866e+00 -2.994814727070494786e+00 3.410000000000000000e+02
7.322738149810724906e+00 -2.526839057002595812e+00 3.410000000000000000e+02
8.657278809447777945e+00 -2.058863386934697282e+00 3.410000000000000000e+02
9.991819469084830985e+00 -1.590887716866798307e+00 3.410000000000000000e+02
-6.845058080115942190e-01 -5.334693077409989215e+00 3.420000000000000000e+02
6.500348516254592646e-01 -4.866717407342090240e+00 3.420000000000000000e+02
1.984575511262512304e+00 -4.398741737274191266e+00 3.420000000000000000e+02
3.319116170899565788e+00 -3.930766067206292291e+00 3.420000000000000000e+02
4.653656830536618827e+00 -3.462790397138393761e+00 3.420000000000000000e+02
5.988197490173671866e+00 -2.994814727070494786e+00 3.420000000000000000e+02
7.322738149810724906e+00 -2.526839057002595812e+00 3.420000000000000000e+02
8.657278809447777945e+00 -2.058863386934697282e+00 3.420000000000000000e+02
9.991819469084830985e+00 -1.590887716866798307e+00 3.420000000000000000e+02
-6.845058080115942190e-01 -5.334693077409989215e+00 3.430000000000000000e+02
6.500348516254592646e-01 -4.866717407342090240e+00 3.430000000000000000e+02
1.984575511262512304e+00 -4.398741737274191266e+00 3.430000000000000000e+02
3.319116170899565788e+00 -3.930766067206292291e+00 3.430000000000000000e+02
4.653656830536618827e+00 -3.462790397138393761e+00 3.430000000000000000e+02
5.988197490173671866e+00 -2.994814727070494786e+00 3.430000000000000000e+02
7.322738149810724906e+00 -2.526839057002595812e+00 3.430000000000000000e+02
8.657278809447777945e+00 -2.058863386934697282e+00 3.430000000000000000e+02
9.991819469084830985e+00 -1.590887716866798307e+00 3.430000000000000000e+02
-6.845058080115942190e-01 -5.334693077409989215e+00 3.440000000000000000e+02
6.500348516254592646e-01 -4.866717407342090240e+00 3.440000000000000000e+02
1.984575511262512304e+00 -4.398741737274191266e+00 3.440000000000000000e+02
3.319116170899565788e+00 -3.930766067206292291e+00 3.440000000000000000e+02
4.653656830536618827e+00 -3.462790397138393761e+00 3.440000000000000000e+02
5.988197490173671866e+00 -2.994814727070494786e+00 3.440000000000000000e+02
7.322738149810724906e+00 -2.526839057002595812e+00 3.440000000000000000e+02
8.657278809447777945e+00 -2.058863386934697282e+00 3.440000000000000000e+02
9.991819469084830985e+00 -1.590887716866798307e+00 3.440000000000000000e+02
-6.845058080115942190e-01 -5.334693077409989215e+00 3.450000000000000000e+02
6.500348516254592646e-01 -4.866717407342090240e+00 3.450000000000000000e+02
1.984575511262512304e+00 -4.398741737274191266e+00 3.450000000000000000e+02
3.319116170899565788e+00 -3.930766067206292291e+00 3.450000000000000000e+02
4.653656830536618827e+00 -3.462790397138393761e+00 3.450000000000000000e+02
5.988197490173671866e+00 -2.994814727070494786e+00 3.450000000000000000e+02
7.322738149810724906e+00 -2.526839057002595812e+00 3.450000000000000000e+02
8.657278809447777945e+00 -2.058863386934697282e+00 3.450000000000000000e+02
9.991819469084830985e+00 -1.590887716866798307e+00 3.450000000000000000e+02
-6.845058080115942190e-01 -5.334693077409989215e+00 3.460000000000000000e+02
6.500348516254592646e-01 -4.866717407342090240e+00 3.460000000000000000e+02
1.984575511262512304e+00 -4.398741737274191266e+00 3.460000000000000000e+02
3.319116170899565788e+00 -3.930766067206292291e+00 3.460000000000000000e+02
4.653656830536618827e+00 -3.462790397138393761e+00 3.460000000000000000e+02
5.988197490173671866e+00 -2.994814727070494786e+00 3.460000000000000000e+02
7.322738149810724906e+00 -2.526839057002595812e+00 3.460000000000000000e+02
8.657278809447777945e+00 -2.058863386934697282e+00 3.460000000000000000e+02
9.991819469084830985e+00 -1.590887716866798307e+00 3.460000000000000000e+02
-6.845058080115942190e-01 -5.334693077409989215e+00 3.470000000000000000e+02
6.500348516254592646e-01 -4.866717407342090240e+00 3.470000000000000000e+02
1.984575511262512304e+00 -4.398741737274191266e+00 3.470000000000000000e+02
3.319116170899565788e+00 -3.930766067206292291e+00 3.470000000000000000e+02
4.653656830536618827e+00 -3.462790397138393761e+00 3.470000000000000000e+02
5.988197490173671866e+00 -2.994814727070494786e+00 3.470000000000000000e+02
7.322738149810724906e+00 -2.526839057002595812e+00 3.470000000000000000e+02
8.657278809447777945e+00 -2.058863386934697282e+00 3.470000000000000000e+02
9.991819469084830985e+00 -1.590887716866798307e+00 3.470000000000000000e+02
-6.845058080115942190e-01 -5.334693077409989215e+00 3.480000000000000000e+02
6.500348516254592646e-01 -4.866717407342090240e+00 3.480000000000000000e+02
1.984575511262512304e+00 -4.398741737274191266e+00 3.480000000000000000e+02
3.319116170899565788e+00 -3.930766067206292291e+00 3.480000000000000000e+02
4.653656830536618827e+00 -3.462790397138393761e+00 3.480000000000000000e+02
5.988197490173671866e+00 -2.994814727070494786e+00 3.480000000000000000e+02
7.322738149810724906e+00 -2.526839057002595812e+00 3.480000000000000000e+02
8.657278809447777945e+00 -2.058863386934697282e+00 3.480000000000000000e+02
9.991819469084830985e+00 -1.590887716866798307e+00 3.480000000000000000e+02
-6.845058080115942190e-01 -5.334693077409989215e+00 3.490000000000000000e+02
6.500348516254592646e-01 -4.866717407342090240e+00 3.490000000000000000e+02
1.984575511262512304e+00 -4.398741737274191266e+00 3.490000000000000000e+02
3.319116170899565788e+00 -3.930766067206292291e+00 3.490000000000000000e+02
4.653656830536618827e+00 -3.462790397138393761e+00 3.490000000000000000e+02
5.988197490173671866e+00 -2.994814727070494786e+00 3.490000000000000000e+02
7.322738149810724906e+00 -2.526839057002595812e+00 3.490000000000000000e+02
8.657278809447777945e+00 -2.058863386934697282e+00 3.490000000000000000e+02
9.991819469084830985e+00 -1.590887716866798307e+00 3.490000000000000000e+02
-6.845058080115942190e-01 -5.334693077409989215e+00 3.500000000000000000e+02
6.500348516254592646e-01 -4.866717407342090240e+00 3.500000000000000000e+02
1.984575511262512304e+00 -4.398741737274191266e+00 3.500000000000000000e+02
3.319116170899565788e+00 -3.930766067206292291e+00 3.500000000000000000e+02
4.653656830536618827e+00 -3.462790397138393761e+00 3.500000000000000000e+02
5.988197490173671866e+00 -2.994814727070494786e+00 3.500000000000000000e+02
7.322738149810724906e+00 -2.526839057002595812e+00 3.500000000000000000e+02
8.657278809447777945e+00 -2.058863386934697282e+00 3.500000000000000000e+02
9.991819469084830985e+00 -1.590887716866798307e+00 3.500000000000000000e+02
-6.845058080115942190e-01 -5.334693077409989215e+00 3.510000000000000000e+02
6.500348516254592646e-01 -4.866717407342090240e+00 3.510000000000000000e+02
1.984575511262512304e+00 -4.398741737274191266e+00 3.510000000000000000e+02
3.319116170899565788e+00 -3.930766067206292291e+00 3.510000000000000000e+02
4.653656830536618827e+00 -3.462790397138393761e+00 3.510000000000000000e+02
5.988197490173671866e+00 -2.994814727070494786e+00 3.510000000000000000e+02
7.322738149810724906e+00 -2.526839057002595812e+00 3.510000000000000000e+02
8.657278809447777945e+00 -2.058863386934697282e+00 3.510000000000000000e+02
9.991819469084830985e+00 -1.590887716866798307e+00 3.510000000000000000e+02
-6.845058080115942190e-01 -5.334693077409989215e+00 3.520000000000000000e+02
6.500348516254592646e-01 -4.866717407342090240e+00 3.520000000000000000e+02
1.984575511262512304e+00 -4.398741737274191266e+00 3.520000000000000000e+02
3.319116170899565788e+00 -3.930766067206292291e+00 3.520000000000000000e+02
4.653656830536618827e+00 -3.462790397138393761e+00 3.520000000000000000e+02
5.988197490173671866e+00 -2.994814727070494786e+00 3.520000000000000000e+02
7.322738149810724906e+00 -2.526839057002595812e+00 3.520000000000000000e+02
8.657278809447777945e+00 -2.058863386934697282e+00 3.520000000000000000e+02
9.991819469084830985e+00 -1.590887716866798307e+00 3.520000000000000000e+02
-6.845058080115942190e-01 -5.334693077409989215e+00 3.530000000000000000e+02
6.500348516254592646e-01 -4.866717407342090240e+00 3.530000000000000000e+02
1.984575511262512304e+00 -4.398741737274191266e+00 3.530000000000000000e+02
3.319116170899565788e+00 -3.930766067206292291e+00 3.530000000000000000e+02
4.653656830536618827e+00 -3.462790397138393761e+00 3.530000000000000000e+02
5.988197490173671866e+00 -2.994814727070494786e+00 3.530000000000000000e+02
7.322738149810724906e+00 -2.526839057002595812e+00 3.530000000000000000e+02
8.657278809447777945e+00 -2.058863386934697282e+00 3.530000000000000000e+02
9.991819469084830985e+00 -1.590887716866798307e+00 3.530000000000000000e+02
-6.845058080115942190e-01 -5.334693077409989215e+00 3.540000000000000000e+02
6.500348516254592646e-01 -4.866717407342090240e+00 3.540000000000000000e+02
1.984575511262512304e+00 -4.398741737274191266e+00 3.540000000000000000e+02
3.319116170899565788e+00 -3.930766067206292291e+00 3.540000000000000000e+02
4.653656830536618827e+00 -3.462790397138393761e+00 3.540000000000000000e+02
5.988197490173671866e+00 -2.994814727070494786e+00 3.540000000000000000e+02
7.322738149810724906e+00 -2.526839057002595812e+00 3.540000000000000000e+02
8.657278809447777945e+00 -2.058863386934697282e+00 3.540000000000000000e+02
9.991819469084830985e+00 -1.590887716866798307e+00 3.540000000000000000e+02
-6.845058080115942190e-01 -5.334693077409989215e+00 3.550000000000000000e+02
6.500348516254592646e-01 -4.866717407342090240e+00 3.550000000000000000e+02
1.984575511262512304e+00 -4.398741737274191266e+00 3.550000000000000000e+02
3.319116170899565788e+00 -3.930766067206292291e+00 3.550000000000000000e+02
4.653656830536618827e+00 -3.462790397138393761e+00 3.550000000000000000e+02
5.988197490173671866e+00 -2.994814727070494786e+00 3.550000000000000000e+02
7.322738149810724906e+00 -2.526839057002595812e+00 3.550000000000000000e+02
8.657278809447777945e+00 -2.058863386934697282e+00 3.550000000000000000e+02
9.991819469084830985e+00 -1.590887716866798307e+00 3.550000000000000000e+02
-6.845058080115942190e-01 -5.334693077409989215e+00 3.560000000000000000e+02
6.500348516254592646e-01 -4.866717407342090240e+00 3.560000000000000000e+02
1.984575511262512304e+00 -4.398741737274191266e+00 3.560000000000000000e+02
3.319116170899565788e+00 -3.930766067206292291e+00 3.560000000000000000e+02
4.653656830536618827e+00 -3.462790397138393761e+00 3.560000000000000000e+02
5.988197490173671866e+00 -2.994814727070494786e+00 3.560000000000000000e+02
7.322738149810724906e+00 -2.526839057002595812e+00 3.560000000000000000e+02
8.657278809447777945e+00 -2.058863386934697282e+00 3.560000000000000000e+02
9.991819469084830985e+00 -1.590887716866798307e+00 3.560000000000000000e+02
-6.845058080115942190e-01 -5.334693077409989215e+00 3.570000000000000000e+02
6.500348516254592646e-01 -4.866717407342090240e+00 3.570000000000000000e+02
1.984575511262512304e+00 -4.398741737274191266e+00 3.570000000000000000e+02
3.319116170899565788e+00 -3.930766067206292291e+00 3.570000000000000000e+02
4.653656830536618827e+00 -3.462790397138393761e+00 3.570000000000000000e+02
5.988197490173671866e+00 -2.994814727070494786e+00 3.570000000000000000e+02
7.322738149810724906e+00 -2.526839057002595812e+00 3.570000000000000000e+02
8.657278809447777945e+00 -2.058863386934697282e+00 3.570000000000000000e+02
9.991819469084830985e+00 -1.590887716866798307e+00 3.570000000000000000e+02
-6.845058080115942190e-01 -5.334693077409989215e+00 3.580000000000000000e+02
6.500348516254592646e-01 -4.866717407342090240e+00 3.580000000000000000e+02
1.984575511262512304e+00 -4.398741737274191266e+00 3.580000000000000000e+02
3.319116170899565788e+00 -3.930766067206292291e+00 3.580000000000000000e+02
4.653656830536618827e+00 -3.462790397138393761e+00 3.580000000000000000e+02
5.988197490173671866e+00 -2.994814727070494786e+00 3.580000000000000000e+02
7.322738149810724906e+00 -2.526839057002595812e+00 3.580000000000000000e+02
8.657278809447777945e+00 -2.058863386934697282e+00 3.580000000000000000e+02
9.991819469084830985e+00 -1.590887716866798307e+00 3.580000000000000000e+02
-6.845058080115942190e-01 -5.334693077409989215e+00 3.590000000000000000e+02
6.500348516254592646e-01 -4.866717407342090240e+00 3.590000000000000000e+02
1.984575511262512304e+00 -4.398741737274191266e+00 3.590000000000000000e+02
3.319116170899565788e+00 -3.930766067206292291e+00 3.590000000000000000e+02
4.653656830536618827e+00 -3.462790397138393761e+00 3.590000000000000000e+02
5.988197490173671866e+00 -2.994814727070494786e+00 3.590000000000000000e+02
7.322738149810724906e+00 -2.526839057002595812e+00 3.590000000000000000e+02
8.657278809447777945e+00 -2.058863386934697282e+00 3.590000000000000000e+02
9.991819469084830985e+00 -1.590887716866798307e+00 3.590000000000000000e+02
-6.845058080115942190e-01 -5.334693077409989215e+00 3.600000000000000000e+02
6.500348516254592646e-01 -4.866717407342090240e+00 3.600000000000000000e+02
1.984575511262512304e+00 -4.398741737274191266e+00 3.600000000000000000e+02
3.319116170899565788e+00 -3.930766067206292291e+00 3.600000000000000000e+02
4.653656830536618827e+00 -3.462790397138393761e+00 3.600000000000000000e+02
5.988197490173671866e+00 -2.994814727070494786e+00 3.600000000000000000e+02
7.322738149810724906e+00 -2.526839057002595812e+00 3.600000000000000000e+02
8.657278809447777945e+00 -2.058863386934697282e+00 3.600000000000000000e+02
9.991819469084830985e+00 -1.590887716866798307e+00 3.600000000000000000e+02
-6.845058080115942190e-01 -5.334693077409989215e+00 3.610000000000000000e+02
6.500348516254592646e-01 -4.866717407342090240e+00 3.610000000000000000e+02
1.984575511262512304e+00 -4.398741737274191266e+00 3.610000000000000000e+02
3.319116170899565788e+00 -3.930766067206292291e+00 3.610000000000000000e+02
4.653656830536618827e+00 -3.462790397138393761e+00 3.610000000000000000e+02
5.988197490173671866e+00 -2.994814727070494786e+00 3.610000000000000000e+02
7.322738149810724906e+00 -2.526839057002595812e+00 3.610000000000000000e+02
8.657278809447777945e+00 -2.058863386934697282e+00 3.610000000000000000e+02
9.991819469084830985e+00 -1.590887716866798307e+00 3.610000000000000000e+02
-6.845058080115942190e-01 -5.334693077409989215e+00 3.620000000000000000e+02
6.500348516254592646e-01 -4.866717407342090240e+00 3.620000000000000000e+02
1.984575511262512304e+00 -4.398741737274191266e+00 3.620000000000000000e+02
3.319116170899565788e+00 -3.930766067206292291e+00 3.620000000000000000e+02
4.653656830536618827e+00 -3.462790397138393761e+00 3.620000000000000000e+02
5.988197490173671866e+00 -2.994814727070494786e+00 3.620000000000000000e+02
7.322738149810724906e+00 -2.526839057002595812e+00 3.620000000000000000e+02
8.657278809447777945e+00 -2.058863386934697282e+00 3.620000000000000000e+02
9.991819469084830985e+00 -1.590887716866798307e+00 3.620000000000000000e+02
-6.845058080115942190e-01 -5.334693077409989215e+00 3.630000000000000000e+02
6.500348516254592646e-01 -4.866717407342090240e+00 3.630000000000000000e+02
1.984575511262512304e+00 -4.398741737274191266e+00 3.630000000000000000e+02
3.319116170899565788e+00 -3.930766067206292291e+00 3.630000000000000000e+02
4.653656830536618827e+00 -3.462790397138393761e+00 3.630000000000000000e+02
5.988197490173671866e+00 -2.994814727070494786e+00 3.630000000000000000e+02
7.322738149810724906e+00 -2.526839057002595812e+00 3.630000000000000000e+02
8.657278809447777945e+00 -2.058863386934697282e+00 3.630000000000000000e+02
9.991819469084830985e+00 -1.590887716866798307e+00 3.630000000000000000e+02
-6.845058080115942190e-01 -5.334693077409989215e+00 3.640000000000000000e+02
6.500348516254592646e-01 -4.866717407342090240e+00 3.640000000000000000e+02
1.984575511262512304e+00 -4.398741737274191266e+00 3.640000000000000000e+02
3.319116170899565788e+00 -3.930766067206292291e+00 3.640000000000000000e+02
4.653656830536618827e+00 -3.462790397138393761e+00 3.640000000000000000e+02
5.988197490173671866e+00 -2.994814727070494786e+00 3.640000000000000000e+02
7.322738149810724906e+00 -2.526839057002595812e+00 3.640000000000000000e+02
8.657278809447777945e+00 -2.058863386934697282e+00 3.640000000000000000e+02
9.991819469084830985e+00 -1.590887716866798307e+00 3.640000000000000000e+02
-6.845058080115942190e-01 -5.334693077409989215e+00 3.650000000000000000e+02
6.500348516254592646e-01 -4.866717407342090240e+00 3.650000000000000000e+02
1.984575511262512304e+00 -4.398741737274191266e+00 3.650000000000000000e+02
3.319116170899565788e+00 -3.930766067206292291e+00 3.650000000000000000e+02
4.653656830536618827e+00 -3.462790397138393761e+00 3.650000000000000000e+02
5.988197490173671866e+00 -2.994814727070494786e+00 3.650000000000000000e+02
7.322738149810724906e+00 -2.526839057002595812e+00 3.650000000000000000e+02
8.657278809447777945e+00 -2.058863386934697282e+00 3.650000000000000000e+02
9.991819469084830985e+00 -1.590887716866798307e+00 3.650000000000000000e+02
2.167523568408817880e-01 -5.767975572194566247e+00 3.660000000000000000e+02
1.551293016477935272e+00 -5.299999902126668161e+00 3.660000000000000000e+02
2.885833676114988311e+00 -4.832024232058768298e+00 3.660000000000000000e+02
4.220374335752041794e+00 -4.364048561990869324e+00 3.660000000000000000e+02
5.554914995389094834e+00 -3.896072891922970793e+00 3.660000000000000000e+02
6.889455655026147873e+00 -3.428097221855071819e+00 3.660000000000000000e+02
8.223996314663200025e+00 -2.960121551787173289e+00 3.660000000000000000e+02
9.558536974300253064e+00 -2.492145881719274314e+00 3.660000000000000000e+02
2.167523568408817880e-01 -5.767975572194566247e+00 3.670000000000000000e+02
1.551293016477935272e+00 -5.299999902126668161e+00 3.670000000000000000e+02
2.885833676114988311e+00 -4.832024232058768298e+00 3.670000000000000000e+02
4.220374335752041794e+00 -4.364048561990869324e+00 3.670000000000000000e+02
5.554914995389094834e+00 -3.896072891922970793e+00 3.670000000000000000e+02
6.889455655026147873e+00 -3.428097221855071819e+00 3.670000000000000000e+02
8.223996314663200025e+00 -2.960121551787173289e+00 3.670000000000000000e+02
9.558536974300253064e+00 -2.492145881719274314e+00 3.670000000000000000e+02
2.167523568408817880e-01 -5.767975572194566247e+00 3.680000000000000000e+02
1.551293016477935272e+00 -5.299999902126668161e+00 3.680000000000000000e+02
2.885833676114988311e+00 -4.832024232058768298e+00 3.680000000000000000e+02
4.220374335752041794e+00 -4.364048561990869324e+00 3.680000000000000000e+02
5.554914995389094834e+00 -3.896072891922970793e+00 3.680000000000000000e+02
6.889455655026147873e+00 -3.428097221855071819e+00 3.680000000000000000e+02
8.223996314663200025e+00 -2.960121551787173289e+00 3.680000000000000000e+02
9.558536974300253064e+00 -2.492145881719274314e+00 3.680000000000000000e+02
2.167523568408817880e-01 -5.767975572194566247e+00 3.690000000000000000e+02
1.551293016477935272e+00 -5.299999902126668161e+00 3.690000000000000000e+02
2.885833676114988311e+00 -4.832024232058768298e+00 3.690000000000000000e+02
4.220374335752041794e+00 -4.364048561990869324e+00 3.690000000000000000e+02
5.554914995389094834e+00 -3.896072891922970793e+00 3.690000000000000000e+02
6.889455655026147873e+00 -3.428097221855071819e+00 3.690000000000000000e+02
8.223996314663200025e+00 -2.960121551787173289e+00 3.690000000000000000e+02
9.558536974300253064e+00 -2.492145881719274314e+00 3.690000000000000000e+02
2.167523568408817880e-01 -5.767975572194566247e+00 3.700000000000000000e+02
1.551293016477935272e+00 -5.299999902126668161e+00 3.700000000000000000e+02
2.885833676114988311e+00 -4.832024232058768298e+00 3.700000000000000000e+02
4.220374335752041794e+00 -4.364048561990869324e+00 3.700000000000000000e+02
5.554914995389094834e+00 -3.896072891922970793e+00 3.700000000000000000e+02
6.889455655026147873e+00 -3.428097221855071819e+00 3.700000000000000000e+02
8.223996314663200025e+00 -2.960121551787173289e+00 3.700000000000000000e+02
9.558536974300253064e+00 -2.492145881719274314e+00 3.700000000000000000e+02
2.167523568408817880e-01 -5.767975572194566247e+00 3.710000000000000000e+02
1.551293016477935272e+00 -5.299999902126668161e+00 3.710000000000000000e+02
2.885833676114988311e+00 -4.832024232058768298e+00 3.710000000000000000e+02
4.220374335752041794e+00 -4.364048561990869324e+00 3.710000000000000000e+02
5.554914995389094834e+00 -3.896072891922970793e+00 3.710000000000000000e+02
6.889455655026147873e+00 -3.428097221855071819e+00 3.710000000000000000e+02
8.223996314663200025e+00 -2.960121551787173289e+00 3.710000000000000000e+02
9.558536974300253064e+00 -2.492145881719274314e+00 3.710000000000000000e+02
-6.845058080115942190e-01 -5.334693077409989215e+00 3.720000000000000000e+02
6.500348516254592646e-01 -4.866717407342090240e+00 3.720000000000000000e+02
1.984575511262512304e+00 -4.398741737274191266e+00 3.720000000000000000e+02
3.319116170899565788e+00 -3.930766067206292291e+00 3.720000000000000000e+02
4.653656830536618827e+00 -3.462790397138393761e+00 3.720000000000000000e+02
5.988197490173671866e+00 -2.994814727070494786e+00 3.720000000000000000e+02
7.322738149810724906e+00 -2.526839057002595812e+00 3.720000000000000000e+02
8.657278809447777945e+00 -2.058863386934697282e+00 3.720000000000000000e+02
9.991819469084830985e+00 -1.590887716866798307e+00 3.720000000000000000e+02
-6.845058080115942190e-01 -5.334693077409989215e+00 3.730000000000000000e+02
6.500348516254592646e-01 -4.866717407342090240e+00 3.730000000000000000e+02
1.984575511262512304e+00 -4.398741737274191266e+00 3.730000000000000000e+02
3.319116170899565788e+00 -3.930766067206292291e+00 3.730000000000000000e+02
4.653656830536618827e+00 -3.462790397138393761e+00 3.730000000000000000e+02
5.988197490173671866e+00 -2.994814727070494786e+00 3.730000000000000000e+02
7.322738149810724906e+00 -2.526839057002595812e+00 3.730000000000000000e+02
8.657278809447777945e+00 -2.058863386934697282e+00 3.730000000000000000e+02
9.991819469084830985e+00 -1.590887716866798307e+00 3.730000000000000000e+02
-6.845058080115942190e-01 -5.334693077409989215e+00 3.740000000000000000e+02
6.500348516254592646e-01 -4.866717407342090240e+00 3.740000000000000000e+02
1.984575511262512304e+00 -4.398741737274191266e+00 3.740000000000000000e+02
3.319116170899565788e+00 -3.930766067206292291e+00 3.740000000000000000e+02
4.653656830536618827e+00 -3.462790397138393761e+00 3.740000000000000000e+02
5.988197490173671866e+00 -2.994814727070494786e+00 3.740000000000000000e+02
7.322738149810724906e+00 -2.526839057002595812e+00 3.740000000000000000e+02
8.657278809447777945e+00 -2.058863386934697282e+00 3.740000000000000000e+02
9.991819469084830985e+00 -1.590887716866798307e+00 3.740000000000000000e+02
-6.845058080115942190e-01 -5.334693077409989215e+00 3.750000000000000000e+02
6.500348516254592646e-01 -4.866717407342090240e+00 3.750000000000000000e+02
1.984575511262512304e+00 -4.398741737274191266e+00 3.750000000000000000e+02
3.319116170899565788e+00 -3.930766067206292291e+00 3.750000000000000000e+02
4.653656830536618827e+00 -3.462790397138393761e+00 3.750000000000000000e+02
5.988197490173671866e+00 -2.994814727070494786e+00 3.750000000000000000e+02
7.322738149810724906e+00 -2.526839057002595812e+00 3.750000000000000000e+02
8.657278809447777945e+00 -2.058863386934697282e+00 3.750000000000000000e+02
9.991819469084830985e+00 -1.590887716866798307e+00 3.750000000000000000e+02
2.167523568408817880e-01 -5.767975572194566247e+00 3.760000000000000000e+02
1.551293016477935272e+00 -5.299999902126668161e+00 3.760000000000000000e+02
2.885833676114988311e+00 -4.832024232058768298e+00 3.760000000000000000e+02
4.220374335752041794e+00 -4.364048561990869324e+00 3.760000000000000000e+02
5.554914995389094834e+00 -3.896072891922970793e+00 3.760000000000000000e+02
