3.225481439950948381e+00 -6.007723243193741069e+00 3.160000000000000000e+02
3.616996163805010767e+00 -7.366662616751471049e+00 3.160000000000000000e+02
4.008510887659072708e+00 -8.725601990309202804e+00 3.160000000000000000e+02
4.400025611513135537e+00 -1.008454136386693278e+01 3.160000000000000000e+02
4.791540335367198367e+00 -1.144348073742466276e+01 3.160000000000000000e+02
5.183055059221260308e+00 -1.280242011098239274e+01 3.160000000000000000e+02
5.574569783075322249e+00 -1.416135948454012450e+01 3.160000000000000000e+02
2.442451992242823167e+00 -3.289844496078279334e+00 3.170000000000000000e+02
2.833966716096885552e+00 -4.648783869636010202e+00 3.170000000000000000e+02
3.225481439950948381e+00 -6.007723243193741069e+00 3.170000000000000000e+02
3.616996163805010767e+00 -7.366662616751471049e+00 3.170000000000000000e+02
4.008510887659072708e+00 -8.725601990309202804e+00 3.170000000000000000e+02
4.400025611513135537e+00 -1.008454136386693278e+01 3.170000000000000000e+02
4.791540335367198367e+00 -1.144348073742466276e+01 3.170000000000000000e+02
5.183055059221260308e+00 -1.280242011098239274e+01 3.170000000000000000e+02
5.574569783075322249e+00 -1.416135948454012450e+01 3.170000000000000000e+02
2.442451992242823167e+00 -3.289844496078279334e+00 3.180000000000000000e+02
2.833966716096885552e+00 -4.648783869636010202e+00 3.180000000000000000e+02
3.225481439950948381e+00 -6.007723243193741069e+00 3.180000000000000000e+02
3.616996163805010767e+00 -7.366662616751471049e+00 3.180000000000000000e+02
4.008510887659072708e+00 -8.725601990309202804e+00 3.180000000000000000e+02
4.400025611513135537e+00 -1.008454136386693278e+01 3.180000000000000000e+02
4.791540335367198367e+00 -1.144348073742466276e+01 3.180000000000000000e+02
5.183055059221260308e+00 -1.280242011098239274e+01 3.180000000000000000e+02
5.574569783075322249e+00 -1.416135948454012450e+01 3.180000000000000000e+02
5.966084506929385078e+00 -1.552029885809785448e+01 3.180000000000000000e+02
2.442451992242823167e+00 -3.289844496078279334e+00 3.190000000000000000e+02
2.833966716096885552e+00 -4.648783869636010202e+00 3.190000000000000000e+02
3.225481439950948381e+00 -6.007723243193741069e+00 3.190000000000000000e+02
3.616996163805010767e+00 -7.366662616751471049e+00 3.190000000000000000e+02
4.008510887659072708e+00 -8.725601990309202804e+00 3.190000000000000000e+02
4.400025611513135537e+00 -1.008454136386693278e+01 3.190000000000000000e+02
4.791540335367198367e+00 -1.144348073742466276e+01 3.190000000000000000e+02
5.183055059221260308e+00 -1.280242011098239274e+01 3.190000000000000000e+02
5.574569783075322249e+00 -1.416135948454012450e+01 3.190000000000000000e+02
5.966084506929385078e+00 -1.552029885809785448e+01 3.190000000000000000e+02
2.442451992242823167e+00 -3.289844496078279334e+00 3.200000000000000000e+02
2.833966716096885552e+00 -4.648783869636010202e+00 3.200000000000000000e+02
3.225481439950948381e+00 -6.007723243193741069e+00 3.200000000000000000e+02
3.616996163805010767e+00 -7.366662616751471049e+00 3.200000000000000000e+02
4.008510887659072708e+00 -8.725601990309202804e+00 3.200000000000000000e+02
4.400025611513135537e+00 -1.008454136386693278e+01 3.200000000000000000e+02
4.791540335367198367e+00 -1.144348073742466276e+01 3.200000000000000000e+02
5.183055059221260308e+00 -1.280242011098239274e+01 3.200000000000000000e+02
5.574569783075322249e+00 -1.416135948454012450e+01 3.200000000000000000e+02
5.966084506929385078e+00 -1.552029885809785448e+01 3.200000000000000000e+02
2.442451992242823167e+00 -3.289844496078279334e+00 3.210000000000000000e+02
2.833966716096885552e+00 -4.648783869636010202e+00 3.210000000000000000e+02
3.225481439950948381e+00 -6.007723243193741069e+00 3.210000000000000000e+02
3.616996163805010767e+00 -7.366662616751471049e+00 3.210000000000000000e+02
4.008510887659072708e+00 -8.725601990309202804e+00 3.210000000000000000e+02
4.400025611513135537e+00 -1.008454136386693278e+01 3.210000000000000000e+02
4.791540335367198367e+00 -1.144348073742466276e+01 3.210000000000000000e+02
5.183055059221260308e+00 -1.280242011098239274e+01 3.210000000000000000e+02
5.574569783075322249e+00 -1.416135948454012450e+01 3.210000000000000000e+02
5.966084506929385078e+00 -1.552029885809785448e+01 3.210000000000000000e+02
2.442451992242823167e+00 -3.289844496078279334e+00 3.220000000000000000e+02
2.833966716096885552e+00 -4.648783869636010202e+00 3.220000000000000000e+02
3.225481439950948381e+00 -6.007723243193741069e+00 3.220000000000000000e+02
3.616996163805010767e+00 -7.366662616751471049e+00 3.220000000000000000e+02
4.008510887659072708e+00 -8.725601990309202804e+00 3.220000000000000000e+02
4.400025611513135537e+00 -1.008454136386693278e+01 3.220000000000000000e+02
4.791540335367198367e+00 -1.144348073742466276e+01 3.220000000000000000e+02
5.183055059221260308e+00 -1.280242011098239274e+01 3.220000000000000000e+02
5.574569783075322249e+00 -1.416135948454012450e+01 3.220000000000000000e+02
5.966084506929385078e+00 -1.552029885809785448e+01 3.220000000000000000e+02
2.442451992242823167e+00 -3.289844496078279334e+00 3.230000000000000000e+02
2.833966716096885552e+00 -4.648783869636010202e+00 3.230000000000000000e+02
3.225481439950948381e+00 -6.007723243193741069e+00 3.230000000000000000e+02
3.616996163805010767e+00 -7.366662616751471049e+00 3.230000000000000000e+02
4.008510887659072708e+00 -8.725601990309202804e+00 3.230000000000000000e+02
4.400025611513135537e+00 -1.008454136386693278e+01 3.230000000000000000e+02
4.791540335367198367e+00 -1.144348073742466276e+01 3.230000000000000000e+02
5.183055059221260308e+00 -1.280242011098239274e+01 3.230000000000000000e+02
5.574569783075322249e+00 -1.416135948454012450e+01 3.230000000000000000e+02
5.966084506929385078e+00 -1.552029885809785448e+01 3.230000000000000000e+02
2.442451992242823167e+00 -3.289844496078279334e+00 3.240000000000000000e+02
2.833966716096885552e+00 -4.648783869636010202e+00 3.240000000000000000e+02
3.225481439950948381e+00 -6.007723243193741069e+00 3.240000000000000000e+02
3.616996163805010767e+00 -7.366662616751471049e+00 3.240000000000000000e+02
4.008510887659072708e+00 -8.725601990309202804e+00 3.240000000000000000e+02
4.400025611513135537e+00 -1.008454136386693278e+01 3.240000000000000000e+02
4.791540335367198367e+00 -1.144348073742466276e+01 3.240000000000000000e+02
5.183055059221260308e+00 -1.280242011098239274e+01 3.240000000000000000e+02
5.574569783075322249e+00 -1.416135948454012450e+01 3.240000000000000000e+02
5.966084506929385078e+00 -1.552029885809785448e+01 3.240000000000000000e+02
2.442451992242823167e+00 -3.289844496078279334e+00 3.250000000000000000e+02
2.833966716096885552e+00 -4.648783869636010202e+00 3.250000000000000000e+02
3.225481439950948381e+00 -6.007723243193741069e+00 3.250000000000000000e+02
3.616996163805010767e+00 -7.366662616751471049e+00 3.250000000000000000e+02
4.008510887659072708e+00 -8.725601990309202804e+00 3.250000000000000000e+02
4.400025611513135537e+00 -1.008454136386693278e+01 3.250000000000000000e+02
4.791540335367198367e+00 -1.144348073742466276e+01 3.250000000000000000e+02
5.183055059221260308e+00 -1.280242011098239274e+01 3.250000000000000000e+02
5.574569783075322249e+00 -1.416135948454012450e+01 3.250000000000000000e+02
5.966084506929385078e+00 -1.552029885809785448e+01 3.250000000000000000e+02
2.442451992242823167e+00 -3.289844496078279334e+00 3.260000000000000000e+02
2.833966716096885552e+00 -4.648783869636010202e+00 3.260000000000000000e+02
3.225481439950948381e+00 -6.007723243193741069e+00 3.260000000000000000e+02
3.616996163805010767e+00 -7.366662616751471049e+00 3.260000000000000000e+02
4.008510887659072708e+00 -8.725601990309202804e+00 3.260000000000000000e+02
4.400025611513135537e+00 -1.008454136386693278e+01 3.260000000000000000e+02
4.791540335367198367e+00 -1.144348073742466276e+01 3.260000000000000000e+02
5.183055059221260308e+00 -1.280242011098239274e+01 3.260000000000000000e+02
5.574569783075322249e+00 -1.416135948454012450e+01 3.260000000000000000e+02
5.966084506929385078e+00 -1.552029885809785448e+01 3.260000000000000000e+02
2.442451992242823167e+00 -3.289844496078279334e+00 3.270000000000000000e+02
2.833966716096885552e+00 -4.648783869636010202e+00 3.270000000000000000e+02
3.225481439950948381e+00 -6.007723243193741069e+00 3.270000000000000000e+02
3.616996163805010767e+00 -7.366662616751471049e+00 3.270000000000000000e+02
4.008510887659072708e+00 -8.725601990309202804e+00 3.270000000000000000e+02
4.400025611513135537e+00 -1.008454136386693278e+01 3.270000000000000000e+02
4.791540335367198367e+00 -1.144348073742466276e+01 3.270000000000000000e+02
5.183055059221260308e+00 -1.280242011098239274e+01 3.270000000000000000e+02
5.574569783075322249e+00 -1.416135948454012450e+01 3.270000000000000000e+02
5.966084506929385078e+00 -1.552029885809785448e+01 3.270000000000000000e+02
2.442451992242823167e+00 -3.289844496078279334e+00 3.280000000000000000e+02
2.833966716096885552e+00 -4.648783869636010202e+00 3.280000000000000000e+02
3.225481439950948381e+00 -6.007723243193741069e+00 3.280000000000000000e+02
3.616996163805010767e+00 -7.366662616751471049e+00 3.280000000000000000e+02
4.008510887659072708e+00 -8.725601990309202804e+00 3.280000000000000000e+02
4.400025611513135537e+00 -1.008454136386693278e+01 3.280000000000000000e+02
4.791540335367198367e+00 -1.144348073742466276e+01 3.280000000000000000e+02
5.183055059221260308e+00 -1.280242011098239274e+01 3.280000000000000000e+02
5.574569783075322249e+00 -1.416135948454012450e+01 3.280000000000000000e+02
5.966084506929385078e+00 -1.552029885809785448e+01 3.280000000000000000e+02
2.442451992242823167e+00 -3.289844496078279334e+00 3.290000000000000000e+02
2.833966716096885552e+00 -4.648783869636010202e+00 3.290000000000000000e+02
3.225481439950948381e+00 -6.007723243193741069e+00 3.290000000000000000e+02
3.616996163805010767e+00 -7.366662616751471049e+00 3.290000000000000000e+02
4.008510887659072708e+00 -8.725601990309202804e+00 3.290000000000000000e+02
4.400025611513135537e+00 -1.008454136386693278e+01 3.290000000000000000e+02
4.791540335367198367e+00 -1.144348073742466276e+01 3.290000000000000000e+02
5.183055059221260308e+00 -1.280242011098239274e+01 3.290000000000000000e+02
5.574569783075322249e+00 -1.416135948454012450e+01 3.290000000000000000e+02
5.966084506929385078e+00 -1.552029885809785448e+01 3.290000000000000000e+02
2.442451992242823167e+00 -3.289844496078279334e+00 3.300000000000000000e+02
2.833966716096885552e+00 -4.648783869636010202e+00 3.300000000000000000e+02
3.225481439950948381e+00 -6.007723243193741069e+00 3.300000000000000000e+02
3.616996163805010767e+00 -7.366662616751471049e+00 3.300000000000000000e+02
4.008510887659072708e+00 -8.725601990309202804e+00 3.300000000000000000e+02
4.400025611513135537e+00 -1.008454136386693278e+01 3.300000000000000000e+02
4.791540335367198367e+00 -1.144348073742466276e+01 3.300000000000000000e+02
5.183055059221260308e+00 -1.280242011098239274e+01 3.300000000000000000e+02
5.574569783075322249e+00 -1.416135948454012450e+01 3.300000000000000000e+02
5.966084506929385078e+00 -1.552029885809785448e+01 3.300000000000000000e+02
2.442451992242823167e+00 -3.289844496078279334e+00 3.310000000000000000e+02
2.833966716096885552e+00 -4.648783869636010202e+00 3.310000000000000000e+02
3.225481439950948381e+00 -6.007723243193741069e+00 3.310000000000000000e+02
3.616996163805010767e+00 -7.366662616751471049e+00 3.310000000000000000e+02
4.008510887659072708e+00 -8.725601990309202804e+00 3.310000000000000000e+02
4.400025611513135537e+00 -1.008454136386693278e+01 3.310000000000000000e+02
4.791540335367198367e+00 -1.144348073742466276e+01 3.310000000000000000e+02
5.183055059221260308e+00 -1.280242011098239274e+01 3.310000000000000000e+02
5.574569783075322249e+00 -1.416135948454012450e+01 3.310000000000000000e+02
5.966084506929385078e+00 -1.552029885809785448e+01 3.310000000000000000e+02
1.958739667390989148e+00 -4.165071544784176183e+00 3.320000000000000000e+02
2.350254391245051533e+00 -5.524010918341907050e+00 3.320000000000000000e+02
2.741769115099113918e+00 -6.882950291899637918e+00 3.320000000000000000e+02
3.133283838953176748e+00 -8.241889665457367897e+00 3.320000000000000000e+02
3.524798562807238689e+00 -9.600829039015097877e+00 3.320000000000000000e+02
3.916313286661301518e+00 -1.095976841257282963e+01 3.320000000000000000e+02
4.307828010515363459e+00 -1.231870778613055961e+01 3.320000000000000000e+02
4.699342734369426289e+00 -1.367764715968829137e+01 3.320000000000000000e+02
5.090857458223489118e+00 -1.503658653324601957e+01 3.320000000000000000e+02
1.958739667390989148e+00 -4.165071544784176183e+00 3.330000000000000000e+02
2.350254391245051533e+00 -5.524010918341907050e+00 3.330000000000000000e+02
2.741769115099113918e+00 -6.882950291899637918e+00 3.330000000000000000e+02
3.133283838953176748e+00 -8.241889665457367897e+00 3.330000000000000000e+02
3.524798562807238689e+00 -9.600829039015097877e+00 3.330000000000000000e+02
3.916313286661301518e+00 -1.095976841257282963e+01 3.330000000000000000e+02
4.307828010515363459e+00 -1.231870778613055961e+01 3.330000000000000000e+02
4.699342734369426289e+00 -1.367764715968829137e+01 3.330000000000000000e+02
5.090857458223489118e+00 -1.503658653324601957e+01 3.330000000000000000e+02
1.958739667390989148e+00 -4.165071544784176183e+00 3.340000000000000000e+02
2.350254391245051533e+00 -5.524010918341907050e+00 3.340000000000000000e+02
2.741769115099113918e+00 -6.882950291899637918e+00 3.340000000000000000e+02
3.133283838953176748e+00 -8.241889665457367897e+00 3.340000000000000000e+02
3.524798562807238689e+00 -9.600829039015097877e+00 3.340000000000000000e+02
3.916313286661301518e+00 -1.095976841257282963e+01 3.340000000000000000e+02
4.307828010515363459e+00 -1.231870778613055961e+01 3.340000000000000000e+02
4.699342734369426289e+00 -1.367764715968829137e+01 3.340000000000000000e+02
5.090857458223489118e+00 -1.503658653324601957e+01 3.340000000000000000e+02
2.442451992242823167e+00 -3.289844496078279334e+00 3.350000000000000000e+02
2.833966716096885552e+00 -4.648783869636010202e+00 3.350000000000000000e+02
3.225481439950948381e+00 -6.007723243193741069e+00 3.350000000000000000e+02
3.616996163805010767e+00 -7.366662616751471049e+00 3.350000000000000000e+02
4.008510887659072708e+00 -8.725601990309202804e+00 3.350000000000000000e+02
4.400025611513135537e+00 -1.008454136386693278e+01 3.350000000000000000e+02
4.791540335367198367e+00 -1.144348073742466276e+01 3.350000000000000000e+02
5.183055059221260308e+00 -1.280242011098239274e+01 3.350000000000000000e+02
5.574569783075322249e+00 -1.416135948454012450e+01 3.350000000000000000e+02
5.966084506929385078e+00 -1.552029885809785448e+01 3.350000000000000000e+02
2.442451992242823167e+00 -3.289844496078279334e+00 3.360000000000000000e+02
2.833966716096885552e+00 -4.648783869636010202e+00 3.360000000000000000e+02
3.225481439950948381e+00 -6.007723243193741069e+00 3.360000000000000000e+02
3.616996163805010767e+00 -7.366662616751471049e+00 3.360000000000000000e+02
4.008510887659072708e+00 -8.725601990309202804e+00 3.360000000000000000e+02
4.400025611513135537e+00 -1.008454136386693278e+01 3.360000000000000000e+02
4.791540335367198367e+00 -1.144348073742466276e+01 3.360000000000000000e+02
5.183055059221260308e+00 -1.280242011098239274e+01 3.360000000000000000e+02
5.574569783075322249e+00 -1.416135948454012450e+01 3.360000000000000000e+02
5.966084506929385078e+00 -1.552029885809785448e+01 3.360000000000000000e+02
2.442451992242823167e+00 -3.289844496078279334e+00 3.370000000000000000e+02
2.833966716096885552e+00 -4.648783869636010202e+00 3.370000000000000000e+02
3.225481439950948381e+00 -6.007723243193741069e+00 3.370000000000000000e+02
3.616996163805010767e+00 -7.366662616751471049e+00 3.370000000000000000e+02
4.008510887659072708e+00 -8.725601990309202804e+00 3.370000000000000000e+02
4.400025611513135537e+00 -1.008454136386693278e+01 3.370000000000000000e+02
4.791540335367198367e+00 -1.144348073742466276e+01 3.370000000000000000e+02
5.183055059221260308e+00 -1.280242011098239274e+01 3.370000000000000000e+02
5.574569783075322249e+00 -1.416135948454012450e+01 3.370000000000000000e+02
5.966084506929385078e+00 -1.552029885809785448e+01 3.370000000000000000e+02
1.958739667390989148e+00 -4.165071544784176183e+00 3.380000000000000000e+02
2.350254391245051533e+00 -5.524010918341907050e+00 3.380000000000000000e+02
2.741769115099113918e+00 -6.882950291899637918e+00 3.380000000000000000e+02
3.133283838953176748e+00 -8.241889665457367897e+00 3.380000000000000000e+02
3.524798562807238689e+00 -9.600829039015097877e+00 3.380000000000000000e+02
3.916313286661301518e+00 -1.095976841257282963e+01 3.380000000000000000e+02
4.307828010515363459e+00 -1.231870778613055961e+01 3.380000000000000000e+02
4.699342734369426289e+00 -1.367764715968829137e+01 3.380000000000000000e+02
5.090857458223489118e+00 -1.503658653324601957e+01 3.380000000000000000e+02
1.958739667390989148e+00 -4.165071544784176183e+00 3.390000000000000000e+02
2.350254391245051533e+00 -5.524010918341907050e+00 3.390000000000000000e+02
2.741769115099113918e+00 -6.882950291899637918e+00 3.390000000000000000e+02
3.133283838953176748e+00 -8.241889665457367897e+00 3.390000000000000000e+02
3.524798562807238689e+00 -9.600829039015097877e+00 3.390000000000000000e+02
3.916313286661301518e+00 -1.095976841257282963e+01 3.390000000000000000e+02
4.307828010515363459e+00 -1.231870778613055961e+01 3.390000000000000000e+02
4.699342734369426289e+00 -1.367764715968829137e+01 3.390000000000000000e+02
5.090857458223489118e+00 -1.503658653324601957e+01 3.390000000000000000e+02
1.958739667390989148e+00 -4.165071544784176183e+00 3.400000000000000000e+02
2.350254391245051533e+00 -5.524010918341907050e+00 3.400000000000000000e+02
2.741769115099113918e+00 -6.882950291899637918e+00 3.400000000000000000e+02
3.133283838953176748e+00 -8.241889665457367897e+00 3.400000000000000000e+02
3.524798562807238689e+00 -9.600829039015097877e+00 3.400000000000000000e+02
3.916313286661301518e+00 -1.095976841257282963e+01 3.400000000000000000e+02
4.307828010515363459e+00 -1.231870778613055961e+01 3.400000000000000000e+02
4.699342734369426289e+00 -1.367764715968829137e+01 3.400000000000000000e+02
5.090857458223489118e+00 -1.503658653324601957e+01 3.400000000000000000e+02
1.958739667390989148e+00 -4.165071544784176183e+00 3.410000000000000000e+02
2.350254391245051533e+00 -5.524010918341907050e+00 3.410000000000000000e+02
2.741769115099113918e+00 -6.882950291899637918e+00 3.410000000000000000e+02
3.133283838953176748e+00 -8.241889665457367897e+00 3.410000000000000000e+02
3.524798562807238689e+00 -9.600829039015097877e+00 3.410000000000000000e+02
3.916313286661301518e+00 -1.095976841257282963e+01 3.410000000000000000e+02
4.307828010515363459e+00 -1.231870778613055961e+01 3.410000000000000000e+02
4.699342734369426289e+00 -1.367764715968829137e+01 3.410000000000000000e+02
5.090857458223489118e+00 -1.503658653324601957e+01 3.410000000000000000e+02
1.958739667390989148e+00 -4.165071544784176183e+00 3.420000000000000000e+02
2.350254391245051533e+00 -5.524010918341907050e+00 3.420000000000000000e+02
2.741769115099113918e+00 -6.882950291899637918e+00 3.420000000000000000e+02
3.133283838953176748e+00 -8.241889665457367897e+00 3.420000000000000000e+02
3.524798562807238689e+00 -9.600829039015097877e+00 3.420000000000000000e+02
3.916313286661301518e+00 -1.095976841257282963e+01 3.420000000000000000e+02
4.307828010515363459e+00 -1.231870778613055961e+01 3.420000000000000000e+02
4.699342734369426289e+00 -1.367764715968829137e+01 3.420000000000000000e+02
5.090857458223489118e+00 -1.503658653324601957e+01 3.420000000000000000e+02
1.958739667390989148e+00 -4.165071544784176183e+00 3.430000000000000000e+02
2.350254391245051533e+00 -5.524010918341907050e+00 3.430000000000000000e+02
2.741769115099113918e+00 -6.882950291899637918e+00 3.430000000000000000e+02
3.133283838953176748e+00 -8.241889665457367897e+00 3.430000000000000000e+02
3.524798562807238689e+00 -9.600829039015097877e+00 3.430000000000000000e+02
3.916313286661301518e+00 -1.095976841257282963e+01 3.430000000000000000e+02
4.307828010515363459e+00 -1.231870778613055961e+01 3.430000000000000000e+02
4.699342734369426289e+00 -1.367764715968829137e+01 3.430000000000000000e+02
5.090857458223489118e+00 -1.503658653324601957e+01 3.430000000000000000e+02
1.475027342539155129e+00 -5.040298593490073031e+00 3.440000000000000000e+02
1.866542066393217514e+00 -6.399237967047803011e+00 3.440000000000000000e+02
2.258056790247280343e+00 -7.758177340605533878e+00 3.440000000000000000e+02
2.649571514101342729e+00 -9.117116714163264746e+00 3.440000000000000000e+02
3.041086237955404670e+00 -1.047605608772099473e+01 3.440000000000000000e+02
3.432600961809467499e+00 -1.183499546127872648e+01 3.440000000000000000e+02
3.824115685663529440e+00 -1.319393483483645646e+01 3.440000000000000000e+02
4.215630409517592270e+00 -1.455287420839418644e+01 3.440000000000000000e+02
1.958739667390989148e+00 -4.165071544784176183e+00 3.450000000000000000e+02
2.350254391245051533e+00 -5.524010918341907050e+00 3.450000000000000000e+02
2.741769115099113918e+00 -6.882950291899637918e+00 3.450000000000000000e+02
3.133283838953176748e+00 -8.241889665457367897e+00 3.450000000000000000e+02
3.524798562807238689e+00 -9.600829039015097877e+00 3.450000000000000000e+02
3.916313286661301518e+00 -1.095976841257282963e+01 3.450000000000000000e+02
4.307828010515363459e+00 -1.231870778613055961e+01 3.450000000000000000e+02
4.699342734369426289e+00 -1.367764715968829137e+01 3.450000000000000000e+02
5.090857458223489118e+00 -1.503658653324601957e+01 3.450000000000000000e+02
5.482372182077551059e+00 -1.639552590680375133e+01 3.450000000000000000e+02
1.958739667390989148e+00 -4.165071544784176183e+00 3.460000000000000000e+02
2.350254391245051533e+00 -5.524010918341907050e+00 3.460000000000000000e+02
2.741769115099113918e+00 -6.882950291899637918e+00 3.460000000000000000e+02
3.133283838953176748e+00 -8.241889665457367897e+00 3.460000000000000000e+02
3.524798562807238689e+00 -9.600829039015097877e+00 3.460000000000000000e+02
3.916313286661301518e+00 -1.095976841257282963e+01 3.460000000000000000e+02
4.307828010515363459e+00 -1.231870778613055961e+01 3.460000000000000000e+02
4.699342734369426289e+00 -1.367764715968829137e+01 3.460000000000000000e+02
5.090857458223489118e+00 -1.503658653324601957e+01 3.460000000000000000e+02
1.958739667390989148e+00 -4.165071544784176183e+00 3.470000000000000000e+02
2.350254391245051533e+00 -5.524010918341907050e+00 3.470000000000000000e+02
2.741769115099113918e+00 -6.882950291899637918e+00 3.470000000000000000e+02
3.133283838953176748e+00 -8.241889665457367897e+00 3.470000000000000000e+02
3.524798562807238689e+00 -9.600829039015097877e+00 3.470000000000000000e+02
3.916313286661301518e+00 -1.095976841257282963e+01 3.470000000000000000e+02
4.307828010515363459e+00 -1.231870778613055961e+01 3.470000000000000000e+02
4.699342734369426289e+00 -1.367764715968829137e+01 3.470000000000000000e+02
5.090857458223489118e+00 -1.503658653324601957e+01 3.470000000000000000e+02
5.482372182077551059e+00 -1.639552590680375133e+01 3.470000000000000000e+02
1.958739667390989148e+00 -4.165071544784176183e+00 3.480000000000000000e+02
2.350254391245051533e+00 -5.524010918341907050e+00 3.480000000000000000e+02
2.741769115099113918e+00 -6.882950291899637918e+00 3.480000000000000000e+02
3.133283838953176748e+00 -8.241889665457367897e+00 3.480000000000000000e+02
3.524798562807238689e+00 -9.600829039015097877e+00 3.480000000000000000e+02
3.916313286661301518e+00 -1.095976841257282963e+01 3.480000000000000000e+02
4.307828010515363459e+00 -1.231870778613055961e+01 3.480000000000000000e+02
4.699342734369426289e+00 -1.367764715968829137e+01 3.480000000000000000e+02
5.090857458223489118e+00 -1.503658653324601957e+01 3.480000000000000000e+02
5.482372182077551059e+00 -1.639552590680375133e+01 3.480000000000000000e+02
1.958739667390989148e+00 -4.165071544784176183e+00 3.490000000000000000e+02
2.350254391245051533e+00 -5.524010918341907050e+00 3.490000000000000000e+02
2.741769115099113918e+00 -6.882950291899637918e+00 3.490000000000000000e+02
3.133283838953176748e+00 -8.241889665457367897e+00 3.490000000000000000e+02
3.524798562807238689e+00 -9.600829039015097877e+00 3.490000000000000000e+02
3.916313286661301518e+00 -1.095976841257282963e+01 3.490000000000000000e+02
4.307828010515363459e+00 -1.231870778613055961e+01 3.490000000000000000e+02
4.699342734369426289e+00 -1.367764715968829137e+01 3.490000000000000000e+02
5.090857458223489118e+00 -1.503658653324601957e+01 3.490000000000000000e+02
5.482372182077551059e+00 -1.639552590680375133e+01 3.490000000000000000e+02
1.958739667390989148e+00 -4.165071544784176183e+00 3.500000000000000000e+02
2.350254391245051533e+00 -5.524010918341907050e+00 3.500000000000000000e+02
2.741769115099113918e+00 -6.882950291899637918e+00 3.500000000000000000e+02
3.133283838953176748e+00 -8.241889665457367897e+00 3.500000000000000000e+02
3.524798562807238689e+00 -9.600829039015097877e+00 3.500000000000000000e+02
3.916313286661301518e+00 -1.095976841257282963e+01 3.500000000000000000e+02
4.307828010515363459e+00 -1.231870778613055961e+01 3.500000000000000000e+02
4.699342734369426289e+00 -1.367764715968829137e+01 3.500000000000000000e+02
5.090857458223489118e+00 -1.503658653324601957e+01 3.500000000000000000e+02
5.482372182077551059e+00 -1.639552590680375133e+01 3.500000000000000000e+02
1.958739667390989148e+00 -4.165071544784176183e+00 3.510000000000000000e+02
2.350254391245051533e+00 -5.524010918341907050e+00 3.510000000000000000e+02
2.741769115099113918e+00 -6.882950291899637918e+00 3.510000000000000000e+02
3.133283838953176748e+00 -8.241889665457367897e+00 3.510000000000000000e+02
3.524798562807238689e+00 -9.600829039015097877e+00 3.510000000000000000e+02
3.916313286661301518e+00 -1.095976841257282963e+01 3.510000000000000000e+02
4.307828010515363459e+00 -1.231870778613055961e+01 3.510000000000000000e+02
4.699342734369426289e+00 -1.367764715968829137e+01 3.510000000000000000e+02
5.090857458223489118e+00 -1.503658653324601957e+01 3.510000000000000000e+02
5.482372182077551059e+00 -1.639552590680375133e+01 3.510000000000000000e+02
1.958739667390989148e+00 -4.165071544784176183e+00 3.520000000000000000e+02
2.350254391245051533e+00 -5.524010918341907050e+00 3.520000000000000000e+02
2.741769115099113918e+00 -6.882950291899637918e+00 3.520000000000000000e+02
3.133283838953176748e+00 -8.241889665457367897e+00 3.520000000000000000e+02
3.524798562807238689e+00 -9.600829039015097877e+00 3.520000000000000000e+02
3.916313286661301518e+00 -1.095976841257282963e+01 3.520000000000000000e+02
4.307828010515363459e+00 -1.231870778613055961e+01 3.520000000000000000e+02
4.699342734369426289e+00 -1.367764715968829137e+01 3.520000000000000000e+02
5.090857458223489118e+00 -1.503658653324601957e+01 3.520000000000000000e+02
1.958739667390989148e+00 -4.165071544784176183e+00 3.530000000000000000e+02
2.350254391245051533e+00 -5.524010918341907050e+00 3.530000000000000000e+02
2.741769115099113918e+00 -6.882950291899637918e+00 3.530000000000000000e+02
3.133283838953176748e+00 -8.241889665457367897e+00 3.530000000000000000e+02
3.524798562807238689e+00 -9.600829039015097877e+00 3.530000000000000000e+02
3.916313286661301518e+00 -1.095976841257282963e+01 3.530000000000000000e+02
4.307828010515363459e+00 -1.231870778613055961e+01 3.530000000000000000e+02
4.699342734369426289e+00 -1.367764715968829137e+01 3.530000000000000000e+02
5.090857458223489118e+00 -1.503658653324601957e+01 3.530000000000000000e+02
1.475027342539155129e+00 -5.040298593490073031e+00 3.540000000000000000e+02
1.866542066393217514e+00 -6.399237967047803011e+00 3.540000000000000000e+02
2.258056790247280343e+00 -7.758177340605533878e+00 3.540000000000000000e+02
2.649571514101342729e+00 -9.117116714163264746e+00 3.540000000000000000e+02
3.041086237955404670e+00 -1.047605608772099473e+01 3.540000000000000000e+02
3.432600961809467499e+00 -1.183499546127872648e+01 3.540000000000000000e+02
3.824115685663529440e+00 -1.319393483483645646e+01 3.540000000000000000e+02
4.215630409517592270e+00 -1.455287420839418644e+01 3.540000000000000000e+02
1.958739667390989148e+00 -4.165071544784176183e+00 3.550000000000000000e+02
2.350254391245051533e+00 -5.524010918341907050e+00 3.550000000000000000e+02
2.741769115099113918e+00 -6.882950291899637918e+00 3.550000000000000000e+02
3.133283838953176748e+00 -8.241889665457367897e+00 3.550000000000000000e+02
3.524798562807238689e+00 -9.600829039015097877e+00 3.550000000000000000e+02
3.916313286661301518e+00 -1.095976841257282963e+01 3.550000000000000000e+02
4.307828010515363459e+00 -1.231870778613055961e+01 3.550000000000000000e+02
4.699342734369426289e+00 -1.367764715968829137e+01 3.550000000000000000e+02
5.090857458223489118e+00 -1.503658653324601957e+01 3.550000000000000000e+02
5.482372182077551059e+00 -1.639552590680375133e+01 3.550000000000000000e+02
1.958739667390989148e+00 -4.165071544784176183e+00 3.560000000000000000e+02
2.350254391245051533e+00 -5.524010918341907050e+00 3.560000000000000000e+02
2.741769115099113918e+00 -6.882950291899637918e+00 3.560000000000000000e+02
3.133283838953176748e+00 -8.241889665457367897e+00 3.560000000000000000e+02
3.524798562807238689e+00 -9.600829039015097877e+00 3.560000000000000000e+02
3.916313286661301518e+00 -1.095976841257282963e+01 3.560000000000000000e+02
4.307828010515363459e+00 -1.231870778613055961e+01 3.560000000000000000e+02
4.699342734369426289e+00 -1.367764715968829137e+01 3.560000000000000000e+02
5.090857458223489118e+00 -1.503658653324601957e+01 3.560000000000000000e+02
1.958739667390989148e+00 -4.165071544784176183e+00 3.570000000000000000e+02
2.350254391245051533e+00 -5.524010918341907050e+00 3.570000000000000000e+02
2.741769115099113918e+00 -6.882950291899637918e+00 3.570000000000000000e+02
3.133283838953176748e+00 -8.241889665457367897e+00 3.570000000000000000e+02
3.524798562807238689e+00 -9.600829039015097877e+00 3.570000000000000000e+02
3.916313286661301518e+00 -1.095976841257282963e+01 3.570000000000000000e+02
4.307828010515363459e+00 -1.231870778613055961e+01 3.570000000000000000e+02
4.699342734369426289e+00 -1.367764715968829137e+01 3.570000000000000000e+02
5.090857458223489118e+00 -1.503658653324601957e+01 3.570000000000000000e+02
5.482372182077551059e+00 -1.639552590680375133e+01 3.570000000000000000e+02
1.958739667390989148e+00 -4.165071544784176183e+00 3.580000000000000000e+02
2.350254391245051533e+00 -5.524010918341907050e+00 3.580000000000000000e+02
2.741769115099113918e+00 -6.882950291899637918e+00 3.580000000000000000e+02
3.133283838953176748e+00 -8.241889665457367897e+00 3.580000000000000000e+02
3.524798562807238689e+00 -9.600829039015097877e+00 3.580000000000000000e+02
3.916313286661301518e+00 -1.095976841257282963e+01 3.580000000000000000e+02
4.307828010515363459e+00 -1.231870778613055961e+01 3.580000000000000000e+02
4.699342734369426289e+00 -1.367764715968829137e+01 3.580000000000000000e+02
5.090857458223489118e+00 -1.503658653324601957e+01 3.580000000000000000e+02
5.482372182077551059e+00 -1.639552590680375133e+01 3.580000000000000000e+02
1.958739667390989148e+00 -4.165071544784176183e+00 3.590000000000000000e+02
2.350254391245051533e+00 -5.524010918341907050e+00 3.590000000000000000e+02
2.741769115099113918e+00 -6.882950291899637918e+00 3.590000000000000000e+02
3.133283838953176748e+00 -8.241889665457367897e+00 3.590000000000000000e+02
3.524798562807238689e+00 -9.600829039015097877e+00 3.590000000000000000e+02
3.916313286661301518e+00 -1.095976841257282963e+01 3.590000000000000000e+02
4.307828010515363459e+00 -1.231870778613055961e+01 3.590000000000000000e+02
4.699342734369426289e+00 -1.367764715968829137e+01 3.590000000000000000e+02
5.090857458223489118e+00 -1.503658653324601957e+01 3.590000000000000000e+02
5.482372182077551059e+00 -1.639552590680375133e+01 3.590000000000000000e+02
1.958739667390989148e+00 -4.165071544784176183e+00 3.600000000000000000e+02
2.350254391245051533e+00 -5.524010918341907050e+00 3.600000000000000000e+02
2.741769115099113918e+00 -6.882950291899637918e+00 3.600000000000000000e+02
3.133283838953176748e+00 -8.241889665457367897e+00 3.600000000000000000e+02
3.524798562807238689e+00 -9.600829039015097877e+00 3.600000000000000000e+02
3.916313286661301518e+00 -1.095976841257282963e+01 3.600000000000000000e+02
4.307828010515363459e+00 -1.231870778613055961e+01 3.600000000000000000e+02
4.699342734369426289e+00 -1.367764715968829137e+01 3.600000000000000000e+02
5.090857458223489118e+00 -1.503658653324601957e+01 3.600000000000000000e+02
5.482372182077551059e+00 -1.639552590680375133e+01 3.600000000000000000e+02
1.958739667390989148e+00 -4.165071544784176183e+00 3.610000000000000000e+02
2.350254391245051533e+00 -5.524010918341907050e+00 3.610000000000000000e+02
2.741769115099113918e+00 -6.882950291899637918e+00 3.610000000000000000e+02
3.133283838953176748e+00 -8.241889665457367897e+00 3.610000000000000000e+02
3.524798562807238689e+00 -9.600829039015097877e+00 3.610000000000000000e+02
3.916313286661301518e+00 -1.095976841257282963e+01 3.610000000000000000e+02
4.307828010515363459e+00 -1.231870778613055961e+01 3.610000000000000000e+02
4.699342734369426289e+00 -1.367764715968829137e+01 3.610000000000000000e+02
5.090857458223489118e+00 -1.503658653324601957e+01 3.610000000000000000e+02
5.482372182077551059e+00 -1.639552590680375133e+01 3.610000000000000000e+02
1.958739667390989148e+00 -4.165071544784176183e+00 3.620000000000000000e+02
2.350254391245051533e+00 -5.524010918341907050e+00 3.620000000000000000e+02
2.741769115099113918e+00 -6.882950291899637918e+00 3.620000000000000000e+02
3.133283838953176748e+00 -8.241889665457367897e+00 3.620000000000000000e+02
3.524798562807238689e+00 -9.600829039015097877e+00 3.620000000000000000e+02
3.916313286661301518e+00 -1.095976841257282963e+01 3.620000000000000000e+02
4.307828010515363459e+00 -1.231870778613055961e+01 3.620000000000000000e+02
4.699342734369426289e+00 -1.367764715968829137e+01 3.620000000000000000e+02
5.090857458223489118e+00 -1.503658653324601957e+01 3.620000000000000000e+02
5.482372182077551059e+00 -1.639552590680375133e+01 3.620000000000000000e+02
1.475027342539155129e+00 -5.040298593490073031e+00 3.630000000000000000e+02
1.866542066393217514e+00 -6.399237967047803011e+00 3.630000000000000000e+02
2.258056790247280343e+00 -7.758177340605533878e+00 3.630000000000000000e+02
2.649571514101342729e+00 -9.117116714163264746e+00 3.630000000000000000e+02
3.041086237955404670e+00 -1.047605608772099473e+01 3.630000000000000000e+02
3.432600961809467499e+00 -1.183499546127872648e+01 3.630000000000000000e+02
3.824115685663529440e+00 -1.319393483483645646e+01 3.630000000000000000e+02
4.215630409517592270e+00 -1.455287420839418644e+01 3.630000000000000000e+02
4.607145133371654211e+00 -1.591181358195191820e+01 3.630000000000000000e+02
1.958739667390989148e+00 -4.165071544784176183e+00 3.640000000000000000e+02
2.350254391245051533e+00 -5.524010918341907050e+00 3.640000000000000000e+02
2.741769115099113918e+00 -6.882950291899637918e+00 3.640000000000000000e+02
3.133283838953176748e+00 -8.241889665457367897e+00 3.640000000000000000e+02
3.524798562807238689e+00 -9.600829039015097877e+00 3.640000000000000000e+02
3.916313286661301518e+00 -1.095976841257282963e+01 3.640000000000000000e+02
4.307828010515363459e+00 -1.231870778613055961e+01 3.640000000000000000e+02
4.699342734369426289e+00 -1.367764715968829137e+01 3.640000000000000000e+02
5.090857458223489118e+00 -1.503658653324601957e+01 3.640000000000000000e+02
5.482372182077551059e+00 -1.639552590680375133e+01 3.640000000000000000e+02
1.475027342539155129e+00 -5.040298593490073031e+00 3.650000000000000000e+02
1.866542066393217514e+00 -6.399237967047803011e+00 3.650000000000000000e+02
2.258056790247280343e+00 -7.758177340605533878e+00 3.650000000000000000e+02
2.649571514101342729e+00 -9.117116714163264746e+00 3.650000000000000000e+02
3.041086237955404670e+00 -1.047605608772099473e+01 3.650000000000000000e+02
3.432600961809467499e+00 -1.183499546127872648e+01 3.650000000000000000e+02
3.824115685663529440e+00 -1.319393483483645646e+01 3.650000000000000000e+02
4.215630409517592270e+00 -1.455287420839418644e+01 3.650000000000000000e+02
4.607145133371654211e+00 -1.591181358195191820e+01 3.650000000000000000e+02
1.475027342539155129e+00 -5.040298593490073031e+00 3.660000000000000000e+02
1.866542066393217514e+00 -6.399237967047803011e+00 3.660000000000000000e+02
2.258056790247280343e+00 -7.758177340605533878e+00 3.660000000000000000e+02
2.649571514101342729e+00 -9.117116714163264746e+00 3.660000000000000000e+02
3.041086237955404670e+00 -1.047605608772099473e+01 3.660000000000000000e+02
3.432600961809467499e+00 -1.183499546127872648e+01 3.660000000000000000e+02
3.824115685663529440e+00 -1.319393483483645646e+01 3.660000000000000000e+02
4.215630409517592270e+00 -1.455287420839418644e+01 3.660000000000000000e+02
4.607145133371654211e+00 -1.591181358195191820e+01 3.660000000000000000e+02
1.475027342539155129e+00 -5.040298593490073031e+00 3.670000000000000000e+02
1.866542066393217514e+00 -6.399237967047803011e+00 3.670000000000000000e+02
2.258056790247280343e+00 -7.758177340605533878e+00 3.670000000000000000e+02
2.649571514101342729e+00 -9.117116714163264746e+00 3.670000000000000000e+02
3.041086237955404670e+00 -1.047605608772099473e+01 3.670000000000000000e+02
3.432600961809467499e+00 -1.183499546127872648e+01 3.670000000000000000e+02
3.824115685663529440e+00 -1.319393483483645646e+01 3.670000000000000000e+02
4.215630409517592270e+00 -1.455287420839418644e+01 3.670000000000000000e+02
4.607145133371654211e+00 -1.591181358195191820e+01 3.670000000000000000e+02
1.475027342539155129e+00 -5.040298593490073031e+00 3.680000000000000000e+02
1.866542066393217514e+00 -6.399237967047803011e+00 3.680000000000000000e+02
2.258056790247280343e+00 -7.758177340605533878e+00 3.680000000000000000e+02
2.649571514101342729e+00 -9.117116714163264746e+00 3.680000000000000000e+02
3.041086237955404670e+00 -1.047605608772099473e+01 3.680000000000000000e+02
3.432600961809467499e+00 -1.183499546127872648e+01 3.680000000000000000e+02
3.824115685663529440e+00 -1.319393483483645646e+01 3.680000000000000000e+02
4.215630409517592270e+00 -1.455287420839418644e+01 3.680000000000000000e+02
4.607145133371654211e+00 -1.591181358195191820e+01 3.680000000000000000e+02
1.475027342539155129e+00 -5.040298593490073031e+00 3.690000000000000000e+02
1.866542066393217514e+00 -6.399237967047803011e+00 3.690000000000000000e+02
2.258056790247280343e+00 -7.758177340605533878e+00 3.690000000000000000e+02
2.649571514101342729e+00 -9.117116714163264746e+00 3.690000000000000000e+02
3.041086237955404670e+00 -1.047605608772099473e+01 3.690000000000000000e+02
3.432600961809467499e+00 -1.183499546127872648e+01 3.690000000000000000e+02
3.824115685663529440e+00 -1.319393483483645646e+01 3.690000000000000000e+02
4.215630409517592270e+00 -1.455287420839418644e+01 3.690000000000000000e+02
4.607145133371654211e+00 -1.591181358195191820e+01 3.690000000000000000e+02
1.475027342539155129e+00 -5.040298593490073031e+00 3.700000000000000000e+02
1.866542066393217514e+00 -6.399237967047803011e+00 3.700000000000000000e+02
2.258056790247280343e+00 -7.758177340605533878e+00 3.700000000000000000e+02
2.649571514101342729e+00 -9.117116714163264746e+00 3.700000000000000000e+02
3.041086237955404670e+00 -1.047605608772099473e+01 3.700000000000000000e+02
3.432600961809467499e+00 -1.183499546127872648e+01 3.700000000000000000e+02
3.824115685663529440e+00 -1.319393483483645646e+01 3.700000000000000000e+02
4.215630409517592270e+00 -1.455287420839418644e+01 3.700000000000000000e+02
4.607145133371654211e+00 -1.591181358195191820e+01 3.700000000000000000e+02
1.475027342539155129e+00 -5.040298593490073031e+00 3.710000000000000000e+02
1.866542066393217514e+00 -6.399237967047803011e+00 3.710000000000000000e+02
2.258056790247280343e+00 -7.758177340605533878e+00 3.710000000000000000e+02
2.649571514101342729e+00 -9.117116714163264746e+00 3.710000000000000000e+02
3.041086237955404670e+00 -1.047605608772099473e+01 3.710000000000000000e+02
3.432600961809467499e+00 -1.183499546127872648e+01 3.710000000000000000e+02
3.824115685663529440e+00 -1.319393483483645646e+01 3.710000000000000000e+02
4.215630409517592270e+00 -1.455287420839418644e+01 3.710000000000000000e+02
4.607145133371654211e+00 -1.591181358195191820e+01 3.710000000000000000e+02
1.475027342539155129e+00 -5.040298593490073031e+00 3.720000000000000000e+02
1.866542066393217514e+00 -6.399237967047803011e+00 3.720000000000000000e+02
2.258056790247280343e+00 -7.758177340605533878e+00 3.720000000000000000e+02
2.649571514101342729e+00 -9.117116714163264746e+00 3.720000000000000000e+02
3.041086237955404670e+00 -1.047605608772099473e+01 3.720000000000000000e+02
3.432600961809467499e+00 -1.183499546127872648e+01 3.720000000000000000e+02
3.824115685663529440e+00 -1.319393483483645646e+01 3.720000000000000000e+02
4.215630409517592270e+00 -1.455287420839418644e+01 3.720000000000000000e+02
4.607145133371654211e+00 -1.591181358195191820e+01 3.720000000000000000e+02
1.475027342539155129e+00 -5.040298593490073031e+00 3.730000000000000000e+02
1.866542066393217514e+00 -6.399237967047803011e+00 3.730000000000000000e+02
2.258056790247280343e+00 -7.758177340605533878e+00 3.730000000000000000e+02
2.649571514101342729e+00 -9.117116714163264746e+00 3.730000000000000000e+02
3.041086237955404670e+00 -1.047605608772099473e+01 3.730000000000000000e+02
3.432600961809467499e+00 -1.183499546127872648e+01 3.730000000000000000e+02
3.824115685663529440e+00 -1.319393483483645646e+01 3.730000000000000000e+02
4.215630409517592270e+00 -1.455287420839418644e+01 3.730000000000000000e+02
1.475027342539155129e+00 -5.040298593490073031e+00 3.740000000000000000e+02
1.866542066393217514e+00 -6.399237967047803011e+00 3.740000000000000000e+02
2.258056790247280343e+00 -7.758177340605533878e+00 3.740000000000000000e+02
2.649571514101342729e+00 -9.117116714163264746e+00 3.740000000000000000e+02
3.041086237955404670e+00 -1.047605608772099473e+01 3.740000000000000000e+02
3.432600961809467499e+00 -1.183499546127872648e+01 3.740000000000000000e+02
3.824115685663529440e+00 -1.319393483483645646e+01 3.740000000000000000e+02
4.215630409517592270e+00 -1.455287420839418644e+01 3.740000000000000000e+02
4.607145133371654211e+00 -1.591181358195191820e+01 3.740000000000000000e+02
1.475027342539155129e+00 -5.040298593490073031e+00 3.750000000000000000e+02
1.866542066393217514e+00 -6.399237967047803011e+00 3.750000000000000000e+02
2.258056790247280343e+00 -7.758177340605533878e+00 3.750000000000000000e+02
2.649571514101342729e+00 -9.117116714163264746e+00 3.750000000000000000e+02
3.041086237955404670e+00 -1.047605608772099473e+01 3.750000000000000000e+02
3.432600961809467499e+00 -1.183499546127872648e+01 3.750000000000000000e+02
3.824115685663529440e+00 -1.319393483483645646e+01 3.750000000000000000e+02
4.215630409517592270e+00 -1.455287420839418644e+01 3.750000000000000000e+02
4.607145133371654211e+00 -1.591181358195191820e+01 3.750000000000000000e+02
1.475027342539155129e+00 -5.040298593490073031e+00 3.760000000000000000e+02
1.866542066393217514e+00 -6.399237967047803011e+00 3.760000000000000000e+02
2.258056790247280343e+00 -7.758177340605533878e+00 3.760000000000000000e+02
2.649571514101342729e+00 -9.117116714163264746e+00 3.760000000000000000e+02
3.041086237955404670e+00 -1.047605608772099473e+01 3.760000000000000000e+02
3.432600961809467499e+00 -1.183499546127872648e+01 3.760000000000000000e+02
3.824115685663529440e+00 -1.319393483483645646e+01 3.760000000000000000e+02
4.215630409517592270e+00 -1.455287420839418644e+01 3.760000000000000000e+02
4.607145133371654211e+00 -1.591181358195191820e+01 3.760000000000000000e+02
1.958739667390989148e+00 -4.165071544784176183e+00 3.770000000000000000e+02
2.350254391245051533e+00 -5.524010918341907050e+00 3.770000000000000000e+02
2.741769115099113918e+00 -6.882950291899637918e+00 3.770000000000000000e+02
3.133283838953176748e+00 -8.241889665457367897e+00 3.770000000000000000e+02
3.524798562807238689e+00 -9.600829039015097877e+00 3.770000000000000000e+02
3.916313286661301518e+00 -1.095976841257282963e+01 3.770000000000000000e+02
4.307828010515363459e+00 -1.231870778613055961e+01 3.770000000000000000e+02
4.699342734369426289e+00 -1.367764715968829137e+01 3.770000000000000000e+02
5.090857458223489118e+00 -1.503658653324601957e+01 3.770000000000000000e+02
5.482372182077551059e+00 -1.639552590680375133e+01 3.770000000000000000e+02
1.958739667390989148e+00 -4.165071544784176183e+00 3.780000000000000000e+02
2.350254391245051533e+00 -5.524010918341907050e+00 3.780000000000000000e+02
2.741769115099113918e+00 -6.882950291899637918e+00 3.780000000000000000e+02
3.133283838953176748e+00 -8.241889665457367897e+00 3.780000000000000000e+02
3.524798562807238689e+00 -9.600829039015097877e+00 3.780000000000000000e+02
3.916313286661301518e+00 -1.095976841257282963e+01 3.780000000000000000e+02
4.307828010515363459e+00 -1.231870778613055961e+01 3.780000000000000000e+02
4.699342734369426289e+00 -1.367764715968829137e+01 3.780000000000000000e+02
5.090857458223489118e+00 -1.503658653324601957e+01 3.780000000000000000e+02
5.482372182077551059e+00 -1.639552590680375133e+01 3.780000000000000000e+02
1.958739667390989148e+00 -4.165071544784176183e+00 3.790000000000000000e+02
2.350254391245051533e+00 -5.524010918341907050e+00 3.790000000000000000e+02
2.741769115099113918e+00 -6.882950291899637918e+00 3.790000000000000000e+02
3.133283838953176748e+00 -8.241889665457367897e+00 3.790000000000000000e+02
3.524798562807238689e+00 -9.600829039015097877e+00 3.790000000000000000e+02
3.916313286661301518e+00 -1.095976841257282963e+01 3.790000000000000000e+02
4.307828010515363459e+00 -1.231870778613055961e+01 3.790000000000000000e+02
4.699342734369426289e+00 -1.367764715968829137e+01 3.790000000000000000e+02
5.090857458223489118e+00 -1.503658653324601957e+01 3.790000000000000000e+02
5.482372182077551059e+00 -1.639552590680375133e+01 3.790000000000000000e+02
1.475027342539155129e+00 -5.040298593490073031e+00 3.800000000000000000e+02
1.866542066393217514e+00 -6.399237967047803011e+00 3.800000000000000000e+02
2.258056790247280343e+00 -7.758177340605533878e+00 3.800000000000000000e+02
2.649571514101342729e+00 -9.117116714163264746e+00 3.800000000000000000e+02
3.041086237955404670e+00 -1.047605608772099473e+01 3.800000000000000000e+02
3.432600961809467499e+00 -1.183499546127872648e+01 3.800000000000000000e+02
3.824115685663529440e+00 -1.319393483483645646e+01 3.800000000000000000e+02
4.215630409517592270e+00 -1.455287420839418644e+01 3.800000000000000000e+02
4.607145133371654211e+00 -1.591181358195191820e+01 3.800000000000000000e+02
1.475027342539155129e+00 -5.040298593490073031e+00 3.810000000000000000e+02
1.866542066393217514e+00 -6.399237967047803011e+00 3.810000000000000000e+02
2.258056790247280343e+00 -7.758177340605533878e+00 3.810000000000000000e+02
2.649571514101342729e+00 -9.117116714163264746e+00 3.810000000000000000e+02
3.041086237955404670e+00 -1.047605608772099473e+01 3.810000000000000000e+02
3.432600961809467499e+00 -1.183499546127872648e+01 3.810000000000000000e+02
3.824115685663529440e+00 -1.319393483483645646e+01 3.810000000000000000e+02
4.215630409517592270e+00 -1.455287420839418644e+01 3.810000000000000000e+02
4.607145133371654211e+00 -1.591181358195191820e+01 3.810000000000000000e+02
1.475027342539155129e+00 -5.040298593490073031e+00 3.820000000000000000e+02
1.866542066393217514e+00 -6.399237967047803011e+00 3.820000000000000000e+02
2.258056790247280343e+00 -7.758177340605533878e+00 3.820000000000000000e+02
2.649571514101342729e+00 -9.117116714163264746e+00 3.820000000000000000e+02
3.041086237955404670e+00 -1.047605608772099473e+01 3.820000000000000000e+02
3.432600961809467499e+00 -1.183499546127872648e+01 3.820000000000000000e+02
3.824115685663529440e+00 -1.319393483483645646e+01 3.820000000000000000e+02
4.215630409517592270e+00 -1.455287420839418644e+01 3.820000000000000000e+02
