3.736191431263384377e+00 -3.090822524966005069e+00 3.110000000000000000e+02
3.501852996556518605e+00 -1.696159304679782487e+00 3.110000000000000000e+02
5.956722867001121635e+00 -1.203896423947301741e+01 3.120000000000000000e+02
5.722384432294256307e+00 -1.064430101918679483e+01 3.120000000000000000e+02
5.488045997587390090e+00 -9.249637798900572250e+00 3.120000000000000000e+02
5.253707562880524762e+00 -7.854974578614350555e+00 3.120000000000000000e+02
5.019369128173659433e+00 -6.460311358328127973e+00 3.120000000000000000e+02
4.785030693466794105e+00 -5.065648138041906279e+00 3.120000000000000000e+02
4.550692258759928777e+00 -3.670984917755683696e+00 3.120000000000000000e+02
4.316353824053062560e+00 -2.276321697469461114e+00 3.120000000000000000e+02
4.082015389346197232e+00 -8.816584771832385314e-01 3.120000000000000000e+02
5.956722867001121635e+00 -1.203896423947301741e+01 3.130000000000000000e+02
5.722384432294256307e+00 -1.064430101918679483e+01 3.130000000000000000e+02
5.488045997587390090e+00 -9.249637798900572250e+00 3.130000000000000000e+02
5.253707562880524762e+00 -7.854974578614350555e+00 3.130000000000000000e+02
5.019369128173659433e+00 -6.460311358328127973e+00 3.130000000000000000e+02
4.785030693466794105e+00 -5.065648138041906279e+00 3.130000000000000000e+02
4.550692258759928777e+00 -3.670984917755683696e+00 3.130000000000000000e+02
4.316353824053062560e+00 -2.276321697469461114e+00 3.130000000000000000e+02
4.082015389346197232e+00 -8.816584771832385314e-01 3.130000000000000000e+02
5.376560474211443008e+00 -1.285346506696956226e+01 3.140000000000000000e+02
5.142222039504577680e+00 -1.145880184668333968e+01 3.140000000000000000e+02
4.907883604797712351e+00 -1.006413862639711709e+01 3.140000000000000000e+02
4.673545170090847023e+00 -8.669475406110894511e+00 3.140000000000000000e+02
4.439206735383980806e+00 -7.274812185824671928e+00 3.140000000000000000e+02
4.204868300677115478e+00 -5.880148965538450234e+00 3.140000000000000000e+02
3.970529865970250150e+00 -4.485485745252227652e+00 3.140000000000000000e+02
3.736191431263384377e+00 -3.090822524966005069e+00 3.140000000000000000e+02
3.501852996556518605e+00 -1.696159304679782487e+00 3.140000000000000000e+02
3.267514561849653276e+00 -3.014960843935599044e-01 3.140000000000000000e+02
5.376560474211443008e+00 -1.285346506696956226e+01 3.150000000000000000e+02
5.142222039504577680e+00 -1.145880184668333968e+01 3.150000000000000000e+02
4.907883604797712351e+00 -1.006413862639711709e+01 3.150000000000000000e+02
4.673545170090847023e+00 -8.669475406110894511e+00 3.150000000000000000e+02
4.439206735383980806e+00 -7.274812185824671928e+00 3.150000000000000000e+02
4.204868300677115478e+00 -5.880148965538450234e+00 3.150000000000000000e+02
3.970529865970250150e+00 -4.485485745252227652e+00 3.150000000000000000e+02
3.736191431263384377e+00 -3.090822524966005069e+00 3.150000000000000000e+02
3.501852996556518605e+00 -1.696159304679782487e+00 3.150000000000000000e+02
5.376560474211443008e+00 -1.285346506696956226e+01 3.160000000000000000e+02
5.142222039504577680e+00 -1.145880184668333968e+01 3.160000000000000000e+02
4.907883604797712351e+00 -1.006413862639711709e+01 3.160000000000000000e+02
4.673545170090847023e+00 -8.669475406110894511e+00 3.160000000000000000e+02
4.439206735383980806e+00 -7.274812185824671928e+00 3.160000000000000000e+02
4.204868300677115478e+00 -5.880148965538450234e+00 3.160000000000000000e+02
3.970529865970250150e+00 -4.485485745252227652e+00 3.160000000000000000e+02
3.736191431263384377e+00 -3.090822524966005069e+00 3.160000000000000000e+02
3.501852996556518605e+00 -1.696159304679782487e+00 3.160000000000000000e+02
5.376560474211443008e+00 -1.285346506696956226e+01 3.170000000000000000e+02
5.142222039504577680e+00 -1.145880184668333968e+01 3.170000000000000000e+02
4.907883604797712351e+00 -1.006413862639711709e+01 3.170000000000000000e+02
4.673545170090847023e+00 -8.669475406110894511e+00 3.170000000000000000e+02
4.439206735383980806e+00 -7.274812185824671928e+00 3.170000000000000000e+02
4.204868300677115478e+00 -5.880148965538450234e+00 3.170000000000000000e+02
3.970529865970250150e+00 -4.485485745252227652e+00 3.170000000000000000e+02
3.736191431263384377e+00 -3.090822524966005069e+00 3.170000000000000000e+02
3.501852996556518605e+00 -1.696159304679782487e+00 3.170000000000000000e+02
3.267514561849653276e+00 -3.014960843935599044e-01 3.170000000000000000e+02
5.376560474211443008e+00 -1.285346506696956226e+01 3.180000000000000000e+02
5.142222039504577680e+00 -1.145880184668333968e+01 3.180000000000000000e+02
4.907883604797712351e+00 -1.006413862639711709e+01 3.180000000000000000e+02
4.673545170090847023e+00 -8.669475406110894511e+00 3.180000000000000000e+02
4.439206735383980806e+00 -7.274812185824671928e+00 3.180000000000000000e+02
4.204868300677115478e+00 -5.880148965538450234e+00 3.180000000000000000e+02
3.970529865970250150e+00 -4.485485745252227652e+00 3.180000000000000000e+02
3.736191431263384377e+00 -3.090822524966005069e+00 3.180000000000000000e+02
3.501852996556518605e+00 -1.696159304679782487e+00 3.180000000000000000e+02
3.267514561849653276e+00 -3.014960843935599044e-01 3.180000000000000000e+02
5.956722867001121635e+00 -1.203896423947301741e+01 3.190000000000000000e+02
5.722384432294256307e+00 -1.064430101918679483e+01 3.190000000000000000e+02
5.488045997587390090e+00 -9.249637798900572250e+00 3.190000000000000000e+02
5.253707562880524762e+00 -7.854974578614350555e+00 3.190000000000000000e+02
5.019369128173659433e+00 -6.460311358328127973e+00 3.190000000000000000e+02
4.785030693466794105e+00 -5.065648138041906279e+00 3.190000000000000000e+02
4.550692258759928777e+00 -3.670984917755683696e+00 3.190000000000000000e+02
4.316353824053062560e+00 -2.276321697469461114e+00 3.190000000000000000e+02
4.082015389346197232e+00 -8.816584771832385314e-01 3.190000000000000000e+02
5.956722867001121635e+00 -1.203896423947301741e+01 3.200000000000000000e+02
5.722384432294256307e+00 -1.064430101918679483e+01 3.200000000000000000e+02
5.488045997587390090e+00 -9.249637798900572250e+00 3.200000000000000000e+02
5.253707562880524762e+00 -7.854974578614350555e+00 3.200000000000000000e+02
5.019369128173659433e+00 -6.460311358328127973e+00 3.200000000000000000e+02
4.785030693466794105e+00 -5.065648138041906279e+00 3.200000000000000000e+02
4.550692258759928777e+00 -3.670984917755683696e+00 3.200000000000000000e+02
4.316353824053062560e+00 -2.276321697469461114e+00 3.200000000000000000e+02
4.082015389346197232e+00 -8.816584771832385314e-01 3.200000000000000000e+02
5.956722867001121635e+00 -1.203896423947301741e+01 3.210000000000000000e+02
5.722384432294256307e+00 -1.064430101918679483e+01 3.210000000000000000e+02
5.488045997587390090e+00 -9.249637798900572250e+00 3.210000000000000000e+02
5.253707562880524762e+00 -7.854974578614350555e+00 3.210000000000000000e+02
5.019369128173659433e+00 -6.460311358328127973e+00 3.210000000000000000e+02
4.785030693466794105e+00 -5.065648138041906279e+00 3.210000000000000000e+02
4.550692258759928777e+00 -3.670984917755683696e+00 3.210000000000000000e+02
4.316353824053062560e+00 -2.276321697469461114e+00 3.210000000000000000e+02
4.082015389346197232e+00 -8.816584771832385314e-01 3.210000000000000000e+02
5.956722867001121635e+00 -1.203896423947301741e+01 3.220000000000000000e+02
5.722384432294256307e+00 -1.064430101918679483e+01 3.220000000000000000e+02
5.488045997587390090e+00 -9.249637798900572250e+00 3.220000000000000000e+02
5.253707562880524762e+00 -7.854974578614350555e+00 3.220000000000000000e+02
5.019369128173659433e+00 -6.460311358328127973e+00 3.220000000000000000e+02
4.785030693466794105e+00 -5.065648138041906279e+00 3.220000000000000000e+02
4.550692258759928777e+00 -3.670984917755683696e+00 3.220000000000000000e+02
4.316353824053062560e+00 -2.276321697469461114e+00 3.220000000000000000e+02
5.956722867001121635e+00 -1.203896423947301741e+01 3.230000000000000000e+02
5.722384432294256307e+00 -1.064430101918679483e+01 3.230000000000000000e+02
5.488045997587390090e+00 -9.249637798900572250e+00 3.230000000000000000e+02
5.253707562880524762e+00 -7.854974578614350555e+00 3.230000000000000000e+02
5.019369128173659433e+00 -6.460311358328127973e+00 3.230000000000000000e+02
4.785030693466794105e+00 -5.065648138041906279e+00 3.230000000000000000e+02
4.550692258759928777e+00 -3.670984917755683696e+00 3.230000000000000000e+02
4.316353824053062560e+00 -2.276321697469461114e+00 3.230000000000000000e+02
5.956722867001121635e+00 -1.203896423947301741e+01 3.240000000000000000e+02
5.722384432294256307e+00 -1.064430101918679483e+01 3.240000000000000000e+02
5.488045997587390090e+00 -9.249637798900572250e+00 3.240000000000000000e+02
5.253707562880524762e+00 -7.854974578614350555e+00 3.240000000000000000e+02
5.019369128173659433e+00 -6.460311358328127973e+00 3.240000000000000000e+02
4.785030693466794105e+00 -5.065648138041906279e+00 3.240000000000000000e+02
4.550692258759928777e+00 -3.670984917755683696e+00 3.240000000000000000e+02
4.316353824053062560e+00 -2.276321697469461114e+00 3.240000000000000000e+02
4.082015389346197232e+00 -8.816584771832385314e-01 3.240000000000000000e+02
5.376560474211443008e+00 -1.285346506696956226e+01 3.250000000000000000e+02
5.142222039504577680e+00 -1.145880184668333968e+01 3.250000000000000000e+02
4.907883604797712351e+00 -1.006413862639711709e+01 3.250000000000000000e+02
4.673545170090847023e+00 -8.669475406110894511e+00 3.250000000000000000e+02
4.439206735383980806e+00 -7.274812185824671928e+00 3.250000000000000000e+02
4.204868300677115478e+00 -5.880148965538450234e+00 3.250000000000000000e+02
3.970529865970250150e+00 -4.485485745252227652e+00 3.250000000000000000e+02
3.736191431263384377e+00 -3.090822524966005069e+00 3.250000000000000000e+02
3.501852996556518605e+00 -1.696159304679782487e+00 3.250000000000000000e+02
3.267514561849653276e+00 -3.014960843935599044e-01 3.250000000000000000e+02
3.033176127142787504e+00 1.093167135892662678e+00 3.250000000000000000e+02
5.376560474211443008e+00 -1.285346506696956226e+01 3.260000000000000000e+02
5.142222039504577680e+00 -1.145880184668333968e+01 3.260000000000000000e+02
4.907883604797712351e+00 -1.006413862639711709e+01 3.260000000000000000e+02
4.673545170090847023e+00 -8.669475406110894511e+00 3.260000000000000000e+02
4.439206735383980806e+00 -7.274812185824671928e+00 3.260000000000000000e+02
4.204868300677115478e+00 -5.880148965538450234e+00 3.260000000000000000e+02
3.970529865970250150e+00 -4.485485745252227652e+00 3.260000000000000000e+02
3.736191431263384377e+00 -3.090822524966005069e+00 3.260000000000000000e+02
3.501852996556518605e+00 -1.696159304679782487e+00 3.260000000000000000e+02
3.267514561849653276e+00 -3.014960843935599044e-01 3.260000000000000000e+02
3.033176127142787504e+00 1.093167135892662678e+00 3.260000000000000000e+02
5.376560474211443008e+00 -1.285346506696956226e+01 3.270000000000000000e+02
5.142222039504577680e+00 -1.145880184668333968e+01 3.270000000000000000e+02
4.907883604797712351e+00 -1.006413862639711709e+01 3.270000000000000000e+02
4.673545170090847023e+00 -8.669475406110894511e+00 3.270000000000000000e+02
4.439206735383980806e+00 -7.274812185824671928e+00 3.270000000000000000e+02
4.204868300677115478e+00 -5.880148965538450234e+00 3.270000000000000000e+02
3.970529865970250150e+00 -4.485485745252227652e+00 3.270000000000000000e+02
3.736191431263384377e+00 -3.090822524966005069e+00 3.270000000000000000e+02
3.501852996556518605e+00 -1.696159304679782487e+00 3.270000000000000000e+02
3.267514561849653276e+00 -3.014960843935599044e-01 3.270000000000000000e+02
5.376560474211443008e+00 -1.285346506696956226e+01 3.280000000000000000e+02
5.142222039504577680e+00 -1.145880184668333968e+01 3.280000000000000000e+02
4.907883604797712351e+00 -1.006413862639711709e+01 3.280000000000000000e+02
4.673545170090847023e+00 -8.669475406110894511e+00 3.280000000000000000e+02
4.439206735383980806e+00 -7.274812185824671928e+00 3.280000000000000000e+02
4.204868300677115478e+00 -5.880148965538450234e+00 3.280000000000000000e+02
3.970529865970250150e+00 -4.485485745252227652e+00 3.280000000000000000e+02
3.736191431263384377e+00 -3.090822524966005069e+00 3.280000000000000000e+02
3.501852996556518605e+00 -1.696159304679782487e+00 3.280000000000000000e+02
3.267514561849653276e+00 -3.014960843935599044e-01 3.280000000000000000e+02
5.376560474211443008e+00 -1.285346506696956226e+01 3.290000000000000000e+02
5.142222039504577680e+00 -1.145880184668333968e+01 3.290000000000000000e+02
4.907883604797712351e+00 -1.006413862639711709e+01 3.290000000000000000e+02
4.673545170090847023e+00 -8.669475406110894511e+00 3.290000000000000000e+02
4.439206735383980806e+00 -7.274812185824671928e+00 3.290000000000000000e+02
4.204868300677115478e+00 -5.880148965538450234e+00 3.290000000000000000e+02
3.970529865970250150e+00 -4.485485745252227652e+00 3.290000000000000000e+02
3.736191431263384377e+00 -3.090822524966005069e+00 3.290000000000000000e+02
3.501852996556518605e+00 -1.696159304679782487e+00 3.290000000000000000e+02
3.267514561849653276e+00 -3.014960843935599044e-01 3.290000000000000000e+02
5.956722867001121635e+00 -1.203896423947301741e+01 3.300000000000000000e+02
5.722384432294256307e+00 -1.064430101918679483e+01 3.300000000000000000e+02
5.488045997587390090e+00 -9.249637798900572250e+00 3.300000000000000000e+02
5.253707562880524762e+00 -7.854974578614350555e+00 3.300000000000000000e+02
5.019369128173659433e+00 -6.460311358328127973e+00 3.300000000000000000e+02
4.785030693466794105e+00 -5.065648138041906279e+00 3.300000000000000000e+02
4.550692258759928777e+00 -3.670984917755683696e+00 3.300000000000000000e+02
4.316353824053062560e+00 -2.276321697469461114e+00 3.300000000000000000e+02
4.082015389346197232e+00 -8.816584771832385314e-01 3.300000000000000000e+02
5.956722867001121635e+00 -1.203896423947301741e+01 3.310000000000000000e+02
5.722384432294256307e+00 -1.064430101918679483e+01 3.310000000000000000e+02
5.488045997587390090e+00 -9.249637798900572250e+00 3.310000000000000000e+02
5.253707562880524762e+00 -7.854974578614350555e+00 3.310000000000000000e+02
5.019369128173659433e+00 -6.460311358328127973e+00 3.310000000000000000e+02
4.785030693466794105e+00 -5.065648138041906279e+00 3.310000000000000000e+02
4.550692258759928777e+00 -3.670984917755683696e+00 3.310000000000000000e+02
4.316353824053062560e+00 -2.276321697469461114e+00 3.310000000000000000e+02
4.082015389346197232e+00 -8.816584771832385314e-01 3.310000000000000000e+02
5.956722867001121635e+00 -1.203896423947301741e+01 3.320000000000000000e+02
5.722384432294256307e+00 -1.064430101918679483e+01 3.320000000000000000e+02
5.488045997587390090e+00 -9.249637798900572250e+00 3.320000000000000000e+02
5.253707562880524762e+00 -7.854974578614350555e+00 3.320000000000000000e+02
5.019369128173659433e+00 -6.460311358328127973e+00 3.320000000000000000e+02
4.785030693466794105e+00 -5.065648138041906279e+00 3.320000000000000000e+02
4.550692258759928777e+00 -3.670984917755683696e+00 3.320000000000000000e+02
4.316353824053062560e+00 -2.276321697469461114e+00 3.320000000000000000e+02
4.082015389346197232e+00 -8.816584771832385314e-01 3.320000000000000000e+02
5.956722867001121635e+00 -1.203896423947301741e+01 3.330000000000000000e+02
5.722384432294256307e+00 -1.064430101918679483e+01 3.330000000000000000e+02
5.488045997587390090e+00 -9.249637798900572250e+00 3.330000000000000000e+02
5.253707562880524762e+00 -7.854974578614350555e+00 3.330000000000000000e+02
5.019369128173659433e+00 -6.460311358328127973e+00 3.330000000000000000e+02
4.785030693466794105e+00 -5.065648138041906279e+00 3.330000000000000000e+02
4.550692258759928777e+00 -3.670984917755683696e+00 3.330000000000000000e+02
4.316353824053062560e+00 -2.276321697469461114e+00 3.330000000000000000e+02
4.082015389346197232e+00 -8.816584771832385314e-01 3.330000000000000000e+02
5.956722867001121635e+00 -1.203896423947301741e+01 3.340000000000000000e+02
5.722384432294256307e+00 -1.064430101918679483e+01 3.340000000000000000e+02
5.488045997587390090e+00 -9.249637798900572250e+00 3.340000000000000000e+02
5.253707562880524762e+00 -7.854974578614350555e+00 3.340000000000000000e+02
5.019369128173659433e+00 -6.460311358328127973e+00 3.340000000000000000e+02
4.785030693466794105e+00 -5.065648138041906279e+00 3.340000000000000000e+02
4.550692258759928777e+00 -3.670984917755683696e+00 3.340000000000000000e+02
4.316353824053062560e+00 -2.276321697469461114e+00 3.340000000000000000e+02
4.082015389346197232e+00 -8.816584771832385314e-01 3.340000000000000000e+02
5.956722867001121635e+00 -1.203896423947301741e+01 3.350000000000000000e+02
5.722384432294256307e+00 -1.064430101918679483e+01 3.350000000000000000e+02
5.488045997587390090e+00 -9.249637798900572250e+00 3.350000000000000000e+02
5.253707562880524762e+00 -7.854974578614350555e+00 3.350000000000000000e+02
5.019369128173659433e+00 -6.460311358328127973e+00 3.350000000000000000e+02
4.785030693466794105e+00 -5.065648138041906279e+00 3.350000000000000000e+02
4.550692258759928777e+00 -3.670984917755683696e+00 3.350000000000000000e+02
4.316353824053062560e+00 -2.276321697469461114e+00 3.350000000000000000e+02
4.082015389346197232e+00 -8.816584771832385314e-01 3.350000000000000000e+02
5.956722867001121635e+00 -1.203896423947301741e+01 3.360000000000000000e+02
5.722384432294256307e+00 -1.064430101918679483e+01 3.360000000000000000e+02
5.488045997587390090e+00 -9.249637798900572250e+00 3.360000000000000000e+02
5.253707562880524762e+00 -7.854974578614350555e+00 3.360000000000000000e+02
5.019369128173659433e+00 -6.460311358328127973e+00 3.360000000000000000e+02
4.785030693466794105e+00 -5.065648138041906279e+00 3.360000000000000000e+02
4.550692258759928777e+00 -3.670984917755683696e+00 3.360000000000000000e+02
4.316353824053062560e+00 -2.276321697469461114e+00 3.360000000000000000e+02
4.082015389346197232e+00 -8.816584771832385314e-01 3.360000000000000000e+02
5.956722867001121635e+00 -1.203896423947301741e+01 3.370000000000000000e+02
5.722384432294256307e+00 -1.064430101918679483e+01 3.370000000000000000e+02
5.488045997587390090e+00 -9.249637798900572250e+00 3.370000000000000000e+02
5.253707562880524762e+00 -7.854974578614350555e+00 3.370000000000000000e+02
5.019369128173659433e+00 -6.460311358328127973e+00 3.370000000000000000e+02
4.785030693466794105e+00 -5.065648138041906279e+00 3.370000000000000000e+02
4.550692258759928777e+00 -3.670984917755683696e+00 3.370000000000000000e+02
4.316353824053062560e+00 -2.276321697469461114e+00 3.370000000000000000e+02
4.082015389346197232e+00 -8.816584771832385314e-01 3.370000000000000000e+02
5.956722867001121635e+00 -1.203896423947301741e+01 3.380000000000000000e+02
5.722384432294256307e+00 -1.064430101918679483e+01 3.380000000000000000e+02
5.488045997587390090e+00 -9.249637798900572250e+00 3.380000000000000000e+02
5.253707562880524762e+00 -7.854974578614350555e+00 3.380000000000000000e+02
5.019369128173659433e+00 -6.460311358328127973e+00 3.380000000000000000e+02
4.785030693466794105e+00 -5.065648138041906279e+00 3.380000000000000000e+02
4.550692258759928777e+00 -3.670984917755683696e+00 3.380000000000000000e+02
4.316353824053062560e+00 -2.276321697469461114e+00 3.380000000000000000e+02
4.082015389346197232e+00 -8.816584771832385314e-01 3.380000000000000000e+02
5.956722867001121635e+00 -1.203896423947301741e+01 3.390000000000000000e+02
5.722384432294256307e+00 -1.064430101918679483e+01 3.390000000000000000e+02
5.488045997587390090e+00 -9.249637798900572250e+00 3.390000000000000000e+02
5.253707562880524762e+00 -7.854974578614350555e+00 3.390000000000000000e+02
5.019369128173659433e+00 -6.460311358328127973e+00 3.390000000000000000e+02
4.785030693466794105e+00 -5.065648138041906279e+00 3.390000000000000000e+02
4.550692258759928777e+00 -3.670984917755683696e+00 3.390000000000000000e+02
4.316353824053062560e+00 -2.276321697469461114e+00 3.390000000000000000e+02
4.082015389346197232e+00 -8.816584771832385314e-01 3.390000000000000000e+02
5.956722867001121635e+00 -1.203896423947301741e+01 3.400000000000000000e+02
5.722384432294256307e+00 -1.064430101918679483e+01 3.400000000000000000e+02
5.488045997587390090e+00 -9.249637798900572250e+00 3.400000000000000000e+02
5.253707562880524762e+00 -7.854974578614350555e+00 3.400000000000000000e+02
5.019369128173659433e+00 -6.460311358328127973e+00 3.400000000000000000e+02
4.785030693466794105e+00 -5.065648138041906279e+00 3.400000000000000000e+02
4.550692258759928777e+00 -3.670984917755683696e+00 3.400000000000000000e+02
4.316353824053062560e+00 -2.276321697469461114e+00 3.400000000000000000e+02
4.082015389346197232e+00 -8.816584771832385314e-01 3.400000000000000000e+02
3.847676954639331903e+00 5.130047431029831628e-01 3.400000000000000000e+02
5.956722867001121635e+00 -1.203896423947301741e+01 3.410000000000000000e+02
5.722384432294256307e+00 -1.064430101918679483e+01 3.410000000000000000e+02
5.488045997587390090e+00 -9.249637798900572250e+00 3.410000000000000000e+02
5.253707562880524762e+00 -7.854974578614350555e+00 3.410000000000000000e+02
5.019369128173659433e+00 -6.460311358328127973e+00 3.410000000000000000e+02
4.785030693466794105e+00 -5.065648138041906279e+00 3.410000000000000000e+02
4.550692258759928777e+00 -3.670984917755683696e+00 3.410000000000000000e+02
4.316353824053062560e+00 -2.276321697469461114e+00 3.410000000000000000e+02
4.082015389346197232e+00 -8.816584771832385314e-01 3.410000000000000000e+02
3.847676954639331903e+00 5.130047431029831628e-01 3.410000000000000000e+02
5.956722867001121635e+00 -1.203896423947301741e+01 3.420000000000000000e+02
5.722384432294256307e+00 -1.064430101918679483e+01 3.420000000000000000e+02
5.488045997587390090e+00 -9.249637798900572250e+00 3.420000000000000000e+02
5.253707562880524762e+00 -7.854974578614350555e+00 3.420000000000000000e+02
5.019369128173659433e+00 -6.460311358328127973e+00 3.420000000000000000e+02
4.785030693466794105e+00 -5.065648138041906279e+00 3.420000000000000000e+02
4.550692258759928777e+00 -3.670984917755683696e+00 3.420000000000000000e+02
4.316353824053062560e+00 -2.276321697469461114e+00 3.420000000000000000e+02
4.082015389346197232e+00 -8.816584771832385314e-01 3.420000000000000000e+02
3.847676954639331903e+00 5.130047431029831628e-01 3.420000000000000000e+02
5.956722867001121635e+00 -1.203896423947301741e+01 3.430000000000000000e+02
5.722384432294256307e+00 -1.064430101918679483e+01 3.430000000000000000e+02
5.488045997587390090e+00 -9.249637798900572250e+00 3.430000000000000000e+02
5.253707562880524762e+00 -7.854974578614350555e+00 3.430000000000000000e+02
5.019369128173659433e+00 -6.460311358328127973e+00 3.430000000000000000e+02
4.785030693466794105e+00 -5.065648138041906279e+00 3.430000000000000000e+02
4.550692258759928777e+00 -3.670984917755683696e+00 3.430000000000000000e+02
4.316353824053062560e+00 -2.276321697469461114e+00 3.430000000000000000e+02
4.082015389346197232e+00 -8.816584771832385314e-01 3.430000000000000000e+02
3.847676954639331903e+00 5.130047431029831628e-01 3.430000000000000000e+02
5.956722867001121635e+00 -1.203896423947301741e+01 3.440000000000000000e+02
5.722384432294256307e+00 -1.064430101918679483e+01 3.440000000000000000e+02
5.488045997587390090e+00 -9.249637798900572250e+00 3.440000000000000000e+02
5.253707562880524762e+00 -7.854974578614350555e+00 3.440000000000000000e+02
5.019369128173659433e+00 -6.460311358328127973e+00 3.440000000000000000e+02
4.785030693466794105e+00 -5.065648138041906279e+00 3.440000000000000000e+02
4.550692258759928777e+00 -3.670984917755683696e+00 3.440000000000000000e+02
4.316353824053062560e+00 -2.276321697469461114e+00 3.440000000000000000e+02
4.082015389346197232e+00 -8.816584771832385314e-01 3.440000000000000000e+02
3.847676954639331903e+00 5.130047431029831628e-01 3.440000000000000000e+02
5.956722867001121635e+00 -1.203896423947301741e+01 3.450000000000000000e+02
5.722384432294256307e+00 -1.064430101918679483e+01 3.450000000000000000e+02
5.488045997587390090e+00 -9.249637798900572250e+00 3.450000000000000000e+02
5.253707562880524762e+00 -7.854974578614350555e+00 3.450000000000000000e+02
5.019369128173659433e+00 -6.460311358328127973e+00 3.450000000000000000e+02
4.785030693466794105e+00 -5.065648138041906279e+00 3.450000000000000000e+02
4.550692258759928777e+00 -3.670984917755683696e+00 3.450000000000000000e+02
4.316353824053062560e+00 -2.276321697469461114e+00 3.450000000000000000e+02
4.082015389346197232e+00 -8.816584771832385314e-01 3.450000000000000000e+02
5.956722867001121635e+00 -1.203896423947301741e+01 3.460000000000000000e+02
5.722384432294256307e+00 -1.064430101918679483e+01 3.460000000000000000e+02
5.488045997587390090e+00 -9.249637798900572250e+00 3.460000000000000000e+02
5.253707562880524762e+00 -7.854974578614350555e+00 3.460000000000000000e+02
5.019369128173659433e+00 -6.460311358328127973e+00 3.460000000000000000e+02
4.785030693466794105e+00 -5.065648138041906279e+00 3.460000000000000000e+02
4.550692258759928777e+00 -3.670984917755683696e+00 3.460000000000000000e+02
4.316353824053062560e+00 -2.276321697469461114e+00 3.460000000000000000e+02
4.082015389346197232e+00 -8.816584771832385314e-01 3.460000000000000000e+02
5.956722867001121635e+00 -1.203896423947301741e+01 3.470000000000000000e+02
5.722384432294256307e+00 -1.064430101918679483e+01 3.470000000000000000e+02
5.488045997587390090e+00 -9.249637798900572250e+00 3.470000000000000000e+02
5.253707562880524762e+00 -7.854974578614350555e+00 3.470000000000000000e+02
5.019369128173659433e+00 -6.460311358328127973e+00 3.470000000000000000e+02
4.785030693466794105e+00 -5.065648138041906279e+00 3.470000000000000000e+02
4.550692258759928777e+00 -3.670984917755683696e+00 3.470000000000000000e+02
4.316353824053062560e+00 -2.276321697469461114e+00 3.470000000000000000e+02
4.082015389346197232e+00 -8.816584771832385314e-01 3.470000000000000000e+02
5.376560474211443008e+00 -1.285346506696956226e+01 3.480000000000000000e+02
5.142222039504577680e+00 -1.145880184668333968e+01 3.480000000000000000e+02
4.907883604797712351e+00 -1.006413862639711709e+01 3.480000000000000000e+02
4.673545170090847023e+00 -8.669475406110894511e+00 3.480000000000000000e+02
4.439206735383980806e+00 -7.274812185824671928e+00 3.480000000000000000e+02
4.204868300677115478e+00 -5.880148965538450234e+00 3.480000000000000000e+02
3.970529865970250150e+00 -4.485485745252227652e+00 3.480000000000000000e+02
3.736191431263384377e+00 -3.090822524966005069e+00 3.480000000000000000e+02
3.501852996556518605e+00 -1.696159304679782487e+00 3.480000000000000000e+02
3.267514561849653276e+00 -3.014960843935599044e-01 3.480000000000000000e+02
5.376560474211443008e+00 -1.285346506696956226e+01 3.490000000000000000e+02
5.142222039504577680e+00 -1.145880184668333968e+01 3.490000000000000000e+02
4.907883604797712351e+00 -1.006413862639711709e+01 3.490000000000000000e+02
4.673545170090847023e+00 -8.669475406110894511e+00 3.490000000000000000e+02
4.439206735383980806e+00 -7.274812185824671928e+00 3.490000000000000000e+02
4.204868300677115478e+00 -5.880148965538450234e+00 3.490000000000000000e+02
3.970529865970250150e+00 -4.485485745252227652e+00 3.490000000000000000e+02
3.736191431263384377e+00 -3.090822524966005069e+00 3.490000000000000000e+02
3.501852996556518605e+00 -1.696159304679782487e+00 3.490000000000000000e+02
3.267514561849653276e+00 -3.014960843935599044e-01 3.490000000000000000e+02
5.956722867001121635e+00 -1.203896423947301741e+01 3.500000000000000000e+02
5.722384432294256307e+00 -1.064430101918679483e+01 3.500000000000000000e+02
5.488045997587390090e+00 -9.249637798900572250e+00 3.500000000000000000e+02
5.253707562880524762e+00 -7.854974578614350555e+00 3.500000000000000000e+02
5.019369128173659433e+00 -6.460311358328127973e+00 3.500000000000000000e+02
4.785030693466794105e+00 -5.065648138041906279e+00 3.500000000000000000e+02
4.550692258759928777e+00 -3.670984917755683696e+00 3.500000000000000000e+02
4.316353824053062560e+00 -2.276321697469461114e+00 3.500000000000000000e+02
4.082015389346197232e+00 -8.816584771832385314e-01 3.500000000000000000e+02
5.956722867001121635e+00 -1.203896423947301741e+01 3.510000000000000000e+02
5.722384432294256307e+00 -1.064430101918679483e+01 3.510000000000000000e+02
5.488045997587390090e+00 -9.249637798900572250e+00 3.510000000000000000e+02
5.253707562880524762e+00 -7.854974578614350555e+00 3.510000000000000000e+02
5.019369128173659433e+00 -6.460311358328127973e+00 3.510000000000000000e+02
4.785030693466794105e+00 -5.065648138041906279e+00 3.510000000000000000e+02
4.550692258759928777e+00 -3.670984917755683696e+00 3.510000000000000000e+02
4.316353824053062560e+00 -2.276321697469461114e+00 3.510000000000000000e+02
4.082015389346197232e+00 -8.816584771832385314e-01 3.510000000000000000e+02
3.847676954639331903e+00 5.130047431029831628e-01 3.510000000000000000e+02
5.956722867001121635e+00 -1.203896423947301741e+01 3.520000000000000000e+02
5.722384432294256307e+00 -1.064430101918679483e+01 3.520000000000000000e+02
5.488045997587390090e+00 -9.249637798900572250e+00 3.520000000000000000e+02
5.253707562880524762e+00 -7.854974578614350555e+00 3.520000000000000000e+02
5.019369128173659433e+00 -6.460311358328127973e+00 3.520000000000000000e+02
4.785030693466794105e+00 -5.065648138041906279e+00 3.520000000000000000e+02
4.550692258759928777e+00 -3.670984917755683696e+00 3.520000000000000000e+02
4.316353824053062560e+00 -2.276321697469461114e+00 3.520000000000000000e+02
4.082015389346197232e+00 -8.816584771832385314e-01 3.520000000000000000e+02
3.847676954639331903e+00 5.130047431029831628e-01 3.520000000000000000e+02
5.956722867001121635e+00 -1.203896423947301741e+01 3.530000000000000000e+02
5.722384432294256307e+00 -1.064430101918679483e+01 3.530000000000000000e+02
5.488045997587390090e+00 -9.249637798900572250e+00 3.530000000000000000e+02
5.253707562880524762e+00 -7.854974578614350555e+00 3.530000000000000000e+02
5.019369128173659433e+00 -6.460311358328127973e+00 3.530000000000000000e+02
4.785030693466794105e+00 -5.065648138041906279e+00 3.530000000000000000e+02
4.550692258759928777e+00 -3.670984917755683696e+00 3.530000000000000000e+02
4.316353824053062560e+00 -2.276321697469461114e+00 3.530000000000000000e+02
4.082015389346197232e+00 -8.816584771832385314e-01 3.530000000000000000e+02
3.847676954639331903e+00 5.130047431029831628e-01 3.530000000000000000e+02
5.956722867001121635e+00 -1.203896423947301741e+01 3.540000000000000000e+02
5.722384432294256307e+00 -1.064430101918679483e+01 3.540000000000000000e+02
5.488045997587390090e+00 -9.249637798900572250e+00 3.540000000000000000e+02
5.253707562880524762e+00 -7.854974578614350555e+00 3.540000000000000000e+02
5.019369128173659433e+00 -6.460311358328127973e+00 3.540000000000000000e+02
4.785030693466794105e+00 -5.065648138041906279e+00 3.540000000000000000e+02
4.550692258759928777e+00 -3.670984917755683696e+00 3.540000000000000000e+02
4.316353824053062560e+00 -2.276321697469461114e+00 3.540000000000000000e+02
4.082015389346197232e+00 -8.816584771832385314e-01 3.540000000000000000e+02
3.847676954639331903e+00 5.130047431029831628e-01 3.540000000000000000e+02
5.956722867001121635e+00 -1.203896423947301741e+01 3.550000000000000000e+02
5.722384432294256307e+00 -1.064430101918679483e+01 3.550000000000000000e+02
5.488045997587390090e+00 -9.249637798900572250e+00 3.550000000000000000e+02
5.253707562880524762e+00 -7.854974578614350555e+00 3.550000000000000000e+02
5.019369128173659433e+00 -6.460311358328127973e+00 3.550000000000000000e+02
4.785030693466794105e+00 -5.065648138041906279e+00 3.550000000000000000e+02
4.550692258759928777e+00 -3.670984917755683696e+00 3.550000000000000000e+02
4.316353824053062560e+00 -2.276321697469461114e+00 3.550000000000000000e+02
4.082015389346197232e+00 -8.816584771832385314e-01 3.550000000000000000e+02
3.847676954639331903e+00 5.130047431029831628e-01 3.550000000000000000e+02
5.956722867001121635e+00 -1.203896423947301741e+01 3.560000000000000000e+02
5.722384432294256307e+00 -1.064430101918679483e+01 3.560000000000000000e+02
5.488045997587390090e+00 -9.249637798900572250e+00 3.560000000000000000e+02
5.253707562880524762e+00 -7.854974578614350555e+00 3.560000000000000000e+02
5.019369128173659433e+00 -6.460311358328127973e+00 3.560000000000000000e+02
4.785030693466794105e+00 -5.065648138041906279e+00 3.560000000000000000e+02
4.550692258759928777e+00 -3.670984917755683696e+00 3.560000000000000000e+02
4.316353824053062560e+00 -2.276321697469461114e+00 3.560000000000000000e+02
4.082015389346197232e+00 -8.816584771832385314e-01 3.560000000000000000e+02
3.847676954639331903e+00 5.130047431029831628e-01 3.560000000000000000e+02
5.956722867001121635e+00 -1.203896423947301741e+01 3.570000000000000000e+02
5.722384432294256307e+00 -1.064430101918679483e+01 3.570000000000000000e+02
5.488045997587390090e+00 -9.249637798900572250e+00 3.570000000000000000e+02
5.253707562880524762e+00 -7.854974578614350555e+00 3.570000000000000000e+02
5.019369128173659433e+00 -6.460311358328127973e+00 3.570000000000000000e+02
4.785030693466794105e+00 -5.065648138041906279e+00 3.570000000000000000e+02
4.550692258759928777e+00 -3.670984917755683696e+00 3.570000000000000000e+02
4.316353824053062560e+00 -2.276321697469461114e+00 3.570000000000000000e+02
4.082015389346197232e+00 -8.816584771832385314e-01 3.570000000000000000e+02
3.847676954639331903e+00 5.130047431029831628e-01 3.570000000000000000e+02
5.956722867001121635e+00 -1.203896423947301741e+01 3.580000000000000000e+02
5.722384432294256307e+00 -1.064430101918679483e+01 3.580000000000000000e+02
5.488045997587390090e+00 -9.249637798900572250e+00 3.580000000000000000e+02
5.253707562880524762e+00 -7.854974578614350555e+00 3.580000000000000000e+02
5.019369128173659433e+00 -6.460311358328127973e+00 3.580000000000000000e+02
4.785030693466794105e+00 -5.065648138041906279e+00 3.580000000000000000e+02
4.550692258759928777e+00 -3.670984917755683696e+00 3.580000000000000000e+02
4.316353824053062560e+00 -2.276321697469461114e+00 3.580000000000000000e+02
4.082015389346197232e+00 -8.816584771832385314e-01 3.580000000000000000e+02
3.847676954639331903e+00 5.130047431029831628e-01 3.580000000000000000e+02
5.376560474211443008e+00 -1.285346506696956226e+01 3.590000000000000000e+02
5.142222039504577680e+00 -1.145880184668333968e+01 3.590000000000000000e+02
4.907883604797712351e+00 -1.006413862639711709e+01 3.590000000000000000e+02
4.673545170090847023e+00 -8.669475406110894511e+00 3.590000000000000000e+02
4.439206735383980806e+00 -7.274812185824671928e+00 3.590000000000000000e+02
4.204868300677115478e+00 -5.880148965538450234e+00 3.590000000000000000e+02
3.970529865970250150e+00 -4.485485745252227652e+00 3.590000000000000000e+02
3.736191431263384377e+00 -3.090822524966005069e+00 3.590000000000000000e+02
3.501852996556518605e+00 -1.696159304679782487e+00 3.590000000000000000e+02
3.267514561849653276e+00 -3.014960843935599044e-01 3.590000000000000000e+02
3.033176127142787504e+00 1.093167135892662678e+00 3.590000000000000000e+02
5.376560474211443008e+00 -1.285346506696956226e+01 3.600000000000000000e+02
5.142222039504577680e+00 -1.145880184668333968e+01 3.600000000000000000e+02
4.907883604797712351e+00 -1.006413862639711709e+01 3.600000000000000000e+02
4.673545170090847023e+00 -8.669475406110894511e+00 3.600000000000000000e+02
4.439206735383980806e+00 -7.274812185824671928e+00 3.600000000000000000e+02
4.204868300677115478e+00 -5.880148965538450234e+00 3.600000000000000000e+02
3.970529865970250150e+00 -4.485485745252227652e+00 3.600000000000000000e+02
3.736191431263384377e+00 -3.090822524966005069e+00 3.600000000000000000e+02
3.501852996556518605e+00 -1.696159304679782487e+00 3.600000000000000000e+02
3.267514561849653276e+00 -3.014960843935599044e-01 3.600000000000000000e+02
3.033176127142787504e+00 1.093167135892662678e+00 3.600000000000000000e+02
5.376560474211443008e+00 -1.285346506696956226e+01 3.610000000000000000e+02
5.142222039504577680e+00 -1.145880184668333968e+01 3.610000000000000000e+02
4.907883604797712351e+00 -1.006413862639711709e+01 3.610000000000000000e+02
4.673545170090847023e+00 -8.669475406110894511e+00 3.610000000000000000e+02
4.439206735383980806e+00 -7.274812185824671928e+00 3.610000000000000000e+02
4.204868300677115478e+00 -5.880148965538450234e+00 3.610000000000000000e+02
3.970529865970250150e+00 -4.485485745252227652e+00 3.610000000000000000e+02
3.736191431263384377e+00 -3.090822524966005069e+00 3.610000000000000000e+02
3.501852996556518605e+00 -1.696159304679782487e+00 3.610000000000000000e+02
3.267514561849653276e+00 -3.014960843935599044e-01 3.610000000000000000e+02
3.033176127142787504e+00 1.093167135892662678e+00 3.610000000000000000e+02
5.956722867001121635e+00 -1.203896423947301741e+01 3.620000000000000000e+02
5.722384432294256307e+00 -1.064430101918679483e+01 3.620000000000000000e+02
5.488045997587390090e+00 -9.249637798900572250e+00 3.620000000000000000e+02
5.253707562880524762e+00 -7.854974578614350555e+00 3.620000000000000000e+02
5.019369128173659433e+00 -6.460311358328127973e+00 3.620000000000000000e+02
4.785030693466794105e+00 -5.065648138041906279e+00 3.620000000000000000e+02
4.550692258759928777e+00 -3.670984917755683696e+00 3.620000000000000000e+02
4.316353824053062560e+00 -2.276321697469461114e+00 3.620000000000000000e+02
4.082015389346197232e+00 -8.816584771832385314e-01 3.620000000000000000e+02
3.847676954639331903e+00 5.130047431029831628e-01 3.620000000000000000e+02
5.956722867001121635e+00 -1.203896423947301741e+01 3.630000000000000000e+02
5.722384432294256307e+00 -1.064430101918679483e+01 3.630000000000000000e+02
5.488045997587390090e+00 -9.249637798900572250e+00 3.630000000000000000e+02
5.253707562880524762e+00 -7.854974578614350555e+00 3.630000000000000000e+02
5.019369128173659433e+00 -6.460311358328127973e+00 3.630000000000000000e+02
4.785030693466794105e+00 -5.065648138041906279e+00 3.630000000000000000e+02
4.550692258759928777e+00 -3.670984917755683696e+00 3.630000000000000000e+02
4.316353824053062560e+00 -2.276321697469461114e+00 3.630000000000000000e+02
4.082015389346197232e+00 -8.816584771832385314e-01 3.630000000000000000e+02
3.847676954639331903e+00 5.130047431029831628e-01 3.630000000000000000e+02
5.956722867001121635e+00 -1.203896423947301741e+01 3.640000000000000000e+02
5.722384432294256307e+00 -1.064430101918679483e+01 3.640000000000000000e+02
5.488045997587390090e+00 -9.249637798900572250e+00 3.640000000000000000e+02
5.253707562880524762e+00 -7.854974578614350555e+00 3.640000000000000000e+02
5.019369128173659433e+00 -6.460311358328127973e+00 3.640000000000000000e+02
4.785030693466794105e+00 -5.065648138041906279e+00 3.640000000000000000e+02
4.550692258759928777e+00 -3.670984917755683696e+00 3.640000000000000000e+02
4.316353824053062560e+00 -2.276321697469461114e+00 3.640000000000000000e+02
4.082015389346197232e+00 -8.816584771832385314e-01 3.640000000000000000e+02
3.847676954639331903e+00 5.130047431029831628e-01 3.640000000000000000e+02
5.956722867001121635e+00 -1.203896423947301741e+01 3.650000000000000000e+02
5.722384432294256307e+00 -1.064430101918679483e+01 3.650000000000000000e+02
5.488045997587390090e+00 -9.249637798900572250e+00 3.650000000000000000e+02
5.253707562880524762e+00 -7.854974578614350555e+00 3.650000000000000000e+02
5.019369128173659433e+00 -6.460311358328127973e+00 3.650000000000000000e+02
4.785030693466794105e+00 -5.065648138041906279e+00 3.650000000000000000e+02
4.550692258759928777e+00 -3.670984917755683696e+00 3.650000000000000000e+02
4.316353824053062560e+00 -2.276321697469461114e+00 3.650000000000000000e+02
4.082015389346197232e+00 -8.816584771832385314e-01 3.650000000000000000e+02
3.847676954639331903e+00 5.130047431029831628e-01 3.650000000000000000e+02
5.956722867001121635e+00 -1.203896423947301741e+01 3.660000000000000000e+02
5.722384432294256307e+00 -1.064430101918679483e+01 3.660000000000000000e+02
5.488045997587390090e+00 -9.249637798900572250e+00 3.660000000000000000e+02
5.253707562880524762e+00 -7.854974578614350555e+00 3.660000000000000000e+02
5.019369128173659433e+00 -6.460311358328127973e+00 3.660000000000000000e+02
4.785030693466794105e+00 -5.065648138041906279e+00 3.660000000000000000e+02
4.550692258759928777e+00 -3.670984917755683696e+00 3.660000000000000000e+02
4.316353824053062560e+00 -2.276321697469461114e+00 3.660000000000000000e+02
4.082015389346197232e+00 -8.816584771832385314e-01 3.660000000000000000e+02
3.847676954639331903e+00 5.130047431029831628e-01 3.660000000000000000e+02
5.956722867001121635e+00 -1.203896423947301741e+01 3.670000000000000000e+02
5.722384432294256307e+00 -1.064430101918679483e+01 3.670000000000000000e+02
5.488045997587390090e+00 -9.249637798900572250e+00 3.670000000000000000e+02
5.253707562880524762e+00 -7.854974578614350555e+00 3.670000000000000000e+02
5.019369128173659433e+00 -6.460311358328127973e+00 3.670000000000000000e+02
4.785030693466794105e+00 -5.065648138041906279e+00 3.670000000000000000e+02
4.550692258759928777e+00 -3.670984917755683696e+00 3.670000000000000000e+02
4.316353824053062560e+00 -2.276321697469461114e+00 3.670000000000000000e+02
4.082015389346197232e+00 -8.816584771832385314e-01 3.670000000000000000e+02
3.847676954639331903e+00 5.130047431029831628e-01 3.670000000000000000e+02
5.956722867001121635e+00 -1.203896423947301741e+01 3.680000000000000000e+02
5.722384432294256307e+00 -1.064430101918679483e+01 3.680000000000000000e+02
5.488045997587390090e+00 -9.249637798900572250e+00 3.680000000000000000e+02
5.253707562880524762e+00 -7.854974578614350555e+00 3.680000000000000000e+02
5.019369128173659433e+00 -6.460311358328127973e+00 3.680000000000000000e+02
4.785030693466794105e+00 -5.065648138041906279e+00 3.680000000000000000e+02
4.550692258759928777e+00 -3.670984917755683696e+00 3.680000000000000000e+02
4.316353824053062560e+00 -2.276321697469461114e+00 3.680000000000000000e+02
4.082015389346197232e+00 -8.816584771832385314e-01 3.680000000000000000e+02
3.847676954639331903e+00 5.130047431029831628e-01 3.680000000000000000e+02
5.956722867001121635e+00 -1.203896423947301741e+01 3.690000000000000000e+02
5.722384432294256307e+00 -1.064430101918679483e+01 3.690000000000000000e+02
5.488045997587390090e+00 -9.249637798900572250e+00 3.690000000000000000e+02
5.253707562880524762e+00 -7.854974578614350555e+00 3.690000000000000000e+02
5.019369128173659433e+00 -6.460311358328127973e+00 3.690000000000000000e+02
4.785030693466794105e+00 -5.065648138041906279e+00 3.690000000000000000e+02
4.550692258759928777e+00 -3.670984917755683696e+00 3.690000000000000000e+02
4.316353824053062560e+00 -2.276321697469461114e+00 3.690000000000000000e+02
4.082015389346197232e+00 -8.816584771832385314e-01 3.690000000000000000e+02
3.847676954639331903e+00 5.130047431029831628e-01 3.690000000000000000e+02
5.956722867001121635e+00 -1.203896423947301741e+01 3.700000000000000000e+02
5.722384432294256307e+00 -1.064430101918679483e+01 3.700000000000000000e+02
5.488045997587390090e+00 -9.249637798900572250e+00 3.700000000000000000e+02
5.253707562880524762e+00 -7.854974578614350555e+00 3.700000000000000000e+02
5.019369128173659433e+00 -6.460311358328127973e+00 3.700000000000000000e+02
4.785030693466794105e+00 -5.065648138041906279e+00 3.700000000000000000e+02
4.550692258759928777e+00 -3.670984917755683696e+00 3.700000000000000000e+02
4.316353824053062560e+00 -2.276321697469461114e+00 3.700000000000000000e+02
4.082015389346197232e+00 -8.816584771832385314e-01 3.700000000000000000e+02
3.847676954639331903e+00 5.130047431029831628e-01 3.700000000000000000e+02
5.956722867001121635e+00 -1.203896423947301741e+01 3.710000000000000000e+02
5.722384432294256307e+00 -1.064430101918679483e+01 3.710000000000000000e+02
5.488045997587390090e+00 -9.249637798900572250e+00 3.710000000000000000e+02
5.253707562880524762e+00 -7.854974578614350555e+00 3.710000000000000000e+02
5.019369128173659433e+00 -6.460311358328127973e+00 3.710000000000000000e+02
4.785030693466794105e+00 -5.065648138041906279e+00 3.710000000000000000e+02
4.550692258759928777e+00 -3.670984917755683696e+00 3.710000000000000000e+02
4.316353824053062560e+00 -2.276321697469461114e+00 3.710000000000000000e+02
4.082015389346197232e+00 -8.816584771832385314e-01 3.710000000000000000e+02
3.847676954639331903e+00 5.130047431029831628e-01 3.710000000000000000e+02
5.956722867001121635e+00 -1.203896423947301741e+01 3.720000000000000000e+02
5.722384432294256307e+00 -1.064430101918679483e+01 3.720000000000000000e+02
5.488045997587390090e+00 -9.249637798900572250e+00 3.720000000000000000e+02
5.253707562880524762e+00 -7.854974578614350555e+00 3.720000000000000000e+02
5.019369128173659433e+00 -6.460311358328127973e+00 3.720000000000000000e+02
4.785030693466794105e+00 -5.065648138041906279e+00 3.720000000000000000e+02
4.550692258759928777e+00 -3.670984917755683696e+00 3.720000000000000000e+02
4.316353824053062560e+00 -2.276321697469461114e+00 3.720000000000000000e+02
4.082015389346197232e+00 -8.816584771832385314e-01 3.720000000000000000e+02
3.847676954639331903e+00 5.130047431029831628e-01 3.720000000000000000e+02
5.956722867001121635e+00 -1.203896423947301741e+01 3.730000000000000000e+02
5.722384432294256307e+00 -1.064430101918679483e+01 3.730000000000000000e+02
5.488045997587390090e+00 -9.249637798900572250e+00 3.730000000000000000e+02
5.253707562880524762e+00 -7.854974578614350555e+00 3.730000000000000000e+02
5.019369128173659433e+00 -6.460311358328127973e+00 3.730000000000000000e+02
4.785030693466794105e+00 -5.065648138041906279e+00 3.730000000000000000e+02
4.550692258759928777e+00 -3.670984917755683696e+00 3.730000000000000000e+02
4.316353824053062560e+00 -2.276321697469461114e+00 3.730000000000000000e+02
4.082015389346197232e+00 -8.816584771832385314e-01 3.730000000000000000e+02
3.847676954639331903e+00 5.130047431029831628e-01 3.730000000000000000e+02
5.956722867001121635e+00 -1.203896423947301741e+01 3.740000000000000000e+02
5.722384432294256307e+00 -1.064430101918679483e+01 3.740000000000000000e+02
5.488045997587390090e+00 -9.249637798900572250e+00 3.740000000000000000e+02
5.253707562880524762e+00 -7.854974578614350555e+00 3.740000000000000000e+02
5.019369128173659433e+00 -6.460311358328127973e+00 3.740000000000000000e+02
4.785030693466794105e+00 -5.065648138041906279e+00 3.740000000000000000e+02
4.550692258759928777e+00 -3.670984917755683696e+00 3.740000000000000000e+02
4.316353824053062560e+00 -2.276321697469461114e+00 3.740000000000000000e+02
4.082015389346197232e+00 -8.816584771832385314e-01 3.740000000000000000e+02
3.847676954639331903e+00 5.130047431029831628e-01 3.740000000000000000e+02
5.376560474211443008e+00 -1.285346506696956226e+01 3.750000000000000000e+02
5.142222039504577680e+00 -1.145880184668333968e+01 3.750000000000000000e+02
4.907883604797712351e+00 -1.006413862639711709e+01 3.750000000000000000e+02
4.673545170090847023e+00 -8.669475406110894511e+00 3.750000000000000000e+02
4.439206735383980806e+00 -7.274812185824671928e+00 3.750000000000000000e+02
4.204868300677115478e+00 -5.880148965538450234e+00 3.750000000000000000e+02
3.970529865970250150e+00 -4.485485745252227652e+00 3.750000000000000000e+02
3.736191431263384377e+00 -3.090822524966005069e+00 3.750000000000000000e+02
3.501852996556518605e+00 -1.696159304679782487e+00 3.750000000000000000e+02
3.267514561849653276e+00 -3.014960843935599044e-01 3.750000000000000000e+02
3.033176127142787504e+00 1.093167135892662678e+00 3.750000000000000000e+02
5.956722867001121635e+00 -1.203896423947301741e+01 3.760000000000000000e+02
5.722384432294256307e+00 -1.064430101918679483e+01 3.760000000000000000e+02
5.488045997587390090e+00 -9.249637798900572250e+00 3.760000000000000000e+02
5.253707562880524762e+00 -7.854974578614350555e+00 3.760000000000000000e+02
5.019369128173659433e+00 -6.460311358328127973e+00 3.760000000000000000e+02
4.785030693466794105e+00 -5.065648138041906279e+00 3.760000000000000000e+02
4.550692258759928777e+00 -3.670984917755683696e+00 3.760000000000000000e+02
4.316353824053062560e+00 -2.276321697469461114e+00 3.760000000000000000e+02
4.082015389346197232e+00 -8.816584771832385314e-01 3.760000000000000000e+02
3.847676954639331903e+00 5.130047431029831628e-01 3.760000000000000000e+02
