-7.491473415505550015e+00 -5.975296074483457121e-01 3.690000000000000000e+02
4.947995775723993184e+00 2.096836039684760955e+00 3.700000000000000000e+02
3.565832532254044729e+00 1.797462078892193560e+00 3.700000000000000000e+02
2.183669288784095386e+00 1.498088118099626165e+00 3.700000000000000000e+02
8.015060453141457097e-01 1.198714157307058326e+00 3.700000000000000000e+02
-5.806571981558033002e-01 8.993401965144910415e-01 3.700000000000000000e+02
-1.962820441625752643e+00 5.999662357219236464e-01 3.700000000000000000e+02
-3.344983685095702430e+00 3.005922749293562513e-01 3.700000000000000000e+02
-4.727146928565651329e+00 1.218314136789078184e-03 3.700000000000000000e+02
-6.109310172035600672e+00 -2.981556466557783169e-01 3.700000000000000000e+02
-7.491473415505550015e+00 -5.975296074483457121e-01 3.700000000000000000e+02
4.947995775723993184e+00 2.096836039684760955e+00 3.710000000000000000e+02
3.565832532254044729e+00 1.797462078892193560e+00 3.710000000000000000e+02
2.183669288784095386e+00 1.498088118099626165e+00 3.710000000000000000e+02
8.015060453141457097e-01 1.198714157307058326e+00 3.710000000000000000e+02
-5.806571981558033002e-01 8.993401965144910415e-01 3.710000000000000000e+02
-1.962820441625752643e+00 5.999662357219236464e-01 3.710000000000000000e+02
-3.344983685095702430e+00 3.005922749293562513e-01 3.710000000000000000e+02
-4.727146928565651329e+00 1.218314136789078184e-03 3.710000000000000000e+02
-6.109310172035600672e+00 -2.981556466557783169e-01 3.710000000000000000e+02
-7.491473415505550015e+00 -5.975296074483457121e-01 3.710000000000000000e+02
4.947995775723993184e+00 2.096836039684760955e+00 3.720000000000000000e+02
3.565832532254044729e+00 1.797462078892193560e+00 3.720000000000000000e+02
2.183669288784095386e+00 1.498088118099626165e+00 3.720000000000000000e+02
8.015060453141457097e-01 1.198714157307058326e+00 3.720000000000000000e+02
-5.806571981558033002e-01 8.993401965144910415e-01 3.720000000000000000e+02
-1.962820441625752643e+00 5.999662357219236464e-01 3.720000000000000000e+02
-3.344983685095702430e+00 3.005922749293562513e-01 3.720000000000000000e+02
-4.727146928565651329e+00 1.218314136789078184e-03 3.720000000000000000e+02
-6.109310172035600672e+00 -2.981556466557783169e-01 3.720000000000000000e+02
-7.491473415505550015e+00 -5.975296074483457121e-01 3.720000000000000000e+02
4.947995775723993184e+00 2.096836039684760955e+00 3.730000000000000000e+02
3.565832532254044729e+00 1.797462078892193560e+00 3.730000000000000000e+02
2.183669288784095386e+00 1.498088118099626165e+00 3.730000000000000000e+02
8.015060453141457097e-01 1.198714157307058326e+00 3.730000000000000000e+02
-5.806571981558033002e-01 8.993401965144910415e-01 3.730000000000000000e+02
-1.962820441625752643e+00 5.999662357219236464e-01 3.730000000000000000e+02
-3.344983685095702430e+00 3.005922749293562513e-01 3.730000000000000000e+02
-4.727146928565651329e+00 1.218314136789078184e-03 3.730000000000000000e+02
-6.109310172035600672e+00 -2.981556466557783169e-01 3.730000000000000000e+02
-7.491473415505550015e+00 -5.975296074483457121e-01 3.730000000000000000e+02
4.947995775723993184e+00 2.096836039684760955e+00 3.740000000000000000e+02
3.565832532254044729e+00 1.797462078892193560e+00 3.740000000000000000e+02
2.183669288784095386e+00 1.498088118099626165e+00 3.740000000000000000e+02
8.015060453141457097e-01 1.198714157307058326e+00 3.740000000000000000e+02
-5.806571981558033002e-01 8.993401965144910415e-01 3.740000000000000000e+02
-1.962820441625752643e+00 5.999662357219236464e-01 3.740000000000000000e+02
-3.344983685095702430e+00 3.005922749293562513e-01 3.740000000000000000e+02
-4.727146928565651329e+00 1.218314136789078184e-03 3.740000000000000000e+02
-6.109310172035600672e+00 -2.981556466557783169e-01 3.740000000000000000e+02
-7.491473415505550015e+00 -5.975296074483457121e-01 3.740000000000000000e+02
4.947995775723993184e+00 2.096836039684760955e+00 3.750000000000000000e+02
3.565832532254044729e+00 1.797462078892193560e+00 3.750000000000000000e+02
2.183669288784095386e+00 1.498088118099626165e+00 3.750000000000000000e+02
8.015060453141457097e-01 1.198714157307058326e+00 3.750000000000000000e+02
-5.806571981558033002e-01 8.993401965144910415e-01 3.750000000000000000e+02
-1.962820441625752643e+00 5.999662357219236464e-01 3.750000000000000000e+02
-3.344983685095702430e+00 3.005922749293562513e-01 3.750000000000000000e+02
-4.727146928565651329e+00 1.218314136789078184e-03 3.750000000000000000e+02
-6.109310172035600672e+00 -2.981556466557783169e-01 3.750000000000000000e+02
-7.491473415505550015e+00 -5.975296074483457121e-01 3.750000000000000000e+02
4.947995775723993184e+00 2.096836039684760955e+00 3.760000000000000000e+02
3.565832532254044729e+00 1.797462078892193560e+00 3.760000000000000000e+02
2.183669288784095386e+00 1.498088118099626165e+00 3.760000000000000000e+02
8.015060453141457097e-01 1.198714157307058326e+00 3.760000000000000000e+02
-5.806571981558033002e-01 8.993401965144910415e-01 3.760000000000000000e+02
-1.962820441625752643e+00 5.999662357219236464e-01 3.760000000000000000e+02
-3.344983685095702430e+00 3.005922749293562513e-01 3.760000000000000000e+02
-4.727146928565651329e+00 1.218314136789078184e-03 3.760000000000000000e+02
-6.109310172035600672e+00 -2.981556466557783169e-01 3.760000000000000000e+02
-7.491473415505550015e+00 -5.975296074483457121e-01 3.760000000000000000e+02
4.947995775723993184e+00 2.096836039684760955e+00 3.770000000000000000e+02
3.565832532254044729e+00 1.797462078892193560e+00 3.770000000000000000e+02
2.183669288784095386e+00 1.498088118099626165e+00 3.770000000000000000e+02
8.015060453141457097e-01 1.198714157307058326e+00 3.770000000000000000e+02
-5.806571981558033002e-01 8.993401965144910415e-01 3.770000000000000000e+02
-1.962820441625752643e+00 5.999662357219236464e-01 3.770000000000000000e+02
-3.344983685095702430e+00 3.005922749293562513e-01 3.770000000000000000e+02
-4.727146928565651329e+00 1.218314136789078184e-03 3.770000000000000000e+02
-6.109310172035600672e+00 -2.981556466557783169e-01 3.770000000000000000e+02
-7.491473415505550015e+00 -5.975296074483457121e-01 3.770000000000000000e+02
4.947995775723993184e+00 2.096836039684760955e+00 3.780000000000000000e+02
3.565832532254044729e+00 1.797462078892193560e+00 3.780000000000000000e+02
2.183669288784095386e+00 1.498088118099626165e+00 3.780000000000000000e+02
8.015060453141457097e-01 1.198714157307058326e+00 3.780000000000000000e+02
-5.806571981558033002e-01 8.993401965144910415e-01 3.780000000000000000e+02
-1.962820441625752643e+00 5.999662357219236464e-01 3.780000000000000000e+02
-3.344983685095702430e+00 3.005922749293562513e-01 3.780000000000000000e+02
-4.727146928565651329e+00 1.218314136789078184e-03 3.780000000000000000e+02
-6.109310172035600672e+00 -2.981556466557783169e-01 3.780000000000000000e+02
-7.491473415505550015e+00 -5.975296074483457121e-01 3.780000000000000000e+02
4.947995775723993184e+00 2.096836039684760955e+00 3.790000000000000000e+02
3.565832532254044729e+00 1.797462078892193560e+00 3.790000000000000000e+02
2.183669288784095386e+00 1.498088118099626165e+00 3.790000000000000000e+02
8.015060453141457097e-01 1.198714157307058326e+00 3.790000000000000000e+02
-5.806571981558033002e-01 8.993401965144910415e-01 3.790000000000000000e+02
-1.962820441625752643e+00 5.999662357219236464e-01 3.790000000000000000e+02
-3.344983685095702430e+00 3.005922749293562513e-01 3.790000000000000000e+02
-4.727146928565651329e+00 1.218314136789078184e-03 3.790000000000000000e+02
-6.109310172035600672e+00 -2.981556466557783169e-01 3.790000000000000000e+02
-7.491473415505550015e+00 -5.975296074483457121e-01 3.790000000000000000e+02
4.947995775723993184e+00 2.096836039684760955e+00 3.800000000000000000e+02
3.565832532254044729e+00 1.797462078892193560e+00 3.800000000000000000e+02
2.183669288784095386e+00 1.498088118099626165e+00 3.800000000000000000e+02
8.015060453141457097e-01 1.198714157307058326e+00 3.800000000000000000e+02
-5.806571981558033002e-01 8.993401965144910415e-01 3.800000000000000000e+02
-1.962820441625752643e+00 5.999662357219236464e-01 3.800000000000000000e+02
-3.344983685095702430e+00 3.005922749293562513e-01 3.800000000000000000e+02
-4.727146928565651329e+00 1.218314136789078184e-03 3.800000000000000000e+02
-6.109310172035600672e+00 -2.981556466557783169e-01 3.800000000000000000e+02
-7.491473415505550015e+00 -5.975296074483457121e-01 3.800000000000000000e+02
4.947995775723993184e+00 2.096836039684760955e+00 3.810000000000000000e+02
3.565832532254044729e+00 1.797462078892193560e+00 3.810000000000000000e+02
2.183669288784095386e+00 1.498088118099626165e+00 3.810000000000000000e+02
8.015060453141457097e-01 1.198714157307058326e+00 3.810000000000000000e+02
-5.806571981558033002e-01 8.993401965144910415e-01 3.810000000000000000e+02
-1.962820441625752643e+00 5.999662357219236464e-01 3.810000000000000000e+02
-3.344983685095702430e+00 3.005922749293562513e-01 3.810000000000000000e+02
-4.727146928565651329e+00 1.218314136789078184e-03 3.810000000000000000e+02
-6.109310172035600672e+00 -2.981556466557783169e-01 3.810000000000000000e+02
-7.491473415505550015e+00 -5.975296074483457121e-01 3.810000000000000000e+02
4.947995775723993184e+00 2.096836039684760955e+00 3.820000000000000000e+02
3.565832532254044729e+00 1.797462078892193560e+00 3.820000000000000000e+02
2.183669288784095386e+00 1.498088118099626165e+00 3.820000000000000000e+02
8.015060453141457097e-01 1.198714157307058326e+00 3.820000000000000000e+02
-5.806571981558033002e-01 8.993401965144910415e-01 3.820000000000000000e+02
-1.962820441625752643e+00 5.999662357219236464e-01 3.820000000000000000e+02
-3.344983685095702430e+00 3.005922749293562513e-01 3.820000000000000000e+02
-4.727146928565651329e+00 1.218314136789078184e-03 3.820000000000000000e+02
-6.109310172035600672e+00 -2.981556466557783169e-01 3.820000000000000000e+02
-7.491473415505550015e+00 -5.975296074483457121e-01 3.820000000000000000e+02
4.947995775723993184e+00 2.096836039684760955e+00 3.830000000000000000e+02
3.565832532254044729e+00 1.797462078892193560e+00 3.830000000000000000e+02
2.183669288784095386e+00 1.498088118099626165e+00 3.830000000000000000e+02
8.015060453141457097e-01 1.198714157307058326e+00 3.830000000000000000e+02
-5.806571981558033002e-01 8.993401965144910415e-01 3.830000000000000000e+02
-1.962820441625752643e+00 5.999662357219236464e-01 3.830000000000000000e+02
-3.344983685095702430e+00 3.005922749293562513e-01 3.830000000000000000e+02
-4.727146928565651329e+00 1.218314136789078184e-03 3.830000000000000000e+02
-6.109310172035600672e+00 -2.981556466557783169e-01 3.830000000000000000e+02
-7.491473415505550015e+00 -5.975296074483457121e-01 3.830000000000000000e+02
4.947995775723993184e+00 2.096836039684760955e+00 3.840000000000000000e+02
3.565832532254044729e+00 1.797462078892193560e+00 3.840000000000000000e+02
2.183669288784095386e+00 1.498088118099626165e+00 3.840000000000000000e+02
8.015060453141457097e-01 1.198714157307058326e+00 3.840000000000000000e+02
-5.806571981558033002e-01 8.993401965144910415e-01 3.840000000000000000e+02
-1.962820441625752643e+00 5.999662357219236464e-01 3.840000000000000000e+02
-3.344983685095702430e+00 3.005922749293562513e-01 3.840000000000000000e+02
-4.727146928565651329e+00 1.218314136789078184e-03 3.840000000000000000e+02
-6.109310172035600672e+00 -2.981556466557783169e-01 3.840000000000000000e+02
-7.491473415505550015e+00 -5.975296074483457121e-01 3.840000000000000000e+02
4.947995775723993184e+00 2.096836039684760955e+00 3.850000000000000000e+02
3.565832532254044729e+00 1.797462078892193560e+00 3.850000000000000000e+02
2.183669288784095386e+00 1.498088118099626165e+00 3.850000000000000000e+02
8.015060453141457097e-01 1.198714157307058326e+00 3.850000000000000000e+02
-5.806571981558033002e-01 8.993401965144910415e-01 3.850000000000000000e+02
-1.962820441625752643e+00 5.999662357219236464e-01 3.850000000000000000e+02
-3.344983685095702430e+00 3.005922749293562513e-01 3.850000000000000000e+02
-4.727146928565651329e+00 1.218314136789078184e-03 3.850000000000000000e+02
-6.109310172035600672e+00 -2.981556466557783169e-01 3.850000000000000000e+02
-7.491473415505550015e+00 -5.975296074483457121e-01 3.850000000000000000e+02
4.947995775723993184e+00 2.096836039684760955e+00 3.860000000000000000e+02
3.565832532254044729e+00 1.797462078892193560e+00 3.860000000000000000e+02
2.183669288784095386e+00 1.498088118099626165e+00 3.860000000000000000e+02
8.015060453141457097e-01 1.198714157307058326e+00 3.860000000000000000e+02
-5.806571981558033002e-01 8.993401965144910415e-01 3.860000000000000000e+02
-1.962820441625752643e+00 5.999662357219236464e-01 3.860000000000000000e+02
-3.344983685095702430e+00 3.005922749293562513e-01 3.860000000000000000e+02
-4.727146928565651329e+00 1.218314136789078184e-03 3.860000000000000000e+02
-6.109310172035600672e+00 -2.981556466557783169e-01 3.860000000000000000e+02
-7.491473415505550015e+00 -5.975296074483457121e-01 3.860000000000000000e+02
4.947995775723993184e+00 2.096836039684760955e+00 3.870000000000000000e+02
3.565832532254044729e+00 1.797462078892193560e+00 3.870000000000000000e+02
2.183669288784095386e+00 1.498088118099626165e+00 3.870000000000000000e+02
8.015060453141457097e-01 1.198714157307058326e+00 3.870000000000000000e+02
-5.806571981558033002e-01 8.993401965144910415e-01 3.870000000000000000e+02
-1.962820441625752643e+00 5.999662357219236464e-01 3.870000000000000000e+02
-3.344983685095702430e+00 3.005922749293562513e-01 3.870000000000000000e+02
-4.727146928565651329e+00 1.218314136789078184e-03 3.870000000000000000e+02
-6.109310172035600672e+00 -2.981556466557783169e-01 3.870000000000000000e+02
-7.491473415505550015e+00 -5.975296074483457121e-01 3.870000000000000000e+02
4.947995775723993184e+00 2.096836039684760955e+00 3.880000000000000000e+02
3.565832532254044729e+00 1.797462078892193560e+00 3.880000000000000000e+02
2.183669288784095386e+00 1.498088118099626165e+00 3.880000000000000000e+02
8.015060453141457097e-01 1.198714157307058326e+00 3.880000000000000000e+02
-5.806571981558033002e-01 8.993401965144910415e-01 3.880000000000000000e+02
-1.962820441625752643e+00 5.999662357219236464e-01 3.880000000000000000e+02
-3.344983685095702430e+00 3.005922749293562513e-01 3.880000000000000000e+02
-4.727146928565651329e+00 1.218314136789078184e-03 3.880000000000000000e+02
-6.109310172035600672e+00 -2.981556466557783169e-01 3.880000000000000000e+02
-7.491473415505550015e+00 -5.975296074483457121e-01 3.880000000000000000e+02
4.947995775723993184e+00 2.096836039684760955e+00 3.890000000000000000e+02
3.565832532254044729e+00 1.797462078892193560e+00 3.890000000000000000e+02
2.183669288784095386e+00 1.498088118099626165e+00 3.890000000000000000e+02
8.015060453141457097e-01 1.198714157307058326e+00 3.890000000000000000e+02
-5.806571981558033002e-01 8.993401965144910415e-01 3.890000000000000000e+02
-1.962820441625752643e+00 5.999662357219236464e-01 3.890000000000000000e+02
-3.344983685095702430e+00 3.005922749293562513e-01 3.890000000000000000e+02
-4.727146928565651329e+00 1.218314136789078184e-03 3.890000000000000000e+02
-6.109310172035600672e+00 -2.981556466557783169e-01 3.890000000000000000e+02
-7.491473415505550015e+00 -5.975296074483457121e-01 3.890000000000000000e+02
4.947995775723993184e+00 2.096836039684760955e+00 3.900000000000000000e+02
3.565832532254044729e+00 1.797462078892193560e+00 3.900000000000000000e+02
2.183669288784095386e+00 1.498088118099626165e+00 3.900000000000000000e+02
8.015060453141457097e-01 1.198714157307058326e+00 3.900000000000000000e+02
-5.806571981558033002e-01 8.993401965144910415e-01 3.900000000000000000e+02
-1.962820441625752643e+00 5.999662357219236464e-01 3.900000000000000000e+02
-3.344983685095702430e+00 3.005922749293562513e-01 3.900000000000000000e+02
-4.727146928565651329e+00 1.218314136789078184e-03 3.900000000000000000e+02
-6.109310172035600672e+00 -2.981556466557783169e-01 3.900000000000000000e+02
-7.491473415505550015e+00 -5.975296074483457121e-01 3.900000000000000000e+02
4.947995775723993184e+00 2.096836039684760955e+00 3.910000000000000000e+02
3.565832532254044729e+00 1.797462078892193560e+00 3.910000000000000000e+02
2.183669288784095386e+00 1.498088118099626165e+00 3.910000000000000000e+02
8.015060453141457097e-01 1.198714157307058326e+00 3.910000000000000000e+02
-5.806571981558033002e-01 8.993401965144910415e-01 3.910000000000000000e+02
-1.962820441625752643e+00 5.999662357219236464e-01 3.910000000000000000e+02
-3.344983685095702430e+00 3.005922749293562513e-01 3.910000000000000000e+02
-4.727146928565651329e+00 1.218314136789078184e-03 3.910000000000000000e+02
-6.109310172035600672e+00 -2.981556466557783169e-01 3.910000000000000000e+02
-7.491473415505550015e+00 -5.975296074483457121e-01 3.910000000000000000e+02
4.947995775723993184e+00 2.096836039684760955e+00 3.920000000000000000e+02
3.565832532254044729e+00 1.797462078892193560e+00 3.920000000000000000e+02
2.183669288784095386e+00 1.498088118099626165e+00 3.920000000000000000e+02
8.015060453141457097e-01 1.198714157307058326e+00 3.920000000000000000e+02
-5.806571981558033002e-01 8.993401965144910415e-01 3.920000000000000000e+02
-1.962820441625752643e+00 5.999662357219236464e-01 3.920000000000000000e+02
-3.344983685095702430e+00 3.005922749293562513e-01 3.920000000000000000e+02
-4.727146928565651329e+00 1.218314136789078184e-03 3.920000000000000000e+02
-6.109310172035600672e+00 -2.981556466557783169e-01 3.920000000000000000e+02
-7.491473415505550015e+00 -5.975296074483457121e-01 3.920000000000000000e+02
4.947995775723993184e+00 2.096836039684760955e+00 3.930000000000000000e+02
3.565832532254044729e+00 1.797462078892193560e+00 3.930000000000000000e+02
2.183669288784095386e+00 1.498088118099626165e+00 3.930000000000000000e+02
8.015060453141457097e-01 1.198714157307058326e+00 3.930000000000000000e+02
-5.806571981558033002e-01 8.993401965144910415e-01 3.930000000000000000e+02
-1.962820441625752643e+00 5.999662357219236464e-01 3.930000000000000000e+02
-3.344983685095702430e+00 3.005922749293562513e-01 3.930000000000000000e+02
-4.727146928565651329e+00 1.218314136789078184e-03 3.930000000000000000e+02
-6.109310172035600672e+00 -2.981556466557783169e-01 3.930000000000000000e+02
-7.491473415505550015e+00 -5.975296074483457121e-01 3.930000000000000000e+02
4.947995775723993184e+00 2.096836039684760955e+00 3.940000000000000000e+02
3.565832532254044729e+00 1.797462078892193560e+00 3.940000000000000000e+02
2.183669288784095386e+00 1.498088118099626165e+00 3.940000000000000000e+02
8.015060453141457097e-01 1.198714157307058326e+00 3.940000000000000000e+02
-5.806571981558033002e-01 8.993401965144910415e-01 3.940000000000000000e+02
-1.962820441625752643e+00 5.999662357219236464e-01 3.940000000000000000e+02
-3.344983685095702430e+00 3.005922749293562513e-01 3.940000000000000000e+02
-4.727146928565651329e+00 1.218314136789078184e-03 3.940000000000000000e+02
-6.109310172035600672e+00 -2.981556466557783169e-01 3.940000000000000000e+02
-7.491473415505550015e+00 -5.975296074483457121e-01 3.940000000000000000e+02
4.947995775723993184e+00 2.096836039684760955e+00 3.950000000000000000e+02
3.565832532254044729e+00 1.797462078892193560e+00 3.950000000000000000e+02
2.183669288784095386e+00 1.498088118099626165e+00 3.950000000000000000e+02
8.015060453141457097e-01 1.198714157307058326e+00 3.950000000000000000e+02
-5.806571981558033002e-01 8.993401965144910415e-01 3.950000000000000000e+02
-1.962820441625752643e+00 5.999662357219236464e-01 3.950000000000000000e+02
-3.344983685095702430e+00 3.005922749293562513e-01 3.950000000000000000e+02
-4.727146928565651329e+00 1.218314136789078184e-03 3.950000000000000000e+02
-6.109310172035600672e+00 -2.981556466557783169e-01 3.950000000000000000e+02
-7.491473415505550015e+00 -5.975296074483457121e-01 3.950000000000000000e+02
4.947995775723993184e+00 2.096836039684760955e+00 3.960000000000000000e+02
3.565832532254044729e+00 1.797462078892193560e+00 3.960000000000000000e+02
2.183669288784095386e+00 1.498088118099626165e+00 3.960000000000000000e+02
8.015060453141457097e-01 1.198714157307058326e+00 3.960000000000000000e+02
-5.806571981558033002e-01 8.993401965144910415e-01 3.960000000000000000e+02
-1.962820441625752643e+00 5.999662357219236464e-01 3.960000000000000000e+02
-3.344983685095702430e+00 3.005922749293562513e-01 3.960000000000000000e+02
-4.727146928565651329e+00 1.218314136789078184e-03 3.960000000000000000e+02
-6.109310172035600672e+00 -2.981556466557783169e-01 3.960000000000000000e+02
-7.491473415505550015e+00 -5.975296074483457121e-01 3.960000000000000000e+02
4.947995775723993184e+00 2.096836039684760955e+00 3.970000000000000000e+02
3.565832532254044729e+00 1.797462078892193560e+00 3.970000000000000000e+02
2.183669288784095386e+00 1.498088118099626165e+00 3.970000000000000000e+02
8.015060453141457097e-01 1.198714157307058326e+00 3.970000000000000000e+02
-5.806571981558033002e-01 8.993401965144910415e-01 3.970000000000000000e+02
-1.962820441625752643e+00 5.999662357219236464e-01 3.970000000000000000e+02
-3.344983685095702430e+00 3.005922749293562513e-01 3.970000000000000000e+02
-4.727146928565651329e+00 1.218314136789078184e-03 3.970000000000000000e+02
-6.109310172035600672e+00 -2.981556466557783169e-01 3.970000000000000000e+02
-7.491473415505550015e+00 -5.975296074483457121e-01 3.970000000000000000e+02
4.947995775723993184e+00 2.096836039684760955e+00 3.980000000000000000e+02
3.565832532254044729e+00 1.797462078892193560e+00 3.980000000000000000e+02
2.183669288784095386e+00 1.498088118099626165e+00 3.980000000000000000e+02
8.015060453141457097e-01 1.198714157307058326e+00 3.980000000000000000e+02
-5.806571981558033002e-01 8.993401965144910415e-01 3.980000000000000000e+02
-1.962820441625752643e+00 5.999662357219236464e-01 3.980000000000000000e+02
-3.344983685095702430e+00 3.005922749293562513e-01 3.980000000000000000e+02
-4.727146928565651329e+00 1.218314136789078184e-03 3.980000000000000000e+02
-6.109310172035600672e+00 -2.981556466557783169e-01 3.980000000000000000e+02
4.947995775723993184e+00 2.096836039684760955e+00 3.990000000000000000e+02
3.565832532254044729e+00 1.797462078892193560e+00 3.990000000000000000e+02
2.183669288784095386e+00 1.498088118099626165e+00 3.990000000000000000e+02
8.015060453141457097e-01 1.198714157307058326e+00 3.990000000000000000e+02
-5.806571981558033002e-01 8.993401965144910415e-01 3.990000000000000000e+02
-1.962820441625752643e+00 5.999662357219236464e-01 3.990000000000000000e+02
-3.344983685095702430e+00 3.005922749293562513e-01 3.990000000000000000e+02
-4.727146928565651329e+00 1.218314136789078184e-03 3.990000000000000000e+02
-6.109310172035600672e+00 -2.981556466557783169e-01 3.990000000000000000e+02
4.947995775723993184e+00 2.096836039684760955e+00 4.000000000000000000e+02
3.565832532254044729e+00 1.797462078892193560e+00 4.000000000000000000e+02
2.183669288784095386e+00 1.498088118099626165e+00 4.000000000000000000e+02
8.015060453141457097e-01 1.198714157307058326e+00 4.000000000000000000e+02
-5.806571981558033002e-01 8.993401965144910415e-01 4.000000000000000000e+02
-1.962820441625752643e+00 5.999662357219236464e-01 4.000000000000000000e+02
-3.344983685095702430e+00 3.005922749293562513e-01 4.000000000000000000e+02
-4.727146928565651329e+00 1.218314136789078184e-03 4.000000000000000000e+02
-6.109310172035600672e+00 -2.981556466557783169e-01 4.000000000000000000e+02
4.947995775723993184e+00 2.096836039684760955e+00 4.010000000000000000e+02
3.565832532254044729e+00 1.797462078892193560e+00 4.010000000000000000e+02
2.183669288784095386e+00 1.498088118099626165e+00 4.010000000000000000e+02
8.015060453141457097e-01 1.198714157307058326e+00 4.010000000000000000e+02
-5.806571981558033002e-01 8.993401965144910415e-01 4.010000000000000000e+02
-1.962820441625752643e+00 5.999662357219236464e-01 4.010000000000000000e+02
-3.344983685095702430e+00 3.005922749293562513e-01 4.010000000000000000e+02
-4.727146928565651329e+00 1.218314136789078184e-03 4.010000000000000000e+02
-6.109310172035600672e+00 -2.981556466557783169e-01 4.010000000000000000e+02
4.947995775723993184e+00 2.096836039684760955e+00 4.020000000000000000e+02
3.565832532254044729e+00 1.797462078892193560e+00 4.020000000000000000e+02
2.183669288784095386e+00 1.498088118099626165e+00 4.020000000000000000e+02
8.015060453141457097e-01 1.198714157307058326e+00 4.020000000000000000e+02
-5.806571981558033002e-01 8.993401965144910415e-01 4.020000000000000000e+02
-1.962820441625752643e+00 5.999662357219236464e-01 4.020000000000000000e+02
-3.344983685095702430e+00 3.005922749293562513e-01 4.020000000000000000e+02
-4.727146928565651329e+00 1.218314136789078184e-03 4.020000000000000000e+02
-6.109310172035600672e+00 -2.981556466557783169e-01 4.020000000000000000e+02
-7.491473415505550015e+00 -5.975296074483457121e-01 4.020000000000000000e+02
4.947995775723993184e+00 2.096836039684760955e+00 4.030000000000000000e+02
3.565832532254044729e+00 1.797462078892193560e+00 4.030000000000000000e+02
2.183669288784095386e+00 1.498088118099626165e+00 4.030000000000000000e+02
8.015060453141457097e-01 1.198714157307058326e+00 4.030000000000000000e+02
-5.806571981558033002e-01 8.993401965144910415e-01 4.030000000000000000e+02
-1.962820441625752643e+00 5.999662357219236464e-01 4.030000000000000000e+02
-3.344983685095702430e+00 3.005922749293562513e-01 4.030000000000000000e+02
-4.727146928565651329e+00 1.218314136789078184e-03 4.030000000000000000e+02
-6.109310172035600672e+00 -2.981556466557783169e-01 4.030000000000000000e+02
-7.491473415505550015e+00 -5.975296074483457121e-01 4.030000000000000000e+02
4.947995775723993184e+00 2.096836039684760955e+00 4.040000000000000000e+02
3.565832532254044729e+00 1.797462078892193560e+00 4.040000000000000000e+02
2.183669288784095386e+00 1.498088118099626165e+00 4.040000000000000000e+02
8.015060453141457097e-01 1.198714157307058326e+00 4.040000000000000000e+02
-5.806571981558033002e-01 8.993401965144910415e-01 4.040000000000000000e+02
-1.962820441625752643e+00 5.999662357219236464e-01 4.040000000000000000e+02
-3.344983685095702430e+00 3.005922749293562513e-01 4.040000000000000000e+02
-4.727146928565651329e+00 1.218314136789078184e-03 4.040000000000000000e+02
-6.109310172035600672e+00 -2.981556466557783169e-01 4.040000000000000000e+02
-7.491473415505550015e+00 -5.975296074483457121e-01 4.040000000000000000e+02
5.788764377855252441e+00 1.555441398346069981e+00 4.050000000000000000e+02
4.406601134385303098e+00 1.256067437553502586e+00 4.050000000000000000e+02
3.024437890915353755e+00 9.566934767609350798e-01 4.050000000000000000e+02
1.642274647445403968e+00 6.573195159683673516e-01 4.050000000000000000e+02
2.601114039754549578e-01 3.579455551758000675e-01 4.050000000000000000e+02
-1.122051839494494274e+00 5.857159438323267242e-02 4.050000000000000000e+02
-2.504215082964444061e+00 -2.408023664093348337e-01 4.050000000000000000e+02
-3.886378326434392960e+00 -5.401763272019018958e-01 4.050000000000000000e+02
-5.268541569904342303e+00 -8.395502879944692909e-01 4.050000000000000000e+02
-6.650704813374292534e+00 -1.138924248787036575e+00 4.050000000000000000e+02
-8.032868056844240101e+00 -1.438298209579603970e+00 4.050000000000000000e+02
5.788764377855252441e+00 1.555441398346069981e+00 4.060000000000000000e+02
4.406601134385303098e+00 1.256067437553502586e+00 4.060000000000000000e+02
3.024437890915353755e+00 9.566934767609350798e-01 4.060000000000000000e+02
1.642274647445403968e+00 6.573195159683673516e-01 4.060000000000000000e+02
2.601114039754549578e-01 3.579455551758000675e-01 4.060000000000000000e+02
-1.122051839494494274e+00 5.857159438323267242e-02 4.060000000000000000e+02
-2.504215082964444061e+00 -2.408023664093348337e-01 4.060000000000000000e+02
-3.886378326434392960e+00 -5.401763272019018958e-01 4.060000000000000000e+02
-5.268541569904342303e+00 -8.395502879944692909e-01 4.060000000000000000e+02
-6.650704813374292534e+00 -1.138924248787036575e+00 4.060000000000000000e+02
-8.032868056844240101e+00 -1.438298209579603970e+00 4.060000000000000000e+02
4.947995775723993184e+00 2.096836039684760955e+00 4.070000000000000000e+02
3.565832532254044729e+00 1.797462078892193560e+00 4.070000000000000000e+02
2.183669288784095386e+00 1.498088118099626165e+00 4.070000000000000000e+02
8.015060453141457097e-01 1.198714157307058326e+00 4.070000000000000000e+02
-5.806571981558033002e-01 8.993401965144910415e-01 4.070000000000000000e+02
-1.962820441625752643e+00 5.999662357219236464e-01 4.070000000000000000e+02
-3.344983685095702430e+00 3.005922749293562513e-01 4.070000000000000000e+02
-4.727146928565651329e+00 1.218314136789078184e-03 4.070000000000000000e+02
-6.109310172035600672e+00 -2.981556466557783169e-01 4.070000000000000000e+02
4.947995775723993184e+00 2.096836039684760955e+00 4.080000000000000000e+02
3.565832532254044729e+00 1.797462078892193560e+00 4.080000000000000000e+02
2.183669288784095386e+00 1.498088118099626165e+00 4.080000000000000000e+02
8.015060453141457097e-01 1.198714157307058326e+00 4.080000000000000000e+02
-5.806571981558033002e-01 8.993401965144910415e-01 4.080000000000000000e+02
-1.962820441625752643e+00 5.999662357219236464e-01 4.080000000000000000e+02
-3.344983685095702430e+00 3.005922749293562513e-01 4.080000000000000000e+02
-4.727146928565651329e+00 1.218314136789078184e-03 4.080000000000000000e+02
-6.109310172035600672e+00 -2.981556466557783169e-01 4.080000000000000000e+02
4.947995775723993184e+00 2.096836039684760955e+00 4.090000000000000000e+02
3.565832532254044729e+00 1.797462078892193560e+00 4.090000000000000000e+02
2.183669288784095386e+00 1.498088118099626165e+00 4.090000000000000000e+02
8.015060453141457097e-01 1.198714157307058326e+00 4.090000000000000000e+02
-5.806571981558033002e-01 8.993401965144910415e-01 4.090000000000000000e+02
-1.962820441625752643e+00 5.999662357219236464e-01 4.090000000000000000e+02
-3.344983685095702430e+00 3.005922749293562513e-01 4.090000000000000000e+02
-4.727146928565651329e+00 1.218314136789078184e-03 4.090000000000000000e+02
-6.109310172035600672e+00 -2.981556466557783169e-01 4.090000000000000000e+02
4.947995775723993184e+00 2.096836039684760955e+00 4.100000000000000000e+02
3.565832532254044729e+00 1.797462078892193560e+00 4.100000000000000000e+02
2.183669288784095386e+00 1.498088118099626165e+00 4.100000000000000000e+02
8.015060453141457097e-01 1.198714157307058326e+00 4.100000000000000000e+02
-5.806571981558033002e-01 8.993401965144910415e-01 4.100000000000000000e+02
-1.962820441625752643e+00 5.999662357219236464e-01 4.100000000000000000e+02
-3.344983685095702430e+00 3.005922749293562513e-01 4.100000000000000000e+02
-4.727146928565651329e+00 1.218314136789078184e-03 4.100000000000000000e+02
-6.109310172035600672e+00 -2.981556466557783169e-01 4.100000000000000000e+02
5.788764377855252441e+00 1.555441398346069981e+00 4.110000000000000000e+02
4.406601134385303098e+00 1.256067437553502586e+00 4.110000000000000000e+02
3.024437890915353755e+00 9.566934767609350798e-01 4.110000000000000000e+02
1.642274647445403968e+00 6.573195159683673516e-01 4.110000000000000000e+02
2.601114039754549578e-01 3.579455551758000675e-01 4.110000000000000000e+02
-1.122051839494494274e+00 5.857159438323267242e-02 4.110000000000000000e+02
-2.504215082964444061e+00 -2.408023664093348337e-01 4.110000000000000000e+02
-3.886378326434392960e+00 -5.401763272019018958e-01 4.110000000000000000e+02
-5.268541569904342303e+00 -8.395502879944692909e-01 4.110000000000000000e+02
-6.650704813374292534e+00 -1.138924248787036575e+00 4.110000000000000000e+02
5.788764377855252441e+00 1.555441398346069981e+00 4.120000000000000000e+02
4.406601134385303098e+00 1.256067437553502586e+00 4.120000000000000000e+02
3.024437890915353755e+00 9.566934767609350798e-01 4.120000000000000000e+02
1.642274647445403968e+00 6.573195159683673516e-01 4.120000000000000000e+02
2.601114039754549578e-01 3.579455551758000675e-01 4.120000000000000000e+02
-1.122051839494494274e+00 5.857159438323267242e-02 4.120000000000000000e+02
-2.504215082964444061e+00 -2.408023664093348337e-01 4.120000000000000000e+02
-3.886378326434392960e+00 -5.401763272019018958e-01 4.120000000000000000e+02
-5.268541569904342303e+00 -8.395502879944692909e-01 4.120000000000000000e+02
-6.650704813374292534e+00 -1.138924248787036575e+00 4.120000000000000000e+02
5.788764377855252441e+00 1.555441398346069981e+00 4.130000000000000000e+02
4.406601134385303098e+00 1.256067437553502586e+00 4.130000000000000000e+02
3.024437890915353755e+00 9.566934767609350798e-01 4.130000000000000000e+02
1.642274647445403968e+00 6.573195159683673516e-01 4.130000000000000000e+02
2.601114039754549578e-01 3.579455551758000675e-01 4.130000000000000000e+02
-1.122051839494494274e+00 5.857159438323267242e-02 4.130000000000000000e+02
-2.504215082964444061e+00 -2.408023664093348337e-01 4.130000000000000000e+02
-3.886378326434392960e+00 -5.401763272019018958e-01 4.130000000000000000e+02
-5.268541569904342303e+00 -8.395502879944692909e-01 4.130000000000000000e+02
-6.650704813374292534e+00 -1.138924248787036575e+00 4.130000000000000000e+02
5.788764377855252441e+00 1.555441398346069981e+00 4.140000000000000000e+02
4.406601134385303098e+00 1.256067437553502586e+00 4.140000000000000000e+02
3.024437890915353755e+00 9.566934767609350798e-01 4.140000000000000000e+02
1.642274647445403968e+00 6.573195159683673516e-01 4.140000000000000000e+02
2.601114039754549578e-01 3.579455551758000675e-01 4.140000000000000000e+02
-1.122051839494494274e+00 5.857159438323267242e-02 4.140000000000000000e+02
-2.504215082964444061e+00 -2.408023664093348337e-01 4.140000000000000000e+02
-3.886378326434392960e+00 -5.401763272019018958e-01 4.140000000000000000e+02
-5.268541569904342303e+00 -8.395502879944692909e-01 4.140000000000000000e+02
-6.650704813374292534e+00 -1.138924248787036575e+00 4.140000000000000000e+02
5.788764377855252441e+00 1.555441398346069981e+00 4.150000000000000000e+02
4.406601134385303098e+00 1.256067437553502586e+00 4.150000000000000000e+02
3.024437890915353755e+00 9.566934767609350798e-01 4.150000000000000000e+02
1.642274647445403968e+00 6.573195159683673516e-01 4.150000000000000000e+02
2.601114039754549578e-01 3.579455551758000675e-01 4.150000000000000000e+02
-1.122051839494494274e+00 5.857159438323267242e-02 4.150000000000000000e+02
-2.504215082964444061e+00 -2.408023664093348337e-01 4.150000000000000000e+02
-3.886378326434392960e+00 -5.401763272019018958e-01 4.150000000000000000e+02
-5.268541569904342303e+00 -8.395502879944692909e-01 4.150000000000000000e+02
-6.650704813374292534e+00 -1.138924248787036575e+00 4.150000000000000000e+02
-8.032868056844240101e+00 -1.438298209579603970e+00 4.150000000000000000e+02
5.788764377855252441e+00 1.555441398346069981e+00 4.160000000000000000e+02
4.406601134385303098e+00 1.256067437553502586e+00 4.160000000000000000e+02
3.024437890915353755e+00 9.566934767609350798e-01 4.160000000000000000e+02
1.642274647445403968e+00 6.573195159683673516e-01 4.160000000000000000e+02
2.601114039754549578e-01 3.579455551758000675e-01 4.160000000000000000e+02
-1.122051839494494274e+00 5.857159438323267242e-02 4.160000000000000000e+02
-2.504215082964444061e+00 -2.408023664093348337e-01 4.160000000000000000e+02
-3.886378326434392960e+00 -5.401763272019018958e-01 4.160000000000000000e+02
-5.268541569904342303e+00 -8.395502879944692909e-01 4.160000000000000000e+02
-6.650704813374292534e+00 -1.138924248787036575e+00 4.160000000000000000e+02
-8.032868056844240101e+00 -1.438298209579603970e+00 4.160000000000000000e+02
5.788764377855252441e+00 1.555441398346069981e+00 4.170000000000000000e+02
4.406601134385303098e+00 1.256067437553502586e+00 4.170000000000000000e+02
3.024437890915353755e+00 9.566934767609350798e-01 4.170000000000000000e+02
1.642274647445403968e+00 6.573195159683673516e-01 4.170000000000000000e+02
2.601114039754549578e-01 3.579455551758000675e-01 4.170000000000000000e+02
-1.122051839494494274e+00 5.857159438323267242e-02 4.170000000000000000e+02
-2.504215082964444061e+00 -2.408023664093348337e-01 4.170000000000000000e+02
-3.886378326434392960e+00 -5.401763272019018958e-01 4.170000000000000000e+02
-5.268541569904342303e+00 -8.395502879944692909e-01 4.170000000000000000e+02
-6.650704813374292534e+00 -1.138924248787036575e+00 4.170000000000000000e+02
-8.032868056844240101e+00 -1.438298209579603970e+00 4.170000000000000000e+02
5.788764377855252441e+00 1.555441398346069981e+00 4.180000000000000000e+02
4.406601134385303098e+00 1.256067437553502586e+00 4.180000000000000000e+02
3.024437890915353755e+00 9.566934767609350798e-01 4.180000000000000000e+02
1.642274647445403968e+00 6.573195159683673516e-01 4.180000000000000000e+02
2.601114039754549578e-01 3.579455551758000675e-01 4.180000000000000000e+02
-1.122051839494494274e+00 5.857159438323267242e-02 4.180000000000000000e+02
-2.504215082964444061e+00 -2.408023664093348337e-01 4.180000000000000000e+02
-3.886378326434392960e+00 -5.401763272019018958e-01 4.180000000000000000e+02
-5.268541569904342303e+00 -8.395502879944692909e-01 4.180000000000000000e+02
-6.650704813374292534e+00 -1.138924248787036575e+00 4.180000000000000000e+02
-8.032868056844240101e+00 -1.438298209579603970e+00 4.180000000000000000e+02
5.788764377855252441e+00 1.555441398346069981e+00 4.190000000000000000e+02
4.406601134385303098e+00 1.256067437553502586e+00 4.190000000000000000e+02
3.024437890915353755e+00 9.566934767609350798e-01 4.190000000000000000e+02
1.642274647445403968e+00 6.573195159683673516e-01 4.190000000000000000e+02
2.601114039754549578e-01 3.579455551758000675e-01 4.190000000000000000e+02
-1.122051839494494274e+00 5.857159438323267242e-02 4.190000000000000000e+02
-2.504215082964444061e+00 -2.408023664093348337e-01 4.190000000000000000e+02
-3.886378326434392960e+00 -5.401763272019018958e-01 4.190000000000000000e+02
-5.268541569904342303e+00 -8.395502879944692909e-01 4.190000000000000000e+02
-6.650704813374292534e+00 -1.138924248787036575e+00 4.190000000000000000e+02
-8.032868056844240101e+00 -1.438298209579603970e+00 4.190000000000000000e+02
5.788764377855252441e+00 1.555441398346069981e+00 4.200000000000000000e+02
4.406601134385303098e+00 1.256067437553502586e+00 4.200000000000000000e+02
3.024437890915353755e+00 9.566934767609350798e-01 4.200000000000000000e+02
1.642274647445403968e+00 6.573195159683673516e-01 4.200000000000000000e+02
2.601114039754549578e-01 3.579455551758000675e-01 4.200000000000000000e+02
-1.122051839494494274e+00 5.857159438323267242e-02 4.200000000000000000e+02
-2.504215082964444061e+00 -2.408023664093348337e-01 4.200000000000000000e+02
-3.886378326434392960e+00 -5.401763272019018958e-01 4.200000000000000000e+02
-5.268541569904342303e+00 -8.395502879944692909e-01 4.200000000000000000e+02
-6.650704813374292534e+00 -1.138924248787036575e+00 4.200000000000000000e+02
5.788764377855252441e+00 1.555441398346069981e+00 4.210000000000000000e+02
4.406601134385303098e+00 1.256067437553502586e+00 4.210000000000000000e+02
3.024437890915353755e+00 9.566934767609350798e-01 4.210000000000000000e+02
1.642274647445403968e+00 6.573195159683673516e-01 4.210000000000000000e+02
2.601114039754549578e-01 3.579455551758000675e-01 4.210000000000000000e+02
-1.122051839494494274e+00 5.857159438323267242e-02 4.210000000000000000e+02
-2.504215082964444061e+00 -2.408023664093348337e-01 4.210000000000000000e+02
-3.886378326434392960e+00 -5.401763272019018958e-01 4.210000000000000000e+02
-5.268541569904342303e+00 -8.395502879944692909e-01 4.210000000000000000e+02
-6.650704813374292534e+00 -1.138924248787036575e+00 4.210000000000000000e+02
5.788764377855252441e+00 1.555441398346069981e+00 4.220000000000000000e+02
4.406601134385303098e+00 1.256067437553502586e+00 4.220000000000000000e+02
3.024437890915353755e+00 9.566934767609350798e-01 4.220000000000000000e+02
1.642274647445403968e+00 6.573195159683673516e-01 4.220000000000000000e+02
2.601114039754549578e-01 3.579455551758000675e-01 4.220000000000000000e+02
-1.122051839494494274e+00 5.857159438323267242e-02 4.220000000000000000e+02
-2.504215082964444061e+00 -2.408023664093348337e-01 4.220000000000000000e+02
-3.886378326434392960e+00 -5.401763272019018958e-01 4.220000000000000000e+02
-5.268541569904342303e+00 -8.395502879944692909e-01 4.220000000000000000e+02
-6.650704813374292534e+00 -1.138924248787036575e+00 4.220000000000000000e+02
5.788764377855252441e+00 1.555441398346069981e+00 4.230000000000000000e+02
4.406601134385303098e+00 1.256067437553502586e+00 4.230000000000000000e+02
3.024437890915353755e+00 9.566934767609350798e-01 4.230000000000000000e+02
1.642274647445403968e+00 6.573195159683673516e-01 4.230000000000000000e+02
2.601114039754549578e-01 3.579455551758000675e-01 4.230000000000000000e+02
-1.122051839494494274e+00 5.857159438323267242e-02 4.230000000000000000e+02
-2.504215082964444061e+00 -2.408023664093348337e-01 4.230000000000000000e+02
-3.886378326434392960e+00 -5.401763272019018958e-01 4.230000000000000000e+02
-5.268541569904342303e+00 -8.395502879944692909e-01 4.230000000000000000e+02
5.788764377855252441e+00 1.555441398346069981e+00 4.240000000000000000e+02
4.406601134385303098e+00 1.256067437553502586e+00 4.240000000000000000e+02
3.024437890915353755e+00 9.566934767609350798e-01 4.240000000000000000e+02
1.642274647445403968e+00 6.573195159683673516e-01 4.240000000000000000e+02
2.601114039754549578e-01 3.579455551758000675e-01 4.240000000000000000e+02
-1.122051839494494274e+00 5.857159438323267242e-02 4.240000000000000000e+02
-2.504215082964444061e+00 -2.408023664093348337e-01 4.240000000000000000e+02
-3.886378326434392960e+00 -5.401763272019018958e-01 4.240000000000000000e+02
-5.268541569904342303e+00 -8.395502879944692909e-01 4.240000000000000000e+02
-6.650704813374292534e+00 -1.138924248787036575e+00 4.240000000000000000e+02
5.788764377855252441e+00 1.555441398346069981e+00 4.250000000000000000e+02
4.406601134385303098e+00 1.256067437553502586e+00 4.250000000000000000e+02
3.024437890915353755e+00 9.566934767609350798e-01 4.250000000000000000e+02
1.642274647445403968e+00 6.573195159683673516e-01 4.250000000000000000e+02
2.601114039754549578e-01 3.579455551758000675e-01 4.250000000000000000e+02
-1.122051839494494274e+00 5.857159438323267242e-02 4.250000000000000000e+02
-2.504215082964444061e+00 -2.408023664093348337e-01 4.250000000000000000e+02
-3.886378326434392960e+00 -5.401763272019018958e-01 4.250000000000000000e+02
-5.268541569904342303e+00 -8.395502879944692909e-01 4.250000000000000000e+02
-6.650704813374292534e+00 -1.138924248787036575e+00 4.250000000000000000e+02
5.788764377855252441e+00 1.555441398346069981e+00 4.260000000000000000e+02
4.406601134385303098e+00 1.256067437553502586e+00 4.260000000000000000e+02
3.024437890915353755e+00 9.566934767609350798e-01 4.260000000000000000e+02
1.642274647445403968e+00 6.573195159683673516e-01 4.260000000000000000e+02
2.601114039754549578e-01 3.579455551758000675e-01 4.260000000000000000e+02
-1.122051839494494274e+00 5.857159438323267242e-02 4.260000000000000000e+02
-2.504215082964444061e+00 -2.408023664093348337e-01 4.260000000000000000e+02
-3.886378326434392960e+00 -5.401763272019018958e-01 4.260000000000000000e+02
-5.268541569904342303e+00 -8.395502879944692909e-01 4.260000000000000000e+02
-6.650704813374292534e+00 -1.138924248787036575e+00 4.260000000000000000e+02
5.788764377855252441e+00 1.555441398346069981e+00 4.270000000000000000e+02
4.406601134385303098e+00 1.256067437553502586e+00 4.270000000000000000e+02
3.024437890915353755e+00 9.566934767609350798e-01 4.270000000000000000e+02
1.642274647445403968e+00 6.573195159683673516e-01 4.270000000000000000e+02
2.601114039754549578e-01 3.579455551758000675e-01 4.270000000000000000e+02
-1.122051839494494274e+00 5.857159438323267242e-02 4.270000000000000000e+02
-2.504215082964444061e+00 -2.408023664093348337e-01 4.270000000000000000e+02
-3.886378326434392960e+00 -5.401763272019018958e-01 4.270000000000000000e+02
-5.268541569904342303e+00 -8.395502879944692909e-01 4.270000000000000000e+02
-6.650704813374292534e+00 -1.138924248787036575e+00 4.270000000000000000e+02
5.788764377855252441e+00 1.555441398346069981e+00 4.280000000000000000e+02
4.406601134385303098e+00 1.256067437553502586e+00 4.280000000000000000e+02
3.024437890915353755e+00 9.566934767609350798e-01 4.280000000000000000e+02
1.642274647445403968e+00 6.573195159683673516e-01 4.280000000000000000e+02
2.601114039754549578e-01 3.579455551758000675e-01 4.280000000000000000e+02
-1.122051839494494274e+00 5.857159438323267242e-02 4.280000000000000000e+02
-2.504215082964444061e+00 -2.408023664093348337e-01 4.280000000000000000e+02
-3.886378326434392960e+00 -5.401763272019018958e-01 4.280000000000000000e+02
-5.268541569904342303e+00 -8.395502879944692909e-01 4.280000000000000000e+02
-6.650704813374292534e+00 -1.138924248787036575e+00 4.280000000000000000e+02
5.788764377855252441e+00 1.555441398346069981e+00 4.290000000000000000e+02
4.406601134385303098e+00 1.256067437553502586e+00 4.290000000000000000e+02
3.024437890915353755e+00 9.566934767609350798e-01 4.290000000000000000e+02
1.642274647445403968e+00 6.573195159683673516e-01 4.290000000000000000e+02
2.601114039754549578e-01 3.579455551758000675e-01 4.290000000000000000e+02
-1.122051839494494274e+00 5.857159438323267242e-02 4.290000000000000000e+02
-2.504215082964444061e+00 -2.408023664093348337e-01 4.290000000000000000e+02
-3.886378326434392960e+00 -5.401763272019018958e-01 4.290000000000000000e+02
-5.268541569904342303e+00 -8.395502879944692909e-01 4.290000000000000000e+02
-6.650704813374292534e+00 -1.138924248787036575e+00 4.290000000000000000e+02
5.788764377855252441e+00 1.555441398346069981e+00 4.300000000000000000e+02
4.406601134385303098e+00 1.256067437553502586e+00 4.300000000000000000e+02
3.024437890915353755e+00 9.566934767609350798e-01 4.300000000000000000e+02
1.642274647445403968e+00 6.573195159683673516e-01 4.300000000000000000e+02
2.601114039754549578e-01 3.579455551758000675e-01 4.300000000000000000e+02
-1.122051839494494274e+00 5.857159438323267242e-02 4.300000000000000000e+02
-2.504215082964444061e+00 -2.408023664093348337e-01 4.300000000000000000e+02
-3.886378326434392960e+00 -5.401763272019018958e-01 4.300000000000000000e+02
-5.268541569904342303e+00 -8.395502879944692909e-01 4.300000000000000000e+02
-6.650704813374292534e+00 -1.138924248787036575e+00 4.300000000000000000e+02
6.629532979986509922e+00 1.014046757007379007e+00 4.310000000000000000e+02
5.247369736516561467e+00 7.146727962148115010e-01 4.310000000000000000e+02
3.865206493046612124e+00 4.152988354222441059e-01 4.310000000000000000e+02
2.483043249576662337e+00 1.159248746296764887e-01 4.310000000000000000e+02
1.100880006106713438e+00 -1.834490861628909064e-01 4.310000000000000000e+02
-2.812832373632360161e-01 -4.828230469554583015e-01 4.310000000000000000e+02
-1.663446480833185248e+00 -7.821970077480259187e-01 4.310000000000000000e+02
-3.045609724303134591e+00 -1.081570968540592759e+00 4.310000000000000000e+02
-4.427772967773083934e+00 -1.380944929333160154e+00 4.310000000000000000e+02
-5.809936211243033277e+00 -1.680318890125727549e+00 4.310000000000000000e+02
-7.192099454712983508e+00 -1.979692850918294944e+00 4.310000000000000000e+02
6.629532979986509922e+00 1.014046757007379007e+00 4.320000000000000000e+02
5.247369736516561467e+00 7.146727962148115010e-01 4.320000000000000000e+02
3.865206493046612124e+00 4.152988354222441059e-01 4.320000000000000000e+02
2.483043249576662337e+00 1.159248746296764887e-01 4.320000000000000000e+02
1.100880006106713438e+00 -1.834490861628909064e-01 4.320000000000000000e+02
-2.812832373632360161e-01 -4.828230469554583015e-01 4.320000000000000000e+02
-1.663446480833185248e+00 -7.821970077480259187e-01 4.320000000000000000e+02
-3.045609724303134591e+00 -1.081570968540592759e+00 4.320000000000000000e+02
-4.427772967773083934e+00 -1.380944929333160154e+00 4.320000000000000000e+02
-5.809936211243033277e+00 -1.680318890125727549e+00 4.320000000000000000e+02
6.629532979986509922e+00 1.014046757007379007e+00 4.330000000000000000e+02
5.247369736516561467e+00 7.146727962148115010e-01 4.330000000000000000e+02
