-6.442270654907272798e-01 3.316667561908419604e+00 3.080000000000000000e+02
-5.384332739284098945e-01 1.906416636127171049e+00 3.080000000000000000e+02
-4.326394823660926203e-01 4.961657103459222729e-01 3.080000000000000000e+02
-3.268456908037752351e-01 -9.140852154353262815e-01 3.080000000000000000e+02
-2.210518992414578499e-01 -2.324336141216575058e+00 3.080000000000000000e+02
-1.152581076791401316e-01 -3.734587066997823612e+00 3.080000000000000000e+02
-9.616084401776796575e-01 7.547420339252165711e+00 3.090000000000000000e+02
-8.558146486153619392e-01 6.137169413470917156e+00 3.090000000000000000e+02
-7.500208570530446650e-01 4.726918487689668602e+00 3.090000000000000000e+02
-6.442270654907272798e-01 3.316667561908419604e+00 3.090000000000000000e+02
-5.384332739284098945e-01 1.906416636127171049e+00 3.090000000000000000e+02
-4.326394823660926203e-01 4.961657103459222729e-01 3.090000000000000000e+02
-3.268456908037752351e-01 -9.140852154353262815e-01 3.090000000000000000e+02
-2.210518992414578499e-01 -2.324336141216575058e+00 3.090000000000000000e+02
-1.152581076791401316e-01 -3.734587066997823612e+00 3.090000000000000000e+02
-9.616084401776796575e-01 7.547420339252165711e+00 3.100000000000000000e+02
-8.558146486153619392e-01 6.137169413470917156e+00 3.100000000000000000e+02
-7.500208570530446650e-01 4.726918487689668602e+00 3.100000000000000000e+02
-6.442270654907272798e-01 3.316667561908419604e+00 3.100000000000000000e+02
-5.384332739284098945e-01 1.906416636127171049e+00 3.100000000000000000e+02
-4.326394823660926203e-01 4.961657103459222729e-01 3.100000000000000000e+02
-3.268456908037752351e-01 -9.140852154353262815e-01 3.100000000000000000e+02
-2.210518992414578499e-01 -2.324336141216575058e+00 3.100000000000000000e+02
-1.152581076791401316e-01 -3.734587066997823612e+00 3.100000000000000000e+02
-9.616084401776796575e-01 7.547420339252165711e+00 3.110000000000000000e+02
-8.558146486153619392e-01 6.137169413470917156e+00 3.110000000000000000e+02
-7.500208570530446650e-01 4.726918487689668602e+00 3.110000000000000000e+02
-6.442270654907272798e-01 3.316667561908419604e+00 3.110000000000000000e+02
-5.384332739284098945e-01 1.906416636127171049e+00 3.110000000000000000e+02
-4.326394823660926203e-01 4.961657103459222729e-01 3.110000000000000000e+02
-3.268456908037752351e-01 -9.140852154353262815e-01 3.110000000000000000e+02
-2.210518992414578499e-01 -2.324336141216575058e+00 3.110000000000000000e+02
-1.152581076791401316e-01 -3.734587066997823612e+00 3.110000000000000000e+02
-9.616084401776796575e-01 7.547420339252165711e+00 3.120000000000000000e+02
-8.558146486153619392e-01 6.137169413470917156e+00 3.120000000000000000e+02
-7.500208570530446650e-01 4.726918487689668602e+00 3.120000000000000000e+02
-6.442270654907272798e-01 3.316667561908419604e+00 3.120000000000000000e+02
-5.384332739284098945e-01 1.906416636127171049e+00 3.120000000000000000e+02
-4.326394823660926203e-01 4.961657103459222729e-01 3.120000000000000000e+02
-3.268456908037752351e-01 -9.140852154353262815e-01 3.120000000000000000e+02
-2.210518992414578499e-01 -2.324336141216575058e+00 3.120000000000000000e+02
-1.152581076791401316e-01 -3.734587066997823612e+00 3.120000000000000000e+02
-9.616084401776796575e-01 7.547420339252165711e+00 3.130000000000000000e+02
-8.558146486153619392e-01 6.137169413470917156e+00 3.130000000000000000e+02
-7.500208570530446650e-01 4.726918487689668602e+00 3.130000000000000000e+02
-6.442270654907272798e-01 3.316667561908419604e+00 3.130000000000000000e+02
-5.384332739284098945e-01 1.906416636127171049e+00 3.130000000000000000e+02
-4.326394823660926203e-01 4.961657103459222729e-01 3.130000000000000000e+02
-3.268456908037752351e-01 -9.140852154353262815e-01 3.130000000000000000e+02
-2.210518992414578499e-01 -2.324336141216575058e+00 3.130000000000000000e+02
-1.152581076791401316e-01 -3.734587066997823612e+00 3.130000000000000000e+02
-9.616084401776796575e-01 7.547420339252165711e+00 3.140000000000000000e+02
-8.558146486153619392e-01 6.137169413470917156e+00 3.140000000000000000e+02
-7.500208570530446650e-01 4.726918487689668602e+00 3.140000000000000000e+02
-6.442270654907272798e-01 3.316667561908419604e+00 3.140000000000000000e+02
-5.384332739284098945e-01 1.906416636127171049e+00 3.140000000000000000e+02
-4.326394823660926203e-01 4.961657103459222729e-01 3.140000000000000000e+02
-3.268456908037752351e-01 -9.140852154353262815e-01 3.140000000000000000e+02
-2.210518992414578499e-01 -2.324336141216575058e+00 3.140000000000000000e+02
-1.152581076791401316e-01 -3.734587066997823612e+00 3.140000000000000000e+02
-9.616084401776796575e-01 7.547420339252165711e+00 3.150000000000000000e+02
-8.558146486153619392e-01 6.137169413470917156e+00 3.150000000000000000e+02
-7.500208570530446650e-01 4.726918487689668602e+00 3.150000000000000000e+02
-6.442270654907272798e-01 3.316667561908419604e+00 3.150000000000000000e+02
-5.384332739284098945e-01 1.906416636127171049e+00 3.150000000000000000e+02
-4.326394823660926203e-01 4.961657103459222729e-01 3.150000000000000000e+02
-3.268456908037752351e-01 -9.140852154353262815e-01 3.150000000000000000e+02
-2.210518992414578499e-01 -2.324336141216575058e+00 3.150000000000000000e+02
-1.152581076791401316e-01 -3.734587066997823612e+00 3.150000000000000000e+02
-9.616084401776796575e-01 7.547420339252165711e+00 3.160000000000000000e+02
-8.558146486153619392e-01 6.137169413470917156e+00 3.160000000000000000e+02
-7.500208570530446650e-01 4.726918487689668602e+00 3.160000000000000000e+02
-6.442270654907272798e-01 3.316667561908419604e+00 3.160000000000000000e+02
-5.384332739284098945e-01 1.906416636127171049e+00 3.160000000000000000e+02
-4.326394823660926203e-01 4.961657103459222729e-01 3.160000000000000000e+02
-3.268456908037752351e-01 -9.140852154353262815e-01 3.160000000000000000e+02
-2.210518992414578499e-01 -2.324336141216575058e+00 3.160000000000000000e+02
-1.152581076791401316e-01 -3.734587066997823612e+00 3.160000000000000000e+02
-9.616084401776796575e-01 7.547420339252165711e+00 3.170000000000000000e+02
-8.558146486153619392e-01 6.137169413470917156e+00 3.170000000000000000e+02
-7.500208570530446650e-01 4.726918487689668602e+00 3.170000000000000000e+02
-6.442270654907272798e-01 3.316667561908419604e+00 3.170000000000000000e+02
-5.384332739284098945e-01 1.906416636127171049e+00 3.170000000000000000e+02
-4.326394823660926203e-01 4.961657103459222729e-01 3.170000000000000000e+02
-3.268456908037752351e-01 -9.140852154353262815e-01 3.170000000000000000e+02
-2.210518992414578499e-01 -2.324336141216575058e+00 3.170000000000000000e+02
-1.152581076791401316e-01 -3.734587066997823612e+00 3.170000000000000000e+02
-9.616084401776796575e-01 7.547420339252165711e+00 3.180000000000000000e+02
-8.558146486153619392e-01 6.137169413470917156e+00 3.180000000000000000e+02
-7.500208570530446650e-01 4.726918487689668602e+00 3.180000000000000000e+02
-6.442270654907272798e-01 3.316667561908419604e+00 3.180000000000000000e+02
-5.384332739284098945e-01 1.906416636127171049e+00 3.180000000000000000e+02
-4.326394823660926203e-01 4.961657103459222729e-01 3.180000000000000000e+02
-3.268456908037752351e-01 -9.140852154353262815e-01 3.180000000000000000e+02
-2.210518992414578499e-01 -2.324336141216575058e+00 3.180000000000000000e+02
-1.152581076791401316e-01 -3.734587066997823612e+00 3.180000000000000000e+02
-9.616084401776796575e-01 7.547420339252165711e+00 3.190000000000000000e+02
-8.558146486153619392e-01 6.137169413470917156e+00 3.190000000000000000e+02
-7.500208570530446650e-01 4.726918487689668602e+00 3.190000000000000000e+02
-6.442270654907272798e-01 3.316667561908419604e+00 3.190000000000000000e+02
-5.384332739284098945e-01 1.906416636127171049e+00 3.190000000000000000e+02
-4.326394823660926203e-01 4.961657103459222729e-01 3.190000000000000000e+02
-3.268456908037752351e-01 -9.140852154353262815e-01 3.190000000000000000e+02
-2.210518992414578499e-01 -2.324336141216575058e+00 3.190000000000000000e+02
-1.152581076791401316e-01 -3.734587066997823612e+00 3.190000000000000000e+02
-9.616084401776796575e-01 7.547420339252165711e+00 3.200000000000000000e+02
-8.558146486153619392e-01 6.137169413470917156e+00 3.200000000000000000e+02
-7.500208570530446650e-01 4.726918487689668602e+00 3.200000000000000000e+02
-6.442270654907272798e-01 3.316667561908419604e+00 3.200000000000000000e+02
-5.384332739284098945e-01 1.906416636127171049e+00 3.200000000000000000e+02
-4.326394823660926203e-01 4.961657103459222729e-01 3.200000000000000000e+02
-3.268456908037752351e-01 -9.140852154353262815e-01 3.200000000000000000e+02
-2.210518992414578499e-01 -2.324336141216575058e+00 3.200000000000000000e+02
-1.152581076791401316e-01 -3.734587066997823612e+00 3.200000000000000000e+02
-9.464316116823301428e-03 -5.144837992779072167e+00 3.200000000000000000e+02
-1.613837007287145298e+00 6.789397980580383241e+00 3.210000000000000000e+02
-1.508043215724827579e+00 5.379147054799134686e+00 3.210000000000000000e+02
-1.402249424162510305e+00 3.968896129017885244e+00 3.210000000000000000e+02
-1.296455632600193031e+00 2.558645203236636689e+00 3.210000000000000000e+02
-1.190661841037875535e+00 1.148394277455387913e+00 3.210000000000000000e+02
-1.084868049475558260e+00 -2.618566483258606414e-01 3.210000000000000000e+02
-9.790742579132407641e-01 -1.672107574107109196e+00 3.210000000000000000e+02
-8.732804663509234899e-01 -3.082358499888358416e+00 3.210000000000000000e+02
-7.674866747886057716e-01 -4.492609425669606971e+00 3.210000000000000000e+02
-1.613837007287145298e+00 6.789397980580383241e+00 3.220000000000000000e+02
-1.508043215724827579e+00 5.379147054799134686e+00 3.220000000000000000e+02
-1.402249424162510305e+00 3.968896129017885244e+00 3.220000000000000000e+02
-1.296455632600193031e+00 2.558645203236636689e+00 3.220000000000000000e+02
-1.190661841037875535e+00 1.148394277455387913e+00 3.220000000000000000e+02
-1.084868049475558260e+00 -2.618566483258606414e-01 3.220000000000000000e+02
-9.790742579132407641e-01 -1.672107574107109196e+00 3.220000000000000000e+02
-8.732804663509234899e-01 -3.082358499888358416e+00 3.220000000000000000e+02
-7.674866747886057716e-01 -4.492609425669606971e+00 3.220000000000000000e+02
-1.613837007287145298e+00 6.789397980580383241e+00 3.230000000000000000e+02
-1.508043215724827579e+00 5.379147054799134686e+00 3.230000000000000000e+02
-1.402249424162510305e+00 3.968896129017885244e+00 3.230000000000000000e+02
-1.296455632600193031e+00 2.558645203236636689e+00 3.230000000000000000e+02
-1.190661841037875535e+00 1.148394277455387913e+00 3.230000000000000000e+02
-1.084868049475558260e+00 -2.618566483258606414e-01 3.230000000000000000e+02
-9.790742579132407641e-01 -1.672107574107109196e+00 3.230000000000000000e+02
-8.732804663509234899e-01 -3.082358499888358416e+00 3.230000000000000000e+02
-7.674866747886057716e-01 -4.492609425669606971e+00 3.230000000000000000e+02
-1.613837007287145298e+00 6.789397980580383241e+00 3.240000000000000000e+02
-1.508043215724827579e+00 5.379147054799134686e+00 3.240000000000000000e+02
-1.402249424162510305e+00 3.968896129017885244e+00 3.240000000000000000e+02
-1.296455632600193031e+00 2.558645203236636689e+00 3.240000000000000000e+02
-1.190661841037875535e+00 1.148394277455387913e+00 3.240000000000000000e+02
-1.084868049475558260e+00 -2.618566483258606414e-01 3.240000000000000000e+02
-9.790742579132407641e-01 -1.672107574107109196e+00 3.240000000000000000e+02
-8.732804663509234899e-01 -3.082358499888358416e+00 3.240000000000000000e+02
-1.613837007287145298e+00 6.789397980580383241e+00 3.250000000000000000e+02
-1.508043215724827579e+00 5.379147054799134686e+00 3.250000000000000000e+02
-1.402249424162510305e+00 3.968896129017885244e+00 3.250000000000000000e+02
-1.296455632600193031e+00 2.558645203236636689e+00 3.250000000000000000e+02
-1.190661841037875535e+00 1.148394277455387913e+00 3.250000000000000000e+02
-1.084868049475558260e+00 -2.618566483258606414e-01 3.250000000000000000e+02
-9.790742579132407641e-01 -1.672107574107109196e+00 3.250000000000000000e+02
-8.732804663509234899e-01 -3.082358499888358416e+00 3.250000000000000000e+02
-9.616084401776796575e-01 7.547420339252165711e+00 3.260000000000000000e+02
-8.558146486153619392e-01 6.137169413470917156e+00 3.260000000000000000e+02
-7.500208570530446650e-01 4.726918487689668602e+00 3.260000000000000000e+02
-6.442270654907272798e-01 3.316667561908419604e+00 3.260000000000000000e+02
-5.384332739284098945e-01 1.906416636127171049e+00 3.260000000000000000e+02
-4.326394823660926203e-01 4.961657103459222729e-01 3.260000000000000000e+02
-3.268456908037752351e-01 -9.140852154353262815e-01 3.260000000000000000e+02
-2.210518992414578499e-01 -2.324336141216575058e+00 3.260000000000000000e+02
-1.152581076791401316e-01 -3.734587066997823612e+00 3.260000000000000000e+02
-9.616084401776796575e-01 7.547420339252165711e+00 3.270000000000000000e+02
-8.558146486153619392e-01 6.137169413470917156e+00 3.270000000000000000e+02
-7.500208570530446650e-01 4.726918487689668602e+00 3.270000000000000000e+02
-6.442270654907272798e-01 3.316667561908419604e+00 3.270000000000000000e+02
-5.384332739284098945e-01 1.906416636127171049e+00 3.270000000000000000e+02
-4.326394823660926203e-01 4.961657103459222729e-01 3.270000000000000000e+02
-3.268456908037752351e-01 -9.140852154353262815e-01 3.270000000000000000e+02
-2.210518992414578499e-01 -2.324336141216575058e+00 3.270000000000000000e+02
-1.152581076791401316e-01 -3.734587066997823612e+00 3.270000000000000000e+02
-9.464316116823301428e-03 -5.144837992779072167e+00 3.270000000000000000e+02
-9.616084401776796575e-01 7.547420339252165711e+00 3.280000000000000000e+02
-8.558146486153619392e-01 6.137169413470917156e+00 3.280000000000000000e+02
-7.500208570530446650e-01 4.726918487689668602e+00 3.280000000000000000e+02
-6.442270654907272798e-01 3.316667561908419604e+00 3.280000000000000000e+02
-5.384332739284098945e-01 1.906416636127171049e+00 3.280000000000000000e+02
-4.326394823660926203e-01 4.961657103459222729e-01 3.280000000000000000e+02
-3.268456908037752351e-01 -9.140852154353262815e-01 3.280000000000000000e+02
-2.210518992414578499e-01 -2.324336141216575058e+00 3.280000000000000000e+02
-1.152581076791401316e-01 -3.734587066997823612e+00 3.280000000000000000e+02
-9.464316116823301428e-03 -5.144837992779072167e+00 3.280000000000000000e+02
-9.616084401776796575e-01 7.547420339252165711e+00 3.290000000000000000e+02
-8.558146486153619392e-01 6.137169413470917156e+00 3.290000000000000000e+02
-7.500208570530446650e-01 4.726918487689668602e+00 3.290000000000000000e+02
-6.442270654907272798e-01 3.316667561908419604e+00 3.290000000000000000e+02
-5.384332739284098945e-01 1.906416636127171049e+00 3.290000000000000000e+02
-4.326394823660926203e-01 4.961657103459222729e-01 3.290000000000000000e+02
-3.268456908037752351e-01 -9.140852154353262815e-01 3.290000000000000000e+02
-2.210518992414578499e-01 -2.324336141216575058e+00 3.290000000000000000e+02
-1.152581076791401316e-01 -3.734587066997823612e+00 3.290000000000000000e+02
-9.464316116823301428e-03 -5.144837992779072167e+00 3.290000000000000000e+02
-9.616084401776796575e-01 7.547420339252165711e+00 3.300000000000000000e+02
-8.558146486153619392e-01 6.137169413470917156e+00 3.300000000000000000e+02
-7.500208570530446650e-01 4.726918487689668602e+00 3.300000000000000000e+02
-6.442270654907272798e-01 3.316667561908419604e+00 3.300000000000000000e+02
-5.384332739284098945e-01 1.906416636127171049e+00 3.300000000000000000e+02
-4.326394823660926203e-01 4.961657103459222729e-01 3.300000000000000000e+02
-3.268456908037752351e-01 -9.140852154353262815e-01 3.300000000000000000e+02
-2.210518992414578499e-01 -2.324336141216575058e+00 3.300000000000000000e+02
-1.152581076791401316e-01 -3.734587066997823612e+00 3.300000000000000000e+02
-9.464316116823301428e-03 -5.144837992779072167e+00 3.300000000000000000e+02
-1.613837007287145298e+00 6.789397980580383241e+00 3.310000000000000000e+02
-1.508043215724827579e+00 5.379147054799134686e+00 3.310000000000000000e+02
-1.402249424162510305e+00 3.968896129017885244e+00 3.310000000000000000e+02
-1.296455632600193031e+00 2.558645203236636689e+00 3.310000000000000000e+02
-1.190661841037875535e+00 1.148394277455387913e+00 3.310000000000000000e+02
-1.084868049475558260e+00 -2.618566483258606414e-01 3.310000000000000000e+02
-9.790742579132407641e-01 -1.672107574107109196e+00 3.310000000000000000e+02
-8.732804663509234899e-01 -3.082358499888358416e+00 3.310000000000000000e+02
-7.674866747886057716e-01 -4.492609425669606971e+00 3.310000000000000000e+02
-9.616084401776796575e-01 7.547420339252165711e+00 3.320000000000000000e+02
-8.558146486153619392e-01 6.137169413470917156e+00 3.320000000000000000e+02
-7.500208570530446650e-01 4.726918487689668602e+00 3.320000000000000000e+02
-6.442270654907272798e-01 3.316667561908419604e+00 3.320000000000000000e+02
-5.384332739284098945e-01 1.906416636127171049e+00 3.320000000000000000e+02
-4.326394823660926203e-01 4.961657103459222729e-01 3.320000000000000000e+02
-3.268456908037752351e-01 -9.140852154353262815e-01 3.320000000000000000e+02
-2.210518992414578499e-01 -2.324336141216575058e+00 3.320000000000000000e+02
-1.152581076791401316e-01 -3.734587066997823612e+00 3.320000000000000000e+02
-9.464316116823301428e-03 -5.144837992779072167e+00 3.320000000000000000e+02
-9.616084401776796575e-01 7.547420339252165711e+00 3.330000000000000000e+02
-8.558146486153619392e-01 6.137169413470917156e+00 3.330000000000000000e+02
-7.500208570530446650e-01 4.726918487689668602e+00 3.330000000000000000e+02
-6.442270654907272798e-01 3.316667561908419604e+00 3.330000000000000000e+02
-5.384332739284098945e-01 1.906416636127171049e+00 3.330000000000000000e+02
-4.326394823660926203e-01 4.961657103459222729e-01 3.330000000000000000e+02
-3.268456908037752351e-01 -9.140852154353262815e-01 3.330000000000000000e+02
-2.210518992414578499e-01 -2.324336141216575058e+00 3.330000000000000000e+02
-1.152581076791401316e-01 -3.734587066997823612e+00 3.330000000000000000e+02
-9.464316116823301428e-03 -5.144837992779072167e+00 3.330000000000000000e+02
-9.616084401776796575e-01 7.547420339252165711e+00 3.340000000000000000e+02
-8.558146486153619392e-01 6.137169413470917156e+00 3.340000000000000000e+02
-7.500208570530446650e-01 4.726918487689668602e+00 3.340000000000000000e+02
-6.442270654907272798e-01 3.316667561908419604e+00 3.340000000000000000e+02
-5.384332739284098945e-01 1.906416636127171049e+00 3.340000000000000000e+02
-4.326394823660926203e-01 4.961657103459222729e-01 3.340000000000000000e+02
-3.268456908037752351e-01 -9.140852154353262815e-01 3.340000000000000000e+02
-2.210518992414578499e-01 -2.324336141216575058e+00 3.340000000000000000e+02
-1.152581076791401316e-01 -3.734587066997823612e+00 3.340000000000000000e+02
-9.464316116823301428e-03 -5.144837992779072167e+00 3.340000000000000000e+02
-1.613837007287145298e+00 6.789397980580383241e+00 3.350000000000000000e+02
-1.508043215724827579e+00 5.379147054799134686e+00 3.350000000000000000e+02
-1.402249424162510305e+00 3.968896129017885244e+00 3.350000000000000000e+02
-1.296455632600193031e+00 2.558645203236636689e+00 3.350000000000000000e+02
-1.190661841037875535e+00 1.148394277455387913e+00 3.350000000000000000e+02
-1.084868049475558260e+00 -2.618566483258606414e-01 3.350000000000000000e+02
-9.790742579132407641e-01 -1.672107574107109196e+00 3.350000000000000000e+02
-8.732804663509234899e-01 -3.082358499888358416e+00 3.350000000000000000e+02
-7.674866747886057716e-01 -4.492609425669606971e+00 3.350000000000000000e+02
-9.616084401776796575e-01 7.547420339252165711e+00 3.360000000000000000e+02
-8.558146486153619392e-01 6.137169413470917156e+00 3.360000000000000000e+02
-7.500208570530446650e-01 4.726918487689668602e+00 3.360000000000000000e+02
-6.442270654907272798e-01 3.316667561908419604e+00 3.360000000000000000e+02
-5.384332739284098945e-01 1.906416636127171049e+00 3.360000000000000000e+02
-4.326394823660926203e-01 4.961657103459222729e-01 3.360000000000000000e+02
-3.268456908037752351e-01 -9.140852154353262815e-01 3.360000000000000000e+02
-2.210518992414578499e-01 -2.324336141216575058e+00 3.360000000000000000e+02
-1.152581076791401316e-01 -3.734587066997823612e+00 3.360000000000000000e+02
-9.464316116823301428e-03 -5.144837992779072167e+00 3.360000000000000000e+02
-9.616084401776796575e-01 7.547420339252165711e+00 3.370000000000000000e+02
-8.558146486153619392e-01 6.137169413470917156e+00 3.370000000000000000e+02
-7.500208570530446650e-01 4.726918487689668602e+00 3.370000000000000000e+02
-6.442270654907272798e-01 3.316667561908419604e+00 3.370000000000000000e+02
-5.384332739284098945e-01 1.906416636127171049e+00 3.370000000000000000e+02
-4.326394823660926203e-01 4.961657103459222729e-01 3.370000000000000000e+02
-3.268456908037752351e-01 -9.140852154353262815e-01 3.370000000000000000e+02
-2.210518992414578499e-01 -2.324336141216575058e+00 3.370000000000000000e+02
-1.152581076791401316e-01 -3.734587066997823612e+00 3.370000000000000000e+02
-9.464316116823301428e-03 -5.144837992779072167e+00 3.370000000000000000e+02
-9.616084401776796575e-01 7.547420339252165711e+00 3.380000000000000000e+02
-8.558146486153619392e-01 6.137169413470917156e+00 3.380000000000000000e+02
-7.500208570530446650e-01 4.726918487689668602e+00 3.380000000000000000e+02
-6.442270654907272798e-01 3.316667561908419604e+00 3.380000000000000000e+02
-5.384332739284098945e-01 1.906416636127171049e+00 3.380000000000000000e+02
-4.326394823660926203e-01 4.961657103459222729e-01 3.380000000000000000e+02
-3.268456908037752351e-01 -9.140852154353262815e-01 3.380000000000000000e+02
-2.210518992414578499e-01 -2.324336141216575058e+00 3.380000000000000000e+02
-1.152581076791401316e-01 -3.734587066997823612e+00 3.380000000000000000e+02
-9.464316116823301428e-03 -5.144837992779072167e+00 3.380000000000000000e+02
-9.616084401776796575e-01 7.547420339252165711e+00 3.390000000000000000e+02
-8.558146486153619392e-01 6.137169413470917156e+00 3.390000000000000000e+02
-7.500208570530446650e-01 4.726918487689668602e+00 3.390000000000000000e+02
-6.442270654907272798e-01 3.316667561908419604e+00 3.390000000000000000e+02
-5.384332739284098945e-01 1.906416636127171049e+00 3.390000000000000000e+02
-4.326394823660926203e-01 4.961657103459222729e-01 3.390000000000000000e+02
-3.268456908037752351e-01 -9.140852154353262815e-01 3.390000000000000000e+02
-2.210518992414578499e-01 -2.324336141216575058e+00 3.390000000000000000e+02
-1.152581076791401316e-01 -3.734587066997823612e+00 3.390000000000000000e+02
-9.464316116823301428e-03 -5.144837992779072167e+00 3.390000000000000000e+02
-9.616084401776796575e-01 7.547420339252165711e+00 3.400000000000000000e+02
-8.558146486153619392e-01 6.137169413470917156e+00 3.400000000000000000e+02
-7.500208570530446650e-01 4.726918487689668602e+00 3.400000000000000000e+02
-6.442270654907272798e-01 3.316667561908419604e+00 3.400000000000000000e+02
-5.384332739284098945e-01 1.906416636127171049e+00 3.400000000000000000e+02
-4.326394823660926203e-01 4.961657103459222729e-01 3.400000000000000000e+02
-3.268456908037752351e-01 -9.140852154353262815e-01 3.400000000000000000e+02
-2.210518992414578499e-01 -2.324336141216575058e+00 3.400000000000000000e+02
-1.152581076791401316e-01 -3.734587066997823612e+00 3.400000000000000000e+02
-9.464316116823301428e-03 -5.144837992779072167e+00 3.400000000000000000e+02
-9.616084401776796575e-01 7.547420339252165711e+00 3.410000000000000000e+02
-8.558146486153619392e-01 6.137169413470917156e+00 3.410000000000000000e+02
-7.500208570530446650e-01 4.726918487689668602e+00 3.410000000000000000e+02
-6.442270654907272798e-01 3.316667561908419604e+00 3.410000000000000000e+02
-5.384332739284098945e-01 1.906416636127171049e+00 3.410000000000000000e+02
-4.326394823660926203e-01 4.961657103459222729e-01 3.410000000000000000e+02
-3.268456908037752351e-01 -9.140852154353262815e-01 3.410000000000000000e+02
-2.210518992414578499e-01 -2.324336141216575058e+00 3.410000000000000000e+02
-1.152581076791401316e-01 -3.734587066997823612e+00 3.410000000000000000e+02
-9.464316116823301428e-03 -5.144837992779072167e+00 3.410000000000000000e+02
-9.616084401776796575e-01 7.547420339252165711e+00 3.420000000000000000e+02
-8.558146486153619392e-01 6.137169413470917156e+00 3.420000000000000000e+02
-7.500208570530446650e-01 4.726918487689668602e+00 3.420000000000000000e+02
-6.442270654907272798e-01 3.316667561908419604e+00 3.420000000000000000e+02
-5.384332739284098945e-01 1.906416636127171049e+00 3.420000000000000000e+02
-4.326394823660926203e-01 4.961657103459222729e-01 3.420000000000000000e+02
-3.268456908037752351e-01 -9.140852154353262815e-01 3.420000000000000000e+02
-2.210518992414578499e-01 -2.324336141216575058e+00 3.420000000000000000e+02
-1.152581076791401316e-01 -3.734587066997823612e+00 3.420000000000000000e+02
-9.464316116823301428e-03 -5.144837992779072167e+00 3.420000000000000000e+02
-9.616084401776796575e-01 7.547420339252165711e+00 3.430000000000000000e+02
-8.558146486153619392e-01 6.137169413470917156e+00 3.430000000000000000e+02
-7.500208570530446650e-01 4.726918487689668602e+00 3.430000000000000000e+02
-6.442270654907272798e-01 3.316667561908419604e+00 3.430000000000000000e+02
-5.384332739284098945e-01 1.906416636127171049e+00 3.430000000000000000e+02
-4.326394823660926203e-01 4.961657103459222729e-01 3.430000000000000000e+02
-3.268456908037752351e-01 -9.140852154353262815e-01 3.430000000000000000e+02
-2.210518992414578499e-01 -2.324336141216575058e+00 3.430000000000000000e+02
-1.152581076791401316e-01 -3.734587066997823612e+00 3.430000000000000000e+02
-1.613837007287145298e+00 6.789397980580383241e+00 3.440000000000000000e+02
-1.508043215724827579e+00 5.379147054799134686e+00 3.440000000000000000e+02
-1.402249424162510305e+00 3.968896129017885244e+00 3.440000000000000000e+02
-1.296455632600193031e+00 2.558645203236636689e+00 3.440000000000000000e+02
-1.190661841037875535e+00 1.148394277455387913e+00 3.440000000000000000e+02
-1.084868049475558260e+00 -2.618566483258606414e-01 3.440000000000000000e+02
-9.790742579132407641e-01 -1.672107574107109196e+00 3.440000000000000000e+02
-8.732804663509234899e-01 -3.082358499888358416e+00 3.440000000000000000e+02
-7.674866747886057716e-01 -4.492609425669606971e+00 3.440000000000000000e+02
-1.613837007287145298e+00 6.789397980580383241e+00 3.450000000000000000e+02
-1.508043215724827579e+00 5.379147054799134686e+00 3.450000000000000000e+02
-1.402249424162510305e+00 3.968896129017885244e+00 3.450000000000000000e+02
-1.296455632600193031e+00 2.558645203236636689e+00 3.450000000000000000e+02
-1.190661841037875535e+00 1.148394277455387913e+00 3.450000000000000000e+02
-1.084868049475558260e+00 -2.618566483258606414e-01 3.450000000000000000e+02
-9.790742579132407641e-01 -1.672107574107109196e+00 3.450000000000000000e+02
-8.732804663509234899e-01 -3.082358499888358416e+00 3.450000000000000000e+02
-7.674866747886057716e-01 -4.492609425669606971e+00 3.450000000000000000e+02
-1.613837007287145298e+00 6.789397980580383241e+00 3.460000000000000000e+02
-1.508043215724827579e+00 5.379147054799134686e+00 3.460000000000000000e+02
-1.402249424162510305e+00 3.968896129017885244e+00 3.460000000000000000e+02
-1.296455632600193031e+00 2.558645203236636689e+00 3.460000000000000000e+02
-1.190661841037875535e+00 1.148394277455387913e+00 3.460000000000000000e+02
-1.084868049475558260e+00 -2.618566483258606414e-01 3.460000000000000000e+02
-9.790742579132407641e-01 -1.672107574107109196e+00 3.460000000000000000e+02
-8.732804663509234899e-01 -3.082358499888358416e+00 3.460000000000000000e+02
-7.674866747886057716e-01 -4.492609425669606971e+00 3.460000000000000000e+02
-1.613837007287145298e+00 6.789397980580383241e+00 3.470000000000000000e+02
-1.508043215724827579e+00 5.379147054799134686e+00 3.470000000000000000e+02
-1.402249424162510305e+00 3.968896129017885244e+00 3.470000000000000000e+02
-1.296455632600193031e+00 2.558645203236636689e+00 3.470000000000000000e+02
-1.190661841037875535e+00 1.148394277455387913e+00 3.470000000000000000e+02
-1.084868049475558260e+00 -2.618566483258606414e-01 3.470000000000000000e+02
-9.790742579132407641e-01 -1.672107574107109196e+00 3.470000000000000000e+02
-8.732804663509234899e-01 -3.082358499888358416e+00 3.470000000000000000e+02
-7.674866747886057716e-01 -4.492609425669606971e+00 3.470000000000000000e+02
-9.616084401776796575e-01 7.547420339252165711e+00 3.480000000000000000e+02
-8.558146486153619392e-01 6.137169413470917156e+00 3.480000000000000000e+02
-7.500208570530446650e-01 4.726918487689668602e+00 3.480000000000000000e+02
-6.442270654907272798e-01 3.316667561908419604e+00 3.480000000000000000e+02
-5.384332739284098945e-01 1.906416636127171049e+00 3.480000000000000000e+02
-4.326394823660926203e-01 4.961657103459222729e-01 3.480000000000000000e+02
-3.268456908037752351e-01 -9.140852154353262815e-01 3.480000000000000000e+02
-2.210518992414578499e-01 -2.324336141216575058e+00 3.480000000000000000e+02
-1.152581076791401316e-01 -3.734587066997823612e+00 3.480000000000000000e+02
-9.464316116823301428e-03 -5.144837992779072167e+00 3.480000000000000000e+02
-9.616084401776796575e-01 7.547420339252165711e+00 3.490000000000000000e+02
-8.558146486153619392e-01 6.137169413470917156e+00 3.490000000000000000e+02
-7.500208570530446650e-01 4.726918487689668602e+00 3.490000000000000000e+02
-6.442270654907272798e-01 3.316667561908419604e+00 3.490000000000000000e+02
-5.384332739284098945e-01 1.906416636127171049e+00 3.490000000000000000e+02
-4.326394823660926203e-01 4.961657103459222729e-01 3.490000000000000000e+02
-3.268456908037752351e-01 -9.140852154353262815e-01 3.490000000000000000e+02
-2.210518992414578499e-01 -2.324336141216575058e+00 3.490000000000000000e+02
-1.152581076791401316e-01 -3.734587066997823612e+00 3.490000000000000000e+02
-9.464316116823301428e-03 -5.144837992779072167e+00 3.490000000000000000e+02
-9.616084401776796575e-01 7.547420339252165711e+00 3.500000000000000000e+02
-8.558146486153619392e-01 6.137169413470917156e+00 3.500000000000000000e+02
-7.500208570530446650e-01 4.726918487689668602e+00 3.500000000000000000e+02
-6.442270654907272798e-01 3.316667561908419604e+00 3.500000000000000000e+02
-5.384332739284098945e-01 1.906416636127171049e+00 3.500000000000000000e+02
-4.326394823660926203e-01 4.961657103459222729e-01 3.500000000000000000e+02
-3.268456908037752351e-01 -9.140852154353262815e-01 3.500000000000000000e+02
-2.210518992414578499e-01 -2.324336141216575058e+00 3.500000000000000000e+02
-1.152581076791401316e-01 -3.734587066997823612e+00 3.500000000000000000e+02
-9.464316116823301428e-03 -5.144837992779072167e+00 3.500000000000000000e+02
-9.616084401776796575e-01 7.547420339252165711e+00 3.510000000000000000e+02
-8.558146486153619392e-01 6.137169413470917156e+00 3.510000000000000000e+02
-7.500208570530446650e-01 4.726918487689668602e+00 3.510000000000000000e+02
-6.442270654907272798e-01 3.316667561908419604e+00 3.510000000000000000e+02
-5.384332739284098945e-01 1.906416636127171049e+00 3.510000000000000000e+02
-4.326394823660926203e-01 4.961657103459222729e-01 3.510000000000000000e+02
-3.268456908037752351e-01 -9.140852154353262815e-01 3.510000000000000000e+02
-2.210518992414578499e-01 -2.324336141216575058e+00 3.510000000000000000e+02
-1.152581076791401316e-01 -3.734587066997823612e+00 3.510000000000000000e+02
-9.464316116823301428e-03 -5.144837992779072167e+00 3.510000000000000000e+02
-9.616084401776796575e-01 7.547420339252165711e+00 3.520000000000000000e+02
-8.558146486153619392e-01 6.137169413470917156e+00 3.520000000000000000e+02
-7.500208570530446650e-01 4.726918487689668602e+00 3.520000000000000000e+02
-6.442270654907272798e-01 3.316667561908419604e+00 3.520000000000000000e+02
-5.384332739284098945e-01 1.906416636127171049e+00 3.520000000000000000e+02
-4.326394823660926203e-01 4.961657103459222729e-01 3.520000000000000000e+02
-3.268456908037752351e-01 -9.140852154353262815e-01 3.520000000000000000e+02
-2.210518992414578499e-01 -2.324336141216575058e+00 3.520000000000000000e+02
-1.152581076791401316e-01 -3.734587066997823612e+00 3.520000000000000000e+02
-9.464316116823301428e-03 -5.144837992779072167e+00 3.520000000000000000e+02
-1.613837007287145298e+00 6.789397980580383241e+00 3.530000000000000000e+02
-1.508043215724827579e+00 5.379147054799134686e+00 3.530000000000000000e+02
-1.402249424162510305e+00 3.968896129017885244e+00 3.530000000000000000e+02
-1.296455632600193031e+00 2.558645203236636689e+00 3.530000000000000000e+02
-1.190661841037875535e+00 1.148394277455387913e+00 3.530000000000000000e+02
-1.084868049475558260e+00 -2.618566483258606414e-01 3.530000000000000000e+02
-9.790742579132407641e-01 -1.672107574107109196e+00 3.530000000000000000e+02
-8.732804663509234899e-01 -3.082358499888358416e+00 3.530000000000000000e+02
-7.674866747886057716e-01 -4.492609425669606971e+00 3.530000000000000000e+02
-1.613837007287145298e+00 6.789397980580383241e+00 3.540000000000000000e+02
-1.508043215724827579e+00 5.379147054799134686e+00 3.540000000000000000e+02
-1.402249424162510305e+00 3.968896129017885244e+00 3.540000000000000000e+02
-1.296455632600193031e+00 2.558645203236636689e+00 3.540000000000000000e+02
-1.190661841037875535e+00 1.148394277455387913e+00 3.540000000000000000e+02
-1.084868049475558260e+00 -2.618566483258606414e-01 3.540000000000000000e+02
-9.790742579132407641e-01 -1.672107574107109196e+00 3.540000000000000000e+02
-8.732804663509234899e-01 -3.082358499888358416e+00 3.540000000000000000e+02
-7.674866747886057716e-01 -4.492609425669606971e+00 3.540000000000000000e+02
-1.613837007287145298e+00 6.789397980580383241e+00 3.550000000000000000e+02
-1.508043215724827579e+00 5.379147054799134686e+00 3.550000000000000000e+02
-1.402249424162510305e+00 3.968896129017885244e+00 3.550000000000000000e+02
-1.296455632600193031e+00 2.558645203236636689e+00 3.550000000000000000e+02
-1.190661841037875535e+00 1.148394277455387913e+00 3.550000000000000000e+02
-1.084868049475558260e+00 -2.618566483258606414e-01 3.550000000000000000e+02
-9.790742579132407641e-01 -1.672107574107109196e+00 3.550000000000000000e+02
-8.732804663509234899e-01 -3.082358499888358416e+00 3.550000000000000000e+02
-7.674866747886057716e-01 -4.492609425669606971e+00 3.550000000000000000e+02
-1.613837007287145298e+00 6.789397980580383241e+00 3.560000000000000000e+02
-1.508043215724827579e+00 5.379147054799134686e+00 3.560000000000000000e+02
-1.402249424162510305e+00 3.968896129017885244e+00 3.560000000000000000e+02
-1.296455632600193031e+00 2.558645203236636689e+00 3.560000000000000000e+02
-1.190661841037875535e+00 1.148394277455387913e+00 3.560000000000000000e+02
-1.084868049475558260e+00 -2.618566483258606414e-01 3.560000000000000000e+02
-9.790742579132407641e-01 -1.672107574107109196e+00 3.560000000000000000e+02
-8.732804663509234899e-01 -3.082358499888358416e+00 3.560000000000000000e+02
-7.674866747886057716e-01 -4.492609425669606971e+00 3.560000000000000000e+02
-9.616084401776796575e-01 7.547420339252165711e+00 3.570000000000000000e+02
-8.558146486153619392e-01 6.137169413470917156e+00 3.570000000000000000e+02
-7.500208570530446650e-01 4.726918487689668602e+00 3.570000000000000000e+02
-6.442270654907272798e-01 3.316667561908419604e+00 3.570000000000000000e+02
-5.384332739284098945e-01 1.906416636127171049e+00 3.570000000000000000e+02
-4.326394823660926203e-01 4.961657103459222729e-01 3.570000000000000000e+02
-3.268456908037752351e-01 -9.140852154353262815e-01 3.570000000000000000e+02
-2.210518992414578499e-01 -2.324336141216575058e+00 3.570000000000000000e+02
-1.152581076791401316e-01 -3.734587066997823612e+00 3.570000000000000000e+02
-9.464316116823301428e-03 -5.144837992779072167e+00 3.570000000000000000e+02
-9.616084401776796575e-01 7.547420339252165711e+00 3.580000000000000000e+02
-8.558146486153619392e-01 6.137169413470917156e+00 3.580000000000000000e+02
-7.500208570530446650e-01 4.726918487689668602e+00 3.580000000000000000e+02
-6.442270654907272798e-01 3.316667561908419604e+00 3.580000000000000000e+02
-5.384332739284098945e-01 1.906416636127171049e+00 3.580000000000000000e+02
-4.326394823660926203e-01 4.961657103459222729e-01 3.580000000000000000e+02
-3.268456908037752351e-01 -9.140852154353262815e-01 3.580000000000000000e+02
-2.210518992414578499e-01 -2.324336141216575058e+00 3.580000000000000000e+02
-1.152581076791401316e-01 -3.734587066997823612e+00 3.580000000000000000e+02
-9.464316116823301428e-03 -5.144837992779072167e+00 3.580000000000000000e+02
-1.613837007287145298e+00 6.789397980580383241e+00 3.590000000000000000e+02
-1.508043215724827579e+00 5.379147054799134686e+00 3.590000000000000000e+02
-1.402249424162510305e+00 3.968896129017885244e+00 3.590000000000000000e+02
-1.296455632600193031e+00 2.558645203236636689e+00 3.590000000000000000e+02
-1.190661841037875535e+00 1.148394277455387913e+00 3.590000000000000000e+02
-1.084868049475558260e+00 -2.618566483258606414e-01 3.590000000000000000e+02
-9.790742579132407641e-01 -1.672107574107109196e+00 3.590000000000000000e+02
-8.732804663509234899e-01 -3.082358499888358416e+00 3.590000000000000000e+02
-7.674866747886057716e-01 -4.492609425669606971e+00 3.590000000000000000e+02
-9.616084401776796575e-01 7.547420339252165711e+00 3.600000000000000000e+02
-8.558146486153619392e-01 6.137169413470917156e+00 3.600000000000000000e+02
-7.500208570530446650e-01 4.726918487689668602e+00 3.600000000000000000e+02
-6.442270654907272798e-01 3.316667561908419604e+00 3.600000000000000000e+02
-5.384332739284098945e-01 1.906416636127171049e+00 3.600000000000000000e+02
-4.326394823660926203e-01 4.961657103459222729e-01 3.600000000000000000e+02
-3.268456908037752351e-01 -9.140852154353262815e-01 3.600000000000000000e+02
-2.210518992414578499e-01 -2.324336141216575058e+00 3.600000000000000000e+02
-1.152581076791401316e-01 -3.734587066997823612e+00 3.600000000000000000e+02
-9.464316116823301428e-03 -5.144837992779072167e+00 3.600000000000000000e+02
-9.616084401776796575e-01 7.547420339252165711e+00 3.610000000000000000e+02
-8.558146486153619392e-01 6.137169413470917156e+00 3.610000000000000000e+02
-7.500208570530446650e-01 4.726918487689668602e+00 3.610000000000000000e+02
-6.442270654907272798e-01 3.316667561908419604e+00 3.610000000000000000e+02
-5.384332739284098945e-01 1.906416636127171049e+00 3.610000000000000000e+02
-4.326394823660926203e-01 4.961657103459222729e-01 3.610000000000000000e+02
-3.268456908037752351e-01 -9.140852154353262815e-01 3.610000000000000000e+02
-2.210518992414578499e-01 -2.324336141216575058e+00 3.610000000000000000e+02
-1.152581076791401316e-01 -3.734587066997823612e+00 3.610000000000000000e+02
-9.464316116823301428e-03 -5.144837992779072167e+00 3.610000000000000000e+02
-9.616084401776796575e-01 7.547420339252165711e+00 3.620000000000000000e+02
-8.558146486153619392e-01 6.137169413470917156e+00 3.620000000000000000e+02
-7.500208570530446650e-01 4.726918487689668602e+00 3.620000000000000000e+02
-6.442270654907272798e-01 3.316667561908419604e+00 3.620000000000000000e+02
-5.384332739284098945e-01 1.906416636127171049e+00 3.620000000000000000e+02
-4.326394823660926203e-01 4.961657103459222729e-01 3.620000000000000000e+02
-3.268456908037752351e-01 -9.140852154353262815e-01 3.620000000000000000e+02
-2.210518992414578499e-01 -2.324336141216575058e+00 3.620000000000000000e+02
-1.152581076791401316e-01 -3.734587066997823612e+00 3.620000000000000000e+02
-9.464316116823301428e-03 -5.144837992779072167e+00 3.620000000000000000e+02
-9.616084401776796575e-01 7.547420339252165711e+00 3.630000000000000000e+02
-8.558146486153619392e-01 6.137169413470917156e+00 3.630000000000000000e+02
-7.500208570530446650e-01 4.726918487689668602e+00 3.630000000000000000e+02
-6.442270654907272798e-01 3.316667561908419604e+00 3.630000000000000000e+02
-5.384332739284098945e-01 1.906416636127171049e+00 3.630000000000000000e+02
-4.326394823660926203e-01 4.961657103459222729e-01 3.630000000000000000e+02
-3.268456908037752351e-01 -9.140852154353262815e-01 3.630000000000000000e+02
-2.210518992414578499e-01 -2.324336141216575058e+00 3.630000000000000000e+02
-1.152581076791401316e-01 -3.734587066997823612e+00 3.630000000000000000e+02
-9.464316116823301428e-03 -5.144837992779072167e+00 3.630000000000000000e+02
-9.616084401776796575e-01 7.547420339252165711e+00 3.640000000000000000e+02
-8.558146486153619392e-01 6.137169413470917156e+00 3.640000000000000000e+02
-7.500208570530446650e-01 4.726918487689668602e+00 3.640000000000000000e+02
-6.442270654907272798e-01 3.316667561908419604e+00 3.640000000000000000e+02
-5.384332739284098945e-01 1.906416636127171049e+00 3.640000000000000000e+02
-4.326394823660926203e-01 4.961657103459222729e-01 3.640000000000000000e+02
-3.268456908037752351e-01 -9.140852154353262815e-01 3.640000000000000000e+02
-2.210518992414578499e-01 -2.324336141216575058e+00 3.640000000000000000e+02
-1.152581076791401316e-01 -3.734587066997823612e+00 3.640000000000000000e+02
-9.464316116823301428e-03 -5.144837992779072167e+00 3.640000000000000000e+02
-9.616084401776796575e-01 7.547420339252165711e+00 3.650000000000000000e+02
-8.558146486153619392e-01 6.137169413470917156e+00 3.650000000000000000e+02
-7.500208570530446650e-01 4.726918487689668602e+00 3.650000000000000000e+02
-6.442270654907272798e-01 3.316667561908419604e+00 3.650000000000000000e+02
-5.384332739284098945e-01 1.906416636127171049e+00 3.650000000000000000e+02
-4.326394823660926203e-01 4.961657103459222729e-01 3.650000000000000000e+02
-3.268456908037752351e-01 -9.140852154353262815e-01 3.650000000000000000e+02
-2.210518992414578499e-01 -2.324336141216575058e+00 3.650000000000000000e+02
-1.152581076791401316e-01 -3.734587066997823612e+00 3.650000000000000000e+02
-9.464316116823301428e-03 -5.144837992779072167e+00 3.650000000000000000e+02
-9.616084401776796575e-01 7.547420339252165711e+00 3.660000000000000000e+02
-8.558146486153619392e-01 6.137169413470917156e+00 3.660000000000000000e+02
-7.500208570530446650e-01 4.726918487689668602e+00 3.660000000000000000e+02
-6.442270654907272798e-01 3.316667561908419604e+00 3.660000000000000000e+02
-5.384332739284098945e-01 1.906416636127171049e+00 3.660000000000000000e+02
-4.326394823660926203e-01 4.961657103459222729e-01 3.660000000000000000e+02
-3.268456908037752351e-01 -9.140852154353262815e-01 3.660000000000000000e+02
-2.210518992414578499e-01 -2.324336141216575058e+00 3.660000000000000000e+02
-1.152581076791401316e-01 -3.734587066997823612e+00 3.660000000000000000e+02
-9.464316116823301428e-03 -5.144837992779072167e+00 3.660000000000000000e+02
-9.616084401776796575e-01 7.547420339252165711e+00 3.670000000000000000e+02
-8.558146486153619392e-01 6.137169413470917156e+00 3.670000000000000000e+02
-7.500208570530446650e-01 4.726918487689668602e+00 3.670000000000000000e+02
-6.442270654907272798e-01 3.316667561908419604e+00 3.670000000000000000e+02
-5.384332739284098945e-01 1.906416636127171049e+00 3.670000000000000000e+02
-4.326394823660926203e-01 4.961657103459222729e-01 3.670000000000000000e+02
-3.268456908037752351e-01 -9.140852154353262815e-01 3.670000000000000000e+02
-2.210518992414578499e-01 -2.324336141216575058e+00 3.670000000000000000e+02
-1.152581076791401316e-01 -3.734587066997823612e+00 3.670000000000000000e+02
-9.464316116823301428e-03 -5.144837992779072167e+00 3.670000000000000000e+02
-1.613837007287145298e+00 6.789397980580383241e+00 3.680000000000000000e+02
-1.508043215724827579e+00 5.379147054799134686e+00 3.680000000000000000e+02
-1.402249424162510305e+00 3.968896129017885244e+00 3.680000000000000000e+02
-1.296455632600193031e+00 2.558645203236636689e+00 3.680000000000000000e+02
-1.190661841037875535e+00 1.148394277455387913e+00 3.680000000000000000e+02
-1.084868049475558260e+00 -2.618566483258606414e-01 3.680000000000000000e+02
-9.790742579132407641e-01 -1.672107574107109196e+00 3.680000000000000000e+02
-8.732804663509234899e-01 -3.082358499888358416e+00 3.680000000000000000e+02
-7.674866747886057716e-01 -4.492609425669606971e+00 3.680000000000000000e+02
-1.613837007287145298e+00 6.789397980580383241e+00 3.690000000000000000e+02
-1.508043215724827579e+00 5.379147054799134686e+00 3.690000000000000000e+02
-1.402249424162510305e+00 3.968896129017885244e+00 3.690000000000000000e+02
-1.296455632600193031e+00 2.558645203236636689e+00 3.690000000000000000e+02
-1.190661841037875535e+00 1.148394277455387913e+00 3.690000000000000000e+02
-1.084868049475558260e+00 -2.618566483258606414e-01 3.690000000000000000e+02
-9.790742579132407641e-01 -1.672107574107109196e+00 3.690000000000000000e+02
-8.732804663509234899e-01 -3.082358499888358416e+00 3.690000000000000000e+02
-7.674866747886057716e-01 -4.492609425669606971e+00 3.690000000000000000e+02
-1.613837007287145298e+00 6.789397980580383241e+00 3.700000000000000000e+02
-1.508043215724827579e+00 5.379147054799134686e+00 3.700000000000000000e+02
-1.402249424162510305e+00 3.968896129017885244e+00 3.700000000000000000e+02
-1.296455632600193031e+00 2.558645203236636689e+00 3.700000000000000000e+02
-1.190661841037875535e+00 1.148394277455387913e+00 3.700000000000000000e+02
-1.084868049475558260e+00 -2.618566483258606414e-01 3.700000000000000000e+02
-9.790742579132407641e-01 -1.672107574107109196e+00 3.700000000000000000e+02
-8.732804663509234899e-01 -3.082358499888358416e+00 3.700000000000000000e+02
-7.674866747886057716e-01 -4.492609425669606971e+00 3.700000000000000000e+02
-1.613837007287145298e+00 6.789397980580383241e+00 3.710000000000000000e+02
-1.508043215724827579e+00 5.379147054799134686e+00 3.710000000000000000e+02
-1.402249424162510305e+00 3.968896129017885244e+00 3.710000000000000000e+02
-1.296455632600193031e+00 2.558645203236636689e+00 3.710000000000000000e+02
-1.190661841037875535e+00 1.148394277455387913e+00 3.710000000000000000e+02
-1.084868049475558260e+00 -2.618566483258606414e-01 3.710000000000000000e+02
-9.790742579132407641e-01 -1.672107574107109196e+00 3.710000000000000000e+02
-8.732804663509234899e-01 -3.082358499888358416e+00 3.710000000000000000e+02
-7.674866747886057716e-01 -4.492609425669606971e+00 3.710000000000000000e+02
-1.613837007287145298e+00 6.789397980580383241e+00 3.720000000000000000e+02
-1.508043215724827579e+00 5.379147054799134686e+00 3.720000000000000000e+02
-1.402249424162510305e+00 3.968896129017885244e+00 3.720000000000000000e+02
-1.296455632600193031e+00 2.558645203236636689e+00 3.720000000000000000e+02
-1.190661841037875535e+00 1.148394277455387913e+00 3.720000000000000000e+02
-1.084868049475558260e+00 -2.618566483258606414e-01 3.720000000000000000e+02
-9.790742579132407641e-01 -1.672107574107109196e+00 3.720000000000000000e+02
-8.732804663509234899e-01 -3.082358499888358416e+00 3.720000000000000000e+02
-7.674866747886057716e-01 -4.492609425669606971e+00 3.720000000000000000e+02
-1.613837007287145298e+00 6.789397980580383241e+00 3.730000000000000000e+02
-1.508043215724827579e+00 5.379147054799134686e+00 3.730000000000000000e+02
-1.402249424162510305e+00 3.968896129017885244e+00 3.730000000000000000e+02
-1.296455632600193031e+00 2.558645203236636689e+00 3.730000000000000000e+02
-1.190661841037875535e+00 1.148394277455387913e+00 3.730000000000000000e+02
-1.084868049475558260e+00 -2.618566483258606414e-01 3.730000000000000000e+02
-9.790742579132407641e-01 -1.672107574107109196e+00 3.730000000000000000e+02
-8.732804663509234899e-01 -3.082358499888358416e+00 3.730000000000000000e+02
-7.674866747886057716e-01 -4.492609425669606971e+00 3.730000000000000000e+02
-1.613837007287145298e+00 6.789397980580383241e+00 3.740000000000000000e+02
-1.508043215724827579e+00 5.379147054799134686e+00 3.740000000000000000e+02
-1.402249424162510305e+00 3.968896129017885244e+00 3.740000000000000000e+02
-1.296455632600193031e+00 2.558645203236636689e+00 3.740000000000000000e+02
-1.190661841037875535e+00 1.148394277455387913e+00 3.740000000000000000e+02
-1.084868049475558260e+00 -2.618566483258606414e-01 3.740000000000000000e+02
-9.790742579132407641e-01 -1.672107574107109196e+00 3.740000000000000000e+02
-8.732804663509234899e-01 -3.082358499888358416e+00 3.740000000000000000e+02
-7.674866747886057716e-01 -4.492609425669606971e+00 3.740000000000000000e+02
