8.027507037949513702e+00 5.693561851781407768e+01 1.740000000000000000e+02
6.928458918441791070e+00 5.782561471500063988e+01 1.740000000000000000e+02
5.829410798934069327e+00 5.871561091218720208e+01 1.740000000000000000e+02
4.730362679426346695e+00 5.960560710937375717e+01 1.740000000000000000e+02
3.631314559918624507e+00 6.049560330656031937e+01 1.740000000000000000e+02
2.532266440410902320e+00 6.138559950374688157e+01 1.740000000000000000e+02
1.433218320903179688e+00 6.227559570093344377e+01 1.740000000000000000e+02
1.132465139647268160e+01 5.426562992625439108e+01 1.750000000000000000e+02
1.022560327696495719e+01 5.515562612344095328e+01 1.750000000000000000e+02
9.126555157457236334e+00 5.604562232062751548e+01 1.750000000000000000e+02
8.027507037949513702e+00 5.693561851781407768e+01 1.750000000000000000e+02
6.928458918441791070e+00 5.782561471500063988e+01 1.750000000000000000e+02
5.829410798934069327e+00 5.871561091218720208e+01 1.750000000000000000e+02
4.730362679426346695e+00 5.960560710937375717e+01 1.750000000000000000e+02
3.631314559918624507e+00 6.049560330656031937e+01 1.750000000000000000e+02
2.532266440410902320e+00 6.138559950374688157e+01 1.750000000000000000e+02
1.433218320903179688e+00 6.227559570093344377e+01 1.750000000000000000e+02
1.132465139647268160e+01 5.426562992625439108e+01 1.760000000000000000e+02
1.022560327696495719e+01 5.515562612344095328e+01 1.760000000000000000e+02
9.126555157457236334e+00 5.604562232062751548e+01 1.760000000000000000e+02
8.027507037949513702e+00 5.693561851781407768e+01 1.760000000000000000e+02
6.928458918441791070e+00 5.782561471500063988e+01 1.760000000000000000e+02
5.829410798934069327e+00 5.871561091218720208e+01 1.760000000000000000e+02
4.730362679426346695e+00 5.960560710937375717e+01 1.760000000000000000e+02
3.631314559918624507e+00 6.049560330656031937e+01 1.760000000000000000e+02
2.532266440410902320e+00 6.138559950374688157e+01 1.760000000000000000e+02
1.433218320903179688e+00 6.227559570093344377e+01 1.760000000000000000e+02
1.132465139647268160e+01 5.426562992625439108e+01 1.770000000000000000e+02
1.022560327696495719e+01 5.515562612344095328e+01 1.770000000000000000e+02
9.126555157457236334e+00 5.604562232062751548e+01 1.770000000000000000e+02
8.027507037949513702e+00 5.693561851781407768e+01 1.770000000000000000e+02
6.928458918441791070e+00 5.782561471500063988e+01 1.770000000000000000e+02
5.829410798934069327e+00 5.871561091218720208e+01 1.770000000000000000e+02
4.730362679426346695e+00 5.960560710937375717e+01 1.770000000000000000e+02
3.631314559918624507e+00 6.049560330656031937e+01 1.770000000000000000e+02
2.532266440410902320e+00 6.138559950374688157e+01 1.770000000000000000e+02
1.433218320903179688e+00 6.227559570093344377e+01 1.770000000000000000e+02
1.132465139647268160e+01 5.426562992625439108e+01 1.780000000000000000e+02
1.022560327696495719e+01 5.515562612344095328e+01 1.780000000000000000e+02
9.126555157457236334e+00 5.604562232062751548e+01 1.780000000000000000e+02
8.027507037949513702e+00 5.693561851781407768e+01 1.780000000000000000e+02
6.928458918441791070e+00 5.782561471500063988e+01 1.780000000000000000e+02
5.829410798934069327e+00 5.871561091218720208e+01 1.780000000000000000e+02
4.730362679426346695e+00 5.960560710937375717e+01 1.780000000000000000e+02
3.631314559918624507e+00 6.049560330656031937e+01 1.780000000000000000e+02
2.532266440410902320e+00 6.138559950374688157e+01 1.780000000000000000e+02
1.433218320903179688e+00 6.227559570093344377e+01 1.780000000000000000e+02
1.132465139647268160e+01 5.426562992625439108e+01 1.790000000000000000e+02
1.022560327696495719e+01 5.515562612344095328e+01 1.790000000000000000e+02
9.126555157457236334e+00 5.604562232062751548e+01 1.790000000000000000e+02
8.027507037949513702e+00 5.693561851781407768e+01 1.790000000000000000e+02
6.928458918441791070e+00 5.782561471500063988e+01 1.790000000000000000e+02
5.829410798934069327e+00 5.871561091218720208e+01 1.790000000000000000e+02
4.730362679426346695e+00 5.960560710937375717e+01 1.790000000000000000e+02
3.631314559918624507e+00 6.049560330656031937e+01 1.790000000000000000e+02
2.532266440410902320e+00 6.138559950374688157e+01 1.790000000000000000e+02
1.433218320903179688e+00 6.227559570093344377e+01 1.790000000000000000e+02
1.132465139647268160e+01 5.426562992625439108e+01 1.800000000000000000e+02
1.022560327696495719e+01 5.515562612344095328e+01 1.800000000000000000e+02
9.126555157457236334e+00 5.604562232062751548e+01 1.800000000000000000e+02
8.027507037949513702e+00 5.693561851781407768e+01 1.800000000000000000e+02
6.928458918441791070e+00 5.782561471500063988e+01 1.800000000000000000e+02
5.829410798934069327e+00 5.871561091218720208e+01 1.800000000000000000e+02
4.730362679426346695e+00 5.960560710937375717e+01 1.800000000000000000e+02
3.631314559918624507e+00 6.049560330656031937e+01 1.800000000000000000e+02
2.532266440410902320e+00 6.138559950374688157e+01 1.800000000000000000e+02
1.433218320903179688e+00 6.227559570093344377e+01 1.800000000000000000e+02
1.132465139647268160e+01 5.426562992625439108e+01 1.810000000000000000e+02
1.022560327696495719e+01 5.515562612344095328e+01 1.810000000000000000e+02
9.126555157457236334e+00 5.604562232062751548e+01 1.810000000000000000e+02
8.027507037949513702e+00 5.693561851781407768e+01 1.810000000000000000e+02
6.928458918441791070e+00 5.782561471500063988e+01 1.810000000000000000e+02
5.829410798934069327e+00 5.871561091218720208e+01 1.810000000000000000e+02
4.730362679426346695e+00 5.960560710937375717e+01 1.810000000000000000e+02
3.631314559918624507e+00 6.049560330656031937e+01 1.810000000000000000e+02
2.532266440410902320e+00 6.138559950374688157e+01 1.810000000000000000e+02
1.433218320903179688e+00 6.227559570093344377e+01 1.810000000000000000e+02
1.132465139647268160e+01 5.426562992625439108e+01 1.820000000000000000e+02
1.022560327696495719e+01 5.515562612344095328e+01 1.820000000000000000e+02
9.126555157457236334e+00 5.604562232062751548e+01 1.820000000000000000e+02
8.027507037949513702e+00 5.693561851781407768e+01 1.820000000000000000e+02
6.928458918441791070e+00 5.782561471500063988e+01 1.820000000000000000e+02
5.829410798934069327e+00 5.871561091218720208e+01 1.820000000000000000e+02
4.730362679426346695e+00 5.960560710937375717e+01 1.820000000000000000e+02
3.631314559918624507e+00 6.049560330656031937e+01 1.820000000000000000e+02
2.532266440410902320e+00 6.138559950374688157e+01 1.820000000000000000e+02
1.433218320903179688e+00 6.227559570093344377e+01 1.820000000000000000e+02
1.132465139647268160e+01 5.426562992625439108e+01 1.830000000000000000e+02
1.022560327696495719e+01 5.515562612344095328e+01 1.830000000000000000e+02
9.126555157457236334e+00 5.604562232062751548e+01 1.830000000000000000e+02
8.027507037949513702e+00 5.693561851781407768e+01 1.830000000000000000e+02
6.928458918441791070e+00 5.782561471500063988e+01 1.830000000000000000e+02
5.829410798934069327e+00 5.871561091218720208e+01 1.830000000000000000e+02
4.730362679426346695e+00 5.960560710937375717e+01 1.830000000000000000e+02
3.631314559918624507e+00 6.049560330656031937e+01 1.830000000000000000e+02
2.532266440410902320e+00 6.138559950374688157e+01 1.830000000000000000e+02
1.433218320903179688e+00 6.227559570093344377e+01 1.830000000000000000e+02
1.132465139647268160e+01 5.426562992625439108e+01 1.840000000000000000e+02
1.022560327696495719e+01 5.515562612344095328e+01 1.840000000000000000e+02
9.126555157457236334e+00 5.604562232062751548e+01 1.840000000000000000e+02
8.027507037949513702e+00 5.693561851781407768e+01 1.840000000000000000e+02
6.928458918441791070e+00 5.782561471500063988e+01 1.840000000000000000e+02
5.829410798934069327e+00 5.871561091218720208e+01 1.840000000000000000e+02
4.730362679426346695e+00 5.960560710937375717e+01 1.840000000000000000e+02
3.631314559918624507e+00 6.049560330656031937e+01 1.840000000000000000e+02
2.532266440410902320e+00 6.138559950374688157e+01 1.840000000000000000e+02
1.433218320903179688e+00 6.227559570093344377e+01 1.840000000000000000e+02
1.132465139647268160e+01 5.426562992625439108e+01 1.850000000000000000e+02
1.022560327696495719e+01 5.515562612344095328e+01 1.850000000000000000e+02
9.126555157457236334e+00 5.604562232062751548e+01 1.850000000000000000e+02
8.027507037949513702e+00 5.693561851781407768e+01 1.850000000000000000e+02
6.928458918441791070e+00 5.782561471500063988e+01 1.850000000000000000e+02
5.829410798934069327e+00 5.871561091218720208e+01 1.850000000000000000e+02
4.730362679426346695e+00 5.960560710937375717e+01 1.850000000000000000e+02
3.631314559918624507e+00 6.049560330656031937e+01 1.850000000000000000e+02
2.532266440410902320e+00 6.138559950374688157e+01 1.850000000000000000e+02
1.433218320903179688e+00 6.227559570093344377e+01 1.850000000000000000e+02
1.132465139647268160e+01 5.426562992625439108e+01 1.860000000000000000e+02
1.022560327696495719e+01 5.515562612344095328e+01 1.860000000000000000e+02
9.126555157457236334e+00 5.604562232062751548e+01 1.860000000000000000e+02
8.027507037949513702e+00 5.693561851781407768e+01 1.860000000000000000e+02
6.928458918441791070e+00 5.782561471500063988e+01 1.860000000000000000e+02
5.829410798934069327e+00 5.871561091218720208e+01 1.860000000000000000e+02
4.730362679426346695e+00 5.960560710937375717e+01 1.860000000000000000e+02
3.631314559918624507e+00 6.049560330656031937e+01 1.860000000000000000e+02
2.532266440410902320e+00 6.138559950374688157e+01 1.860000000000000000e+02
1.433218320903179688e+00 6.227559570093344377e+01 1.860000000000000000e+02
1.132465139647268160e+01 5.426562992625439108e+01 1.870000000000000000e+02
1.022560327696495719e+01 5.515562612344095328e+01 1.870000000000000000e+02
9.126555157457236334e+00 5.604562232062751548e+01 1.870000000000000000e+02
8.027507037949513702e+00 5.693561851781407768e+01 1.870000000000000000e+02
6.928458918441791070e+00 5.782561471500063988e+01 1.870000000000000000e+02
5.829410798934069327e+00 5.871561091218720208e+01 1.870000000000000000e+02
4.730362679426346695e+00 5.960560710937375717e+01 1.870000000000000000e+02
3.631314559918624507e+00 6.049560330656031937e+01 1.870000000000000000e+02
2.532266440410902320e+00 6.138559950374688157e+01 1.870000000000000000e+02
1.433218320903179688e+00 6.227559570093344377e+01 1.870000000000000000e+02
1.132465139647268160e+01 5.426562992625439108e+01 1.880000000000000000e+02
1.022560327696495719e+01 5.515562612344095328e+01 1.880000000000000000e+02
9.126555157457236334e+00 5.604562232062751548e+01 1.880000000000000000e+02
8.027507037949513702e+00 5.693561851781407768e+01 1.880000000000000000e+02
6.928458918441791070e+00 5.782561471500063988e+01 1.880000000000000000e+02
5.829410798934069327e+00 5.871561091218720208e+01 1.880000000000000000e+02
4.730362679426346695e+00 5.960560710937375717e+01 1.880000000000000000e+02
3.631314559918624507e+00 6.049560330656031937e+01 1.880000000000000000e+02
2.532266440410902320e+00 6.138559950374688157e+01 1.880000000000000000e+02
1.433218320903179688e+00 6.227559570093344377e+01 1.880000000000000000e+02
1.132465139647268160e+01 5.426562992625439108e+01 1.890000000000000000e+02
1.022560327696495719e+01 5.515562612344095328e+01 1.890000000000000000e+02
9.126555157457236334e+00 5.604562232062751548e+01 1.890000000000000000e+02
8.027507037949513702e+00 5.693561851781407768e+01 1.890000000000000000e+02
6.928458918441791070e+00 5.782561471500063988e+01 1.890000000000000000e+02
5.829410798934069327e+00 5.871561091218720208e+01 1.890000000000000000e+02
4.730362679426346695e+00 5.960560710937375717e+01 1.890000000000000000e+02
3.631314559918624507e+00 6.049560330656031937e+01 1.890000000000000000e+02
2.532266440410902320e+00 6.138559950374688157e+01 1.890000000000000000e+02
1.433218320903179688e+00 6.227559570093344377e+01 1.890000000000000000e+02
1.132465139647268160e+01 5.426562992625439108e+01 1.900000000000000000e+02
1.022560327696495719e+01 5.515562612344095328e+01 1.900000000000000000e+02
9.126555157457236334e+00 5.604562232062751548e+01 1.900000000000000000e+02
8.027507037949513702e+00 5.693561851781407768e+01 1.900000000000000000e+02
6.928458918441791070e+00 5.782561471500063988e+01 1.900000000000000000e+02
5.829410798934069327e+00 5.871561091218720208e+01 1.900000000000000000e+02
4.730362679426346695e+00 5.960560710937375717e+01 1.900000000000000000e+02
3.631314559918624507e+00 6.049560330656031937e+01 1.900000000000000000e+02
2.532266440410902320e+00 6.138559950374688157e+01 1.900000000000000000e+02
1.433218320903179688e+00 6.227559570093344377e+01 1.900000000000000000e+02
1.132465139647268160e+01 5.426562992625439108e+01 1.910000000000000000e+02
1.022560327696495719e+01 5.515562612344095328e+01 1.910000000000000000e+02
9.126555157457236334e+00 5.604562232062751548e+01 1.910000000000000000e+02
8.027507037949513702e+00 5.693561851781407768e+01 1.910000000000000000e+02
6.928458918441791070e+00 5.782561471500063988e+01 1.910000000000000000e+02
5.829410798934069327e+00 5.871561091218720208e+01 1.910000000000000000e+02
4.730362679426346695e+00 5.960560710937375717e+01 1.910000000000000000e+02
3.631314559918624507e+00 6.049560330656031937e+01 1.910000000000000000e+02
2.532266440410902320e+00 6.138559950374688157e+01 1.910000000000000000e+02
1.433218320903179688e+00 6.227559570093344377e+01 1.910000000000000000e+02
1.132465139647268160e+01 5.426562992625439108e+01 1.920000000000000000e+02
1.022560327696495719e+01 5.515562612344095328e+01 1.920000000000000000e+02
9.126555157457236334e+00 5.604562232062751548e+01 1.920000000000000000e+02
8.027507037949513702e+00 5.693561851781407768e+01 1.920000000000000000e+02
6.928458918441791070e+00 5.782561471500063988e+01 1.920000000000000000e+02
5.829410798934069327e+00 5.871561091218720208e+01 1.920000000000000000e+02
4.730362679426346695e+00 5.960560710937375717e+01 1.920000000000000000e+02
3.631314559918624507e+00 6.049560330656031937e+01 1.920000000000000000e+02
2.532266440410902320e+00 6.138559950374688157e+01 1.920000000000000000e+02
1.433218320903179688e+00 6.227559570093344377e+01 1.920000000000000000e+02
1.132465139647268160e+01 5.426562992625439108e+01 1.930000000000000000e+02
1.022560327696495719e+01 5.515562612344095328e+01 1.930000000000000000e+02
9.126555157457236334e+00 5.604562232062751548e+01 1.930000000000000000e+02
8.027507037949513702e+00 5.693561851781407768e+01 1.930000000000000000e+02
6.928458918441791070e+00 5.782561471500063988e+01 1.930000000000000000e+02
5.829410798934069327e+00 5.871561091218720208e+01 1.930000000000000000e+02
4.730362679426346695e+00 5.960560710937375717e+01 1.930000000000000000e+02
3.631314559918624507e+00 6.049560330656031937e+01 1.930000000000000000e+02
2.532266440410902320e+00 6.138559950374688157e+01 1.930000000000000000e+02
1.433218320903179688e+00 6.227559570093344377e+01 1.930000000000000000e+02
1.132465139647268160e+01 5.426562992625439108e+01 1.940000000000000000e+02
1.022560327696495719e+01 5.515562612344095328e+01 1.940000000000000000e+02
9.126555157457236334e+00 5.604562232062751548e+01 1.940000000000000000e+02
8.027507037949513702e+00 5.693561851781407768e+01 1.940000000000000000e+02
6.928458918441791070e+00 5.782561471500063988e+01 1.940000000000000000e+02
5.829410798934069327e+00 5.871561091218720208e+01 1.940000000000000000e+02
4.730362679426346695e+00 5.960560710937375717e+01 1.940000000000000000e+02
3.631314559918624507e+00 6.049560330656031937e+01 1.940000000000000000e+02
2.532266440410902320e+00 6.138559950374688157e+01 1.940000000000000000e+02
1.433218320903179688e+00 6.227559570093344377e+01 1.940000000000000000e+02
1.132465139647268160e+01 5.426562992625439108e+01 1.950000000000000000e+02
1.022560327696495719e+01 5.515562612344095328e+01 1.950000000000000000e+02
9.126555157457236334e+00 5.604562232062751548e+01 1.950000000000000000e+02
8.027507037949513702e+00 5.693561851781407768e+01 1.950000000000000000e+02
6.928458918441791070e+00 5.782561471500063988e+01 1.950000000000000000e+02
5.829410798934069327e+00 5.871561091218720208e+01 1.950000000000000000e+02
4.730362679426346695e+00 5.960560710937375717e+01 1.950000000000000000e+02
3.631314559918624507e+00 6.049560330656031937e+01 1.950000000000000000e+02
2.532266440410902320e+00 6.138559950374688157e+01 1.950000000000000000e+02
1.433218320903179688e+00 6.227559570093344377e+01 1.950000000000000000e+02
1.132465139647268160e+01 5.426562992625439108e+01 1.960000000000000000e+02
1.022560327696495719e+01 5.515562612344095328e+01 1.960000000000000000e+02
9.126555157457236334e+00 5.604562232062751548e+01 1.960000000000000000e+02
8.027507037949513702e+00 5.693561851781407768e+01 1.960000000000000000e+02
6.928458918441791070e+00 5.782561471500063988e+01 1.960000000000000000e+02
5.829410798934069327e+00 5.871561091218720208e+01 1.960000000000000000e+02
4.730362679426346695e+00 5.960560710937375717e+01 1.960000000000000000e+02
3.631314559918624507e+00 6.049560330656031937e+01 1.960000000000000000e+02
2.532266440410902320e+00 6.138559950374688157e+01 1.960000000000000000e+02
1.433218320903179688e+00 6.227559570093344377e+01 1.960000000000000000e+02
1.132465139647268160e+01 5.426562992625439108e+01 1.970000000000000000e+02
1.022560327696495719e+01 5.515562612344095328e+01 1.970000000000000000e+02
9.126555157457236334e+00 5.604562232062751548e+01 1.970000000000000000e+02
8.027507037949513702e+00 5.693561851781407768e+01 1.970000000000000000e+02
6.928458918441791070e+00 5.782561471500063988e+01 1.970000000000000000e+02
5.829410798934069327e+00 5.871561091218720208e+01 1.970000000000000000e+02
4.730362679426346695e+00 5.960560710937375717e+01 1.970000000000000000e+02
3.631314559918624507e+00 6.049560330656031937e+01 1.970000000000000000e+02
2.532266440410902320e+00 6.138559950374688157e+01 1.970000000000000000e+02
1.433218320903179688e+00 6.227559570093344377e+01 1.970000000000000000e+02
1.132465139647268160e+01 5.426562992625439108e+01 1.980000000000000000e+02
1.022560327696495719e+01 5.515562612344095328e+01 1.980000000000000000e+02
9.126555157457236334e+00 5.604562232062751548e+01 1.980000000000000000e+02
8.027507037949513702e+00 5.693561851781407768e+01 1.980000000000000000e+02
6.928458918441791070e+00 5.782561471500063988e+01 1.980000000000000000e+02
5.829410798934069327e+00 5.871561091218720208e+01 1.980000000000000000e+02
4.730362679426346695e+00 5.960560710937375717e+01 1.980000000000000000e+02
3.631314559918624507e+00 6.049560330656031937e+01 1.980000000000000000e+02
2.532266440410902320e+00 6.138559950374688157e+01 1.980000000000000000e+02
1.433218320903179688e+00 6.227559570093344377e+01 1.980000000000000000e+02
1.132465139647268160e+01 5.426562992625439108e+01 1.990000000000000000e+02
1.022560327696495719e+01 5.515562612344095328e+01 1.990000000000000000e+02
9.126555157457236334e+00 5.604562232062751548e+01 1.990000000000000000e+02
8.027507037949513702e+00 5.693561851781407768e+01 1.990000000000000000e+02
6.928458918441791070e+00 5.782561471500063988e+01 1.990000000000000000e+02
5.829410798934069327e+00 5.871561091218720208e+01 1.990000000000000000e+02
4.730362679426346695e+00 5.960560710937375717e+01 1.990000000000000000e+02
3.631314559918624507e+00 6.049560330656031937e+01 1.990000000000000000e+02
2.532266440410902320e+00 6.138559950374688157e+01 1.990000000000000000e+02
1.433218320903179688e+00 6.227559570093344377e+01 1.990000000000000000e+02
1.132465139647268160e+01 5.426562992625439108e+01 2.000000000000000000e+02
1.022560327696495719e+01 5.515562612344095328e+01 2.000000000000000000e+02
9.126555157457236334e+00 5.604562232062751548e+01 2.000000000000000000e+02
8.027507037949513702e+00 5.693561851781407768e+01 2.000000000000000000e+02
6.928458918441791070e+00 5.782561471500063988e+01 2.000000000000000000e+02
5.829410798934069327e+00 5.871561091218720208e+01 2.000000000000000000e+02
4.730362679426346695e+00 5.960560710937375717e+01 2.000000000000000000e+02
3.631314559918624507e+00 6.049560330656031937e+01 2.000000000000000000e+02
2.532266440410902320e+00 6.138559950374688157e+01 2.000000000000000000e+02
1.433218320903179688e+00 6.227559570093344377e+01 2.000000000000000000e+02
1.132465139647268160e+01 5.426562992625439108e+01 2.010000000000000000e+02
1.022560327696495719e+01 5.515562612344095328e+01 2.010000000000000000e+02
9.126555157457236334e+00 5.604562232062751548e+01 2.010000000000000000e+02
8.027507037949513702e+00 5.693561851781407768e+01 2.010000000000000000e+02
6.928458918441791070e+00 5.782561471500063988e+01 2.010000000000000000e+02
5.829410798934069327e+00 5.871561091218720208e+01 2.010000000000000000e+02
4.730362679426346695e+00 5.960560710937375717e+01 2.010000000000000000e+02
3.631314559918624507e+00 6.049560330656031937e+01 2.010000000000000000e+02
2.532266440410902320e+00 6.138559950374688157e+01 2.010000000000000000e+02
1.433218320903179688e+00 6.227559570093344377e+01 2.010000000000000000e+02
1.132465139647268160e+01 5.426562992625439108e+01 2.020000000000000000e+02
1.022560327696495719e+01 5.515562612344095328e+01 2.020000000000000000e+02
9.126555157457236334e+00 5.604562232062751548e+01 2.020000000000000000e+02
8.027507037949513702e+00 5.693561851781407768e+01 2.020000000000000000e+02
6.928458918441791070e+00 5.782561471500063988e+01 2.020000000000000000e+02
5.829410798934069327e+00 5.871561091218720208e+01 2.020000000000000000e+02
4.730362679426346695e+00 5.960560710937375717e+01 2.020000000000000000e+02
3.631314559918624507e+00 6.049560330656031937e+01 2.020000000000000000e+02
2.532266440410902320e+00 6.138559950374688157e+01 2.020000000000000000e+02
1.433218320903179688e+00 6.227559570093344377e+01 2.020000000000000000e+02
1.132465139647268160e+01 5.426562992625439108e+01 2.030000000000000000e+02
1.022560327696495719e+01 5.515562612344095328e+01 2.030000000000000000e+02
9.126555157457236334e+00 5.604562232062751548e+01 2.030000000000000000e+02
8.027507037949513702e+00 5.693561851781407768e+01 2.030000000000000000e+02
6.928458918441791070e+00 5.782561471500063988e+01 2.030000000000000000e+02
5.829410798934069327e+00 5.871561091218720208e+01 2.030000000000000000e+02
4.730362679426346695e+00 5.960560710937375717e+01 2.030000000000000000e+02
3.631314559918624507e+00 6.049560330656031937e+01 2.030000000000000000e+02
2.532266440410902320e+00 6.138559950374688157e+01 2.030000000000000000e+02
1.433218320903179688e+00 6.227559570093344377e+01 2.030000000000000000e+02
1.132465139647268160e+01 5.426562992625439108e+01 2.040000000000000000e+02
1.022560327696495719e+01 5.515562612344095328e+01 2.040000000000000000e+02
9.126555157457236334e+00 5.604562232062751548e+01 2.040000000000000000e+02
8.027507037949513702e+00 5.693561851781407768e+01 2.040000000000000000e+02
6.928458918441791070e+00 5.782561471500063988e+01 2.040000000000000000e+02
5.829410798934069327e+00 5.871561091218720208e+01 2.040000000000000000e+02
4.730362679426346695e+00 5.960560710937375717e+01 2.040000000000000000e+02
3.631314559918624507e+00 6.049560330656031937e+01 2.040000000000000000e+02
2.532266440410902320e+00 6.138559950374688157e+01 2.040000000000000000e+02
1.433218320903179688e+00 6.227559570093344377e+01 2.040000000000000000e+02
3.341702013954579442e-01 6.316559189811999886e+01 2.040000000000000000e+02
1.132465139647268160e+01 5.426562992625439108e+01 2.050000000000000000e+02
1.022560327696495719e+01 5.515562612344095328e+01 2.050000000000000000e+02
9.126555157457236334e+00 5.604562232062751548e+01 2.050000000000000000e+02
8.027507037949513702e+00 5.693561851781407768e+01 2.050000000000000000e+02
6.928458918441791070e+00 5.782561471500063988e+01 2.050000000000000000e+02
5.829410798934069327e+00 5.871561091218720208e+01 2.050000000000000000e+02
4.730362679426346695e+00 5.960560710937375717e+01 2.050000000000000000e+02
3.631314559918624507e+00 6.049560330656031937e+01 2.050000000000000000e+02
2.532266440410902320e+00 6.138559950374688157e+01 2.050000000000000000e+02
1.433218320903179688e+00 6.227559570093344377e+01 2.050000000000000000e+02
3.341702013954579442e-01 6.316559189811999886e+01 2.050000000000000000e+02
1.132465139647268160e+01 5.426562992625439108e+01 2.060000000000000000e+02
1.022560327696495719e+01 5.515562612344095328e+01 2.060000000000000000e+02
9.126555157457236334e+00 5.604562232062751548e+01 2.060000000000000000e+02
8.027507037949513702e+00 5.693561851781407768e+01 2.060000000000000000e+02
6.928458918441791070e+00 5.782561471500063988e+01 2.060000000000000000e+02
5.829410798934069327e+00 5.871561091218720208e+01 2.060000000000000000e+02
4.730362679426346695e+00 5.960560710937375717e+01 2.060000000000000000e+02
3.631314559918624507e+00 6.049560330656031937e+01 2.060000000000000000e+02
2.532266440410902320e+00 6.138559950374688157e+01 2.060000000000000000e+02
1.433218320903179688e+00 6.227559570093344377e+01 2.060000000000000000e+02
1.132465139647268160e+01 5.426562992625439108e+01 2.070000000000000000e+02
1.022560327696495719e+01 5.515562612344095328e+01 2.070000000000000000e+02
9.126555157457236334e+00 5.604562232062751548e+01 2.070000000000000000e+02
8.027507037949513702e+00 5.693561851781407768e+01 2.070000000000000000e+02
6.928458918441791070e+00 5.782561471500063988e+01 2.070000000000000000e+02
5.829410798934069327e+00 5.871561091218720208e+01 2.070000000000000000e+02
4.730362679426346695e+00 5.960560710937375717e+01 2.070000000000000000e+02
3.631314559918624507e+00 6.049560330656031937e+01 2.070000000000000000e+02
2.532266440410902320e+00 6.138559950374688157e+01 2.070000000000000000e+02
1.433218320903179688e+00 6.227559570093344377e+01 2.070000000000000000e+02
1.132465139647268160e+01 5.426562992625439108e+01 2.080000000000000000e+02
1.022560327696495719e+01 5.515562612344095328e+01 2.080000000000000000e+02
9.126555157457236334e+00 5.604562232062751548e+01 2.080000000000000000e+02
8.027507037949513702e+00 5.693561851781407768e+01 2.080000000000000000e+02
6.928458918441791070e+00 5.782561471500063988e+01 2.080000000000000000e+02
5.829410798934069327e+00 5.871561091218720208e+01 2.080000000000000000e+02
4.730362679426346695e+00 5.960560710937375717e+01 2.080000000000000000e+02
3.631314559918624507e+00 6.049560330656031937e+01 2.080000000000000000e+02
2.532266440410902320e+00 6.138559950374688157e+01 2.080000000000000000e+02
1.433218320903179688e+00 6.227559570093344377e+01 2.080000000000000000e+02
1.132465139647268160e+01 5.426562992625439108e+01 2.090000000000000000e+02
1.022560327696495719e+01 5.515562612344095328e+01 2.090000000000000000e+02
9.126555157457236334e+00 5.604562232062751548e+01 2.090000000000000000e+02
8.027507037949513702e+00 5.693561851781407768e+01 2.090000000000000000e+02
6.928458918441791070e+00 5.782561471500063988e+01 2.090000000000000000e+02
5.829410798934069327e+00 5.871561091218720208e+01 2.090000000000000000e+02
4.730362679426346695e+00 5.960560710937375717e+01 2.090000000000000000e+02
3.631314559918624507e+00 6.049560330656031937e+01 2.090000000000000000e+02
2.532266440410902320e+00 6.138559950374688157e+01 2.090000000000000000e+02
1.433218320903179688e+00 6.227559570093344377e+01 2.090000000000000000e+02
1.132465139647268160e+01 5.426562992625439108e+01 2.100000000000000000e+02
1.022560327696495719e+01 5.515562612344095328e+01 2.100000000000000000e+02
9.126555157457236334e+00 5.604562232062751548e+01 2.100000000000000000e+02
8.027507037949513702e+00 5.693561851781407768e+01 2.100000000000000000e+02
6.928458918441791070e+00 5.782561471500063988e+01 2.100000000000000000e+02
5.829410798934069327e+00 5.871561091218720208e+01 2.100000000000000000e+02
4.730362679426346695e+00 5.960560710937375717e+01 2.100000000000000000e+02
3.631314559918624507e+00 6.049560330656031937e+01 2.100000000000000000e+02
2.532266440410902320e+00 6.138559950374688157e+01 2.100000000000000000e+02
1.433218320903179688e+00 6.227559570093344377e+01 2.100000000000000000e+02
1.132465139647268160e+01 5.426562992625439108e+01 2.110000000000000000e+02
1.022560327696495719e+01 5.515562612344095328e+01 2.110000000000000000e+02
9.126555157457236334e+00 5.604562232062751548e+01 2.110000000000000000e+02
8.027507037949513702e+00 5.693561851781407768e+01 2.110000000000000000e+02
6.928458918441791070e+00 5.782561471500063988e+01 2.110000000000000000e+02
5.829410798934069327e+00 5.871561091218720208e+01 2.110000000000000000e+02
4.730362679426346695e+00 5.960560710937375717e+01 2.110000000000000000e+02
3.631314559918624507e+00 6.049560330656031937e+01 2.110000000000000000e+02
2.532266440410902320e+00 6.138559950374688157e+01 2.110000000000000000e+02
1.433218320903179688e+00 6.227559570093344377e+01 2.110000000000000000e+02
1.122012543531209872e+01 5.526015208460153616e+01 2.120000000000000000e+02
1.012107731580437786e+01 5.615014828178809836e+01 2.120000000000000000e+02
9.022029196296655229e+00 5.704014447897466056e+01 2.120000000000000000e+02
7.922981076788932597e+00 5.793014067616121565e+01 2.120000000000000000e+02
6.823932957281210854e+00 5.882013687334777785e+01 2.120000000000000000e+02
5.724884837773488222e+00 5.971013307053434005e+01 2.120000000000000000e+02
4.625836718265766478e+00 6.060012926772090225e+01 2.120000000000000000e+02
3.526788598758043847e+00 6.149012546490746445e+01 2.120000000000000000e+02
2.427740479250321659e+00 6.238012166209401954e+01 2.120000000000000000e+02
1.328692359742599471e+00 6.327011785928058174e+01 2.120000000000000000e+02
1.122012543531209872e+01 5.526015208460153616e+01 2.130000000000000000e+02
1.012107731580437786e+01 5.615014828178809836e+01 2.130000000000000000e+02
9.022029196296655229e+00 5.704014447897466056e+01 2.130000000000000000e+02
7.922981076788932597e+00 5.793014067616121565e+01 2.130000000000000000e+02
6.823932957281210854e+00 5.882013687334777785e+01 2.130000000000000000e+02
5.724884837773488222e+00 5.971013307053434005e+01 2.130000000000000000e+02
4.625836718265766478e+00 6.060012926772090225e+01 2.130000000000000000e+02
3.526788598758043847e+00 6.149012546490746445e+01 2.130000000000000000e+02
2.427740479250321659e+00 6.238012166209401954e+01 2.130000000000000000e+02
1.328692359742599471e+00 6.327011785928058174e+01 2.130000000000000000e+02
1.122012543531209872e+01 5.526015208460153616e+01 2.140000000000000000e+02
1.012107731580437786e+01 5.615014828178809836e+01 2.140000000000000000e+02
9.022029196296655229e+00 5.704014447897466056e+01 2.140000000000000000e+02
7.922981076788932597e+00 5.793014067616121565e+01 2.140000000000000000e+02
6.823932957281210854e+00 5.882013687334777785e+01 2.140000000000000000e+02
5.724884837773488222e+00 5.971013307053434005e+01 2.140000000000000000e+02
4.625836718265766478e+00 6.060012926772090225e+01 2.140000000000000000e+02
3.526788598758043847e+00 6.149012546490746445e+01 2.140000000000000000e+02
2.427740479250321659e+00 6.238012166209401954e+01 2.140000000000000000e+02
1.328692359742599471e+00 6.327011785928058174e+01 2.140000000000000000e+02
1.122012543531209872e+01 5.526015208460153616e+01 2.150000000000000000e+02
1.012107731580437786e+01 5.615014828178809836e+01 2.150000000000000000e+02
9.022029196296655229e+00 5.704014447897466056e+01 2.150000000000000000e+02
7.922981076788932597e+00 5.793014067616121565e+01 2.150000000000000000e+02
6.823932957281210854e+00 5.882013687334777785e+01 2.150000000000000000e+02
5.724884837773488222e+00 5.971013307053434005e+01 2.150000000000000000e+02
4.625836718265766478e+00 6.060012926772090225e+01 2.150000000000000000e+02
3.526788598758043847e+00 6.149012546490746445e+01 2.150000000000000000e+02
2.427740479250321659e+00 6.238012166209401954e+01 2.150000000000000000e+02
1.328692359742599471e+00 6.327011785928058174e+01 2.150000000000000000e+02
1.122012543531209872e+01 5.526015208460153616e+01 2.160000000000000000e+02
1.012107731580437786e+01 5.615014828178809836e+01 2.160000000000000000e+02
9.022029196296655229e+00 5.704014447897466056e+01 2.160000000000000000e+02
7.922981076788932597e+00 5.793014067616121565e+01 2.160000000000000000e+02
6.823932957281210854e+00 5.882013687334777785e+01 2.160000000000000000e+02
5.724884837773488222e+00 5.971013307053434005e+01 2.160000000000000000e+02
4.625836718265766478e+00 6.060012926772090225e+01 2.160000000000000000e+02
3.526788598758043847e+00 6.149012546490746445e+01 2.160000000000000000e+02
2.427740479250321659e+00 6.238012166209401954e+01 2.160000000000000000e+02
1.328692359742599471e+00 6.327011785928058174e+01 2.160000000000000000e+02
1.122012543531209872e+01 5.526015208460153616e+01 2.170000000000000000e+02
1.012107731580437786e+01 5.615014828178809836e+01 2.170000000000000000e+02
9.022029196296655229e+00 5.704014447897466056e+01 2.170000000000000000e+02
7.922981076788932597e+00 5.793014067616121565e+01 2.170000000000000000e+02
6.823932957281210854e+00 5.882013687334777785e+01 2.170000000000000000e+02
5.724884837773488222e+00 5.971013307053434005e+01 2.170000000000000000e+02
4.625836718265766478e+00 6.060012926772090225e+01 2.170000000000000000e+02
3.526788598758043847e+00 6.149012546490746445e+01 2.170000000000000000e+02
2.427740479250321659e+00 6.238012166209401954e+01 2.170000000000000000e+02
1.328692359742599471e+00 6.327011785928058174e+01 2.170000000000000000e+02
1.122012543531209872e+01 5.526015208460153616e+01 2.180000000000000000e+02
1.012107731580437786e+01 5.615014828178809836e+01 2.180000000000000000e+02
9.022029196296655229e+00 5.704014447897466056e+01 2.180000000000000000e+02
7.922981076788932597e+00 5.793014067616121565e+01 2.180000000000000000e+02
6.823932957281210854e+00 5.882013687334777785e+01 2.180000000000000000e+02
5.724884837773488222e+00 5.971013307053434005e+01 2.180000000000000000e+02
4.625836718265766478e+00 6.060012926772090225e+01 2.180000000000000000e+02
3.526788598758043847e+00 6.149012546490746445e+01 2.180000000000000000e+02
2.427740479250321659e+00 6.238012166209401954e+01 2.180000000000000000e+02
1.328692359742599471e+00 6.327011785928058174e+01 2.180000000000000000e+02
1.122012543531209872e+01 5.526015208460153616e+01 2.190000000000000000e+02
1.012107731580437786e+01 5.615014828178809836e+01 2.190000000000000000e+02
9.022029196296655229e+00 5.704014447897466056e+01 2.190000000000000000e+02
7.922981076788932597e+00 5.793014067616121565e+01 2.190000000000000000e+02
6.823932957281210854e+00 5.882013687334777785e+01 2.190000000000000000e+02
5.724884837773488222e+00 5.971013307053434005e+01 2.190000000000000000e+02
4.625836718265766478e+00 6.060012926772090225e+01 2.190000000000000000e+02
3.526788598758043847e+00 6.149012546490746445e+01 2.190000000000000000e+02
2.427740479250321659e+00 6.238012166209401954e+01 2.190000000000000000e+02
1.328692359742599471e+00 6.327011785928058174e+01 2.190000000000000000e+02
1.122012543531209872e+01 5.526015208460153616e+01 2.200000000000000000e+02
1.012107731580437786e+01 5.615014828178809836e+01 2.200000000000000000e+02
9.022029196296655229e+00 5.704014447897466056e+01 2.200000000000000000e+02
7.922981076788932597e+00 5.793014067616121565e+01 2.200000000000000000e+02
6.823932957281210854e+00 5.882013687334777785e+01 2.200000000000000000e+02
5.724884837773488222e+00 5.971013307053434005e+01 2.200000000000000000e+02
4.625836718265766478e+00 6.060012926772090225e+01 2.200000000000000000e+02
3.526788598758043847e+00 6.149012546490746445e+01 2.200000000000000000e+02
2.427740479250321659e+00 6.238012166209401954e+01 2.200000000000000000e+02
1.328692359742599471e+00 6.327011785928058174e+01 2.200000000000000000e+02
1.216085908575732688e+01 4.630945265947725886e+01 2.210000000000000000e+02
1.106181096624960425e+01 4.719944885666382106e+01 2.210000000000000000e+02
9.962762846741881617e+00 4.808944505385038326e+01 2.210000000000000000e+02
8.863714727234160762e+00 4.897944125103694546e+01 2.210000000000000000e+02
2.269426010187825860e+00 5.431941843415631155e+01 2.210000000000000000e+02
1.170377890680104116e+00 5.520941463134286664e+01 2.210000000000000000e+02
7.132977117238148423e-02 5.609941082852942884e+01 2.210000000000000000e+02
-1.027718348335340259e+00 5.698940702571599104e+01 2.210000000000000000e+02
-2.126766467843062003e+00 5.787940322290255324e+01 2.210000000000000000e+02
-3.225814587350783746e+00 5.876939942008911544e+01 2.210000000000000000e+02
-4.324862706858506378e+00 5.965939561727567764e+01 2.210000000000000000e+02
-5.423910826366229010e+00 6.054939181446223273e+01 2.210000000000000000e+02
-6.522958945873951642e+00 6.143938801164879493e+01 2.210000000000000000e+02
-7.622007065381674273e+00 6.232938420883535713e+01 2.210000000000000000e+02
1.236991100807848909e+01 4.432040834278298291e+01 2.220000000000000000e+02
1.127086288857076468e+01 4.521040453996954511e+01 2.220000000000000000e+02
1.017181476906304383e+01 4.610040073715610021e+01 2.220000000000000000e+02
9.072766649555321194e+00 4.699039693434266241e+01 2.220000000000000000e+02
7.973718530047599451e+00 4.788039313152922460e+01 2.220000000000000000e+02
6.874670410539876819e+00 4.877038932871577970e+01 2.220000000000000000e+02
5.775622291032155076e+00 4.966038552590234190e+01 2.220000000000000000e+02
2.803816934935428051e-01 5.411036651183514579e+01 2.220000000000000000e+02
-8.186664260141789384e-01 5.500036270902170799e+01 2.220000000000000000e+02
-1.917714545521900682e+00 5.589035890620827018e+01 2.220000000000000000e+02
-3.016762665029623314e+00 5.678035510339482528e+01 2.220000000000000000e+02
-4.115810784537345945e+00 5.767035130058138748e+01 2.220000000000000000e+02
-5.214858904045066801e+00 5.856034749776794968e+01 2.220000000000000000e+02
-6.313907023552789433e+00 5.945034369495451188e+01 2.220000000000000000e+02
-7.412955143060512064e+00 6.034033989214107407e+01 2.220000000000000000e+02
-8.512003262568235584e+00 6.123033608932763627e+01 2.220000000000000000e+02
-9.611051382075956440e+00 6.212033228651419137e+01 2.220000000000000000e+02
1.247443696923906842e+01 4.332588618443583783e+01 2.230000000000000000e+02
1.137538884973134756e+01 4.421588238162240003e+01 2.230000000000000000e+02
1.027634073022362315e+01 4.510587857880895513e+01 2.230000000000000000e+02
9.177292610715902299e+00 4.599587477599551733e+01 2.230000000000000000e+02
8.078244491208179667e+00 4.688587097318207952e+01 2.230000000000000000e+02
6.979196371700457924e+00 4.777586717036864172e+01 2.230000000000000000e+02
5.880148252192735292e+00 4.866586336755520392e+01 2.230000000000000000e+02
4.781100132685013548e+00 4.955585956474176612e+01 2.230000000000000000e+02
3.682052013177290917e+00 5.044585576192832832e+01 2.230000000000000000e+02
-1.813188584361319577e+00 5.489583674786112510e+01 2.230000000000000000e+02
-2.912236703869042209e+00 5.578583294504768730e+01 2.230000000000000000e+02
-4.011284823376764841e+00 5.667582914223424950e+01 2.230000000000000000e+02
-5.110332942884487473e+00 5.756582533942081170e+01 2.230000000000000000e+02
-6.209381062392208328e+00 5.845582153660737390e+01 2.230000000000000000e+02
-7.308429181899930960e+00 5.934581773379392899e+01 2.230000000000000000e+02
-8.407477301407652703e+00 6.023581393098049119e+01 2.230000000000000000e+02
-9.506525420915377111e+00 6.112581012816705339e+01 2.230000000000000000e+02
1.247443696923906842e+01 4.332588618443583783e+01 2.240000000000000000e+02
1.137538884973134756e+01 4.421588238162240003e+01 2.240000000000000000e+02
1.027634073022362315e+01 4.510587857880895513e+01 2.240000000000000000e+02
9.177292610715902299e+00 4.599587477599551733e+01 2.240000000000000000e+02
8.078244491208179667e+00 4.688587097318207952e+01 2.240000000000000000e+02
6.979196371700457924e+00 4.777586717036864172e+01 2.240000000000000000e+02
5.880148252192735292e+00 4.866586336755520392e+01 2.240000000000000000e+02
4.781100132685013548e+00 4.955585956474176612e+01 2.240000000000000000e+02
3.682052013177290917e+00 5.044585576192832832e+01 2.240000000000000000e+02
-1.813188584361319577e+00 5.489583674786112510e+01 2.240000000000000000e+02
-2.912236703869042209e+00 5.578583294504768730e+01 2.240000000000000000e+02
-4.011284823376764841e+00 5.667582914223424950e+01 2.240000000000000000e+02
-5.110332942884487473e+00 5.756582533942081170e+01 2.240000000000000000e+02
-6.209381062392208328e+00 5.845582153660737390e+01 2.240000000000000000e+02
-7.308429181899930960e+00 5.934581773379392899e+01 2.240000000000000000e+02
-8.407477301407652703e+00 6.023581393098049119e+01 2.240000000000000000e+02
-9.506525420915377111e+00 6.112581012816705339e+01 2.240000000000000000e+02
1.247443696923906842e+01 4.332588618443583783e+01 2.250000000000000000e+02
1.137538884973134756e+01 4.421588238162240003e+01 2.250000000000000000e+02
1.027634073022362315e+01 4.510587857880895513e+01 2.250000000000000000e+02
9.177292610715902299e+00 4.599587477599551733e+01 2.250000000000000000e+02
8.078244491208179667e+00 4.688587097318207952e+01 2.250000000000000000e+02
6.979196371700457924e+00 4.777586717036864172e+01 2.250000000000000000e+02
5.880148252192735292e+00 4.866586336755520392e+01 2.250000000000000000e+02
4.781100132685013548e+00 4.955585956474176612e+01 2.250000000000000000e+02
3.682052013177290917e+00 5.044585576192832832e+01 2.250000000000000000e+02
2.583003893669568285e+00 5.133585195911488341e+01 2.250000000000000000e+02
-1.813188584361319577e+00 5.489583674786112510e+01 2.250000000000000000e+02
-2.912236703869042209e+00 5.578583294504768730e+01 2.250000000000000000e+02
-4.011284823376764841e+00 5.667582914223424950e+01 2.250000000000000000e+02
-5.110332942884487473e+00 5.756582533942081170e+01 2.250000000000000000e+02
-6.209381062392208328e+00 5.845582153660737390e+01 2.250000000000000000e+02
-7.308429181899930960e+00 5.934581773379392899e+01 2.250000000000000000e+02
-8.407477301407652703e+00 6.023581393098049119e+01 2.250000000000000000e+02
1.247443696923906842e+01 4.332588618443583783e+01 2.260000000000000000e+02
1.137538884973134756e+01 4.421588238162240003e+01 2.260000000000000000e+02
1.027634073022362315e+01 4.510587857880895513e+01 2.260000000000000000e+02
9.177292610715902299e+00 4.599587477599551733e+01 2.260000000000000000e+02
8.078244491208179667e+00 4.688587097318207952e+01 2.260000000000000000e+02
6.979196371700457924e+00 4.777586717036864172e+01 2.260000000000000000e+02
5.880148252192735292e+00 4.866586336755520392e+01 2.260000000000000000e+02
4.781100132685013548e+00 4.955585956474176612e+01 2.260000000000000000e+02
3.682052013177290917e+00 5.044585576192832832e+01 2.260000000000000000e+02
2.583003893669568285e+00 5.133585195911488341e+01 2.260000000000000000e+02
-4.011284823376764841e+00 5.667582914223424950e+01 2.260000000000000000e+02
-5.110332942884487473e+00 5.756582533942081170e+01 2.260000000000000000e+02
-6.209381062392208328e+00 5.845582153660737390e+01 2.260000000000000000e+02
-7.308429181899930960e+00 5.934581773379392899e+01 2.260000000000000000e+02
1.247443696923906842e+01 4.332588618443583783e+01 2.270000000000000000e+02
1.137538884973134756e+01 4.421588238162240003e+01 2.270000000000000000e+02
1.027634073022362315e+01 4.510587857880895513e+01 2.270000000000000000e+02
9.177292610715902299e+00 4.599587477599551733e+01 2.270000000000000000e+02
8.078244491208179667e+00 4.688587097318207952e+01 2.270000000000000000e+02
6.979196371700457924e+00 4.777586717036864172e+01 2.270000000000000000e+02
5.880148252192735292e+00 4.866586336755520392e+01 2.270000000000000000e+02
4.781100132685013548e+00 4.955585956474176612e+01 2.270000000000000000e+02
3.682052013177290917e+00 5.044585576192832832e+01 2.270000000000000000e+02
2.583003893669568285e+00 5.133585195911488341e+01 2.270000000000000000e+02
1.236991100807848909e+01 4.432040834278298291e+01 2.280000000000000000e+02
1.127086288857076468e+01 4.521040453996954511e+01 2.280000000000000000e+02
1.017181476906304383e+01 4.610040073715610021e+01 2.280000000000000000e+02
9.072766649555321194e+00 4.699039693434266241e+01 2.280000000000000000e+02
7.973718530047599451e+00 4.788039313152922460e+01 2.280000000000000000e+02
6.874670410539876819e+00 4.877038932871577970e+01 2.280000000000000000e+02
5.775622291032155076e+00 4.966038552590234190e+01 2.280000000000000000e+02
4.676574171524432444e+00 5.055038172308890410e+01 2.280000000000000000e+02
3.577526052016709812e+00 5.144037792027546629e+01 2.280000000000000000e+02
1.247443696923906842e+01 4.332588618443583783e+01 2.290000000000000000e+02
1.137538884973134756e+01 4.421588238162240003e+01 2.290000000000000000e+02
1.027634073022362315e+01 4.510587857880895513e+01 2.290000000000000000e+02
9.177292610715902299e+00 4.599587477599551733e+01 2.290000000000000000e+02
8.078244491208179667e+00 4.688587097318207952e+01 2.290000000000000000e+02
6.979196371700457924e+00 4.777586717036864172e+01 2.290000000000000000e+02
5.880148252192735292e+00 4.866586336755520392e+01 2.290000000000000000e+02
4.781100132685013548e+00 4.955585956474176612e+01 2.290000000000000000e+02
3.682052013177290917e+00 5.044585576192832832e+01 2.290000000000000000e+02
2.583003893669568285e+00 5.133585195911488341e+01 2.290000000000000000e+02
1.247443696923906842e+01 4.332588618443583783e+01 2.300000000000000000e+02
1.137538884973134756e+01 4.421588238162240003e+01 2.300000000000000000e+02
1.027634073022362315e+01 4.510587857880895513e+01 2.300000000000000000e+02
9.177292610715902299e+00 4.599587477599551733e+01 2.300000000000000000e+02
8.078244491208179667e+00 4.688587097318207952e+01 2.300000000000000000e+02
6.979196371700457924e+00 4.777586717036864172e+01 2.300000000000000000e+02
5.880148252192735292e+00 4.866586336755520392e+01 2.300000000000000000e+02
4.781100132685013548e+00 4.955585956474176612e+01 2.300000000000000000e+02
3.682052013177290917e+00 5.044585576192832832e+01 2.300000000000000000e+02
2.583003893669568285e+00 5.133585195911488341e+01 2.300000000000000000e+02
1.236991100807848909e+01 4.432040834278298291e+01 2.310000000000000000e+02
1.127086288857076468e+01 4.521040453996954511e+01 2.310000000000000000e+02
1.017181476906304383e+01 4.610040073715610021e+01 2.310000000000000000e+02
9.072766649555321194e+00 4.699039693434266241e+01 2.310000000000000000e+02
7.973718530047599451e+00 4.788039313152922460e+01 2.310000000000000000e+02
6.874670410539876819e+00 4.877038932871577970e+01 2.310000000000000000e+02
5.775622291032155076e+00 4.966038552590234190e+01 2.310000000000000000e+02
4.676574171524432444e+00 5.055038172308890410e+01 2.310000000000000000e+02
3.577526052016709812e+00 5.144037792027546629e+01 2.310000000000000000e+02
1.226538504691790621e+01 4.531493050113012089e+01 2.320000000000000000e+02
1.116633692741018535e+01 4.620492669831668309e+01 2.320000000000000000e+02
1.006728880790246272e+01 4.709492289550324529e+01 2.320000000000000000e+02
8.968240688394740090e+00 4.798491909268980748e+01 2.320000000000000000e+02
7.869192568887018346e+00 4.887491528987636258e+01 2.320000000000000000e+02
6.770144449379296603e+00 4.976491148706292478e+01 2.320000000000000000e+02
5.671096329871573971e+00 5.065490768424948698e+01 2.320000000000000000e+02
1.216085908575732688e+01 4.630945265947725886e+01 2.330000000000000000e+02
1.106181096624960425e+01 4.719944885666382106e+01 2.330000000000000000e+02
9.962762846741881617e+00 4.808944505385038326e+01 2.330000000000000000e+02
8.863714727234160762e+00 4.897944125103694546e+01 2.330000000000000000e+02
7.764666607726438130e+00 4.986943744822350766e+01 2.330000000000000000e+02
6.665618488218715498e+00 5.075943364541006986e+01 2.330000000000000000e+02
1.205633312459674578e+01 4.730397481782440394e+01 2.340000000000000000e+02
1.095728500508902314e+01 4.819397101501096614e+01 2.340000000000000000e+02
9.858236885581302289e+00 4.908396721219752834e+01 2.340000000000000000e+02
8.759188766073579657e+00 4.997396340938408343e+01 2.340000000000000000e+02
-8.825581146049977121e+00 6.421390256436906441e+01 2.340000000000000000e+02
-9.924629265557697977e+00 6.510389876155561240e+01 2.340000000000000000e+02
-1.102367738506542238e+01 6.599389495874217459e+01 2.340000000000000000e+02
-1.212272550457314324e+01 6.688389115592873679e+01 2.340000000000000000e+02
-1.322177362408086765e+01 6.777388735311529899e+01 2.340000000000000000e+02
1.027939178486687410e+01 6.421085150972581346e+01 2.350000000000000000e+02
9.180343665359149696e+00 6.510084770691237566e+01 2.350000000000000000e+02
8.081295545851428841e+00 6.599084390409893786e+01 2.350000000000000000e+02
6.982247426343706209e+00 6.688084010128548584e+01 2.350000000000000000e+02
