-1.381610911428860611e+00 -9.566903902509569235e+00 3.520000000000000000e+02
-2.789356926779787749e+00 -9.702000742826388802e+00 3.520000000000000000e+02
9.880357211378555604e+00 -8.486129179975021586e+00 3.530000000000000000e+02
8.472611196027628466e+00 -8.621226020291841152e+00 3.530000000000000000e+02
7.064865180676701328e+00 -8.756322860608658942e+00 3.530000000000000000e+02
5.657119165325774190e+00 -8.891419700925478509e+00 3.530000000000000000e+02
4.249373149974847053e+00 -9.026516541242296299e+00 3.530000000000000000e+02
2.841627134623919915e+00 -9.161613381559114089e+00 3.530000000000000000e+02
1.433881119272993665e+00 -9.296710221875933655e+00 3.530000000000000000e+02
2.613510392206652710e-02 -9.431807062192751445e+00 3.530000000000000000e+02
-1.381610911428860611e+00 -9.566903902509569235e+00 3.530000000000000000e+02
-2.789356926779787749e+00 -9.702000742826388802e+00 3.530000000000000000e+02
9.880357211378555604e+00 -8.486129179975021586e+00 3.540000000000000000e+02
8.472611196027628466e+00 -8.621226020291841152e+00 3.540000000000000000e+02
7.064865180676701328e+00 -8.756322860608658942e+00 3.540000000000000000e+02
5.657119165325774190e+00 -8.891419700925478509e+00 3.540000000000000000e+02
4.249373149974847053e+00 -9.026516541242296299e+00 3.540000000000000000e+02
2.841627134623919915e+00 -9.161613381559114089e+00 3.540000000000000000e+02
1.433881119272993665e+00 -9.296710221875933655e+00 3.540000000000000000e+02
2.613510392206652710e-02 -9.431807062192751445e+00 3.540000000000000000e+02
-1.381610911428860611e+00 -9.566903902509569235e+00 3.540000000000000000e+02
-2.789356926779787749e+00 -9.702000742826388802e+00 3.540000000000000000e+02
9.880357211378555604e+00 -8.486129179975021586e+00 3.550000000000000000e+02
8.472611196027628466e+00 -8.621226020291841152e+00 3.550000000000000000e+02
7.064865180676701328e+00 -8.756322860608658942e+00 3.550000000000000000e+02
5.657119165325774190e+00 -8.891419700925478509e+00 3.550000000000000000e+02
4.249373149974847053e+00 -9.026516541242296299e+00 3.550000000000000000e+02
2.841627134623919915e+00 -9.161613381559114089e+00 3.550000000000000000e+02
1.433881119272993665e+00 -9.296710221875933655e+00 3.550000000000000000e+02
2.613510392206652710e-02 -9.431807062192751445e+00 3.550000000000000000e+02
-1.381610911428860611e+00 -9.566903902509569235e+00 3.550000000000000000e+02
-2.789356926779787749e+00 -9.702000742826388802e+00 3.550000000000000000e+02
9.880357211378555604e+00 -8.486129179975021586e+00 3.560000000000000000e+02
8.472611196027628466e+00 -8.621226020291841152e+00 3.560000000000000000e+02
7.064865180676701328e+00 -8.756322860608658942e+00 3.560000000000000000e+02
5.657119165325774190e+00 -8.891419700925478509e+00 3.560000000000000000e+02
4.249373149974847053e+00 -9.026516541242296299e+00 3.560000000000000000e+02
2.841627134623919915e+00 -9.161613381559114089e+00 3.560000000000000000e+02
1.433881119272993665e+00 -9.296710221875933655e+00 3.560000000000000000e+02
2.613510392206652710e-02 -9.431807062192751445e+00 3.560000000000000000e+02
-1.381610911428860611e+00 -9.566903902509569235e+00 3.560000000000000000e+02
-2.789356926779787749e+00 -9.702000742826388802e+00 3.560000000000000000e+02
9.880357211378555604e+00 -8.486129179975021586e+00 3.570000000000000000e+02
8.472611196027628466e+00 -8.621226020291841152e+00 3.570000000000000000e+02
7.064865180676701328e+00 -8.756322860608658942e+00 3.570000000000000000e+02
5.657119165325774190e+00 -8.891419700925478509e+00 3.570000000000000000e+02
4.249373149974847053e+00 -9.026516541242296299e+00 3.570000000000000000e+02
2.841627134623919915e+00 -9.161613381559114089e+00 3.570000000000000000e+02
1.433881119272993665e+00 -9.296710221875933655e+00 3.570000000000000000e+02
2.613510392206652710e-02 -9.431807062192751445e+00 3.570000000000000000e+02
-1.381610911428860611e+00 -9.566903902509569235e+00 3.570000000000000000e+02
-2.789356926779787749e+00 -9.702000742826388802e+00 3.570000000000000000e+02
9.880357211378555604e+00 -8.486129179975021586e+00 3.580000000000000000e+02
8.472611196027628466e+00 -8.621226020291841152e+00 3.580000000000000000e+02
7.064865180676701328e+00 -8.756322860608658942e+00 3.580000000000000000e+02
5.657119165325774190e+00 -8.891419700925478509e+00 3.580000000000000000e+02
4.249373149974847053e+00 -9.026516541242296299e+00 3.580000000000000000e+02
2.841627134623919915e+00 -9.161613381559114089e+00 3.580000000000000000e+02
1.433881119272993665e+00 -9.296710221875933655e+00 3.580000000000000000e+02
2.613510392206652710e-02 -9.431807062192751445e+00 3.580000000000000000e+02
-1.381610911428860611e+00 -9.566903902509569235e+00 3.580000000000000000e+02
-2.789356926779787749e+00 -9.702000742826388802e+00 3.580000000000000000e+02
9.108935783544682252e+00 -7.849804592457967800e+00 3.590000000000000000e+02
7.701189768193755114e+00 -7.984901432774786478e+00 3.590000000000000000e+02
6.293443752842827976e+00 -8.119998273091605157e+00 3.590000000000000000e+02
4.885697737491900838e+00 -8.255095113408422947e+00 3.590000000000000000e+02
3.477951722140974589e+00 -8.390191953725242513e+00 3.590000000000000000e+02
2.070205706790047895e+00 -8.525288794042060303e+00 3.590000000000000000e+02
6.624596914391203129e-01 -8.660385634358878093e+00 3.590000000000000000e+02
-7.452863239118059369e-01 -8.795482474675697659e+00 3.590000000000000000e+02
-2.153032339262733075e+00 -8.930579314992515449e+00 3.590000000000000000e+02
9.108935783544682252e+00 -7.849804592457967800e+00 3.600000000000000000e+02
7.701189768193755114e+00 -7.984901432774786478e+00 3.600000000000000000e+02
6.293443752842827976e+00 -8.119998273091605157e+00 3.600000000000000000e+02
4.885697737491900838e+00 -8.255095113408422947e+00 3.600000000000000000e+02
3.477951722140974589e+00 -8.390191953725242513e+00 3.600000000000000000e+02
2.070205706790047895e+00 -8.525288794042060303e+00 3.600000000000000000e+02
6.624596914391203129e-01 -8.660385634358878093e+00 3.600000000000000000e+02
-7.452863239118059369e-01 -8.795482474675697659e+00 3.600000000000000000e+02
-2.153032339262733075e+00 -8.930579314992515449e+00 3.600000000000000000e+02
9.108935783544682252e+00 -7.849804592457967800e+00 3.610000000000000000e+02
7.701189768193755114e+00 -7.984901432774786478e+00 3.610000000000000000e+02
6.293443752842827976e+00 -8.119998273091605157e+00 3.610000000000000000e+02
4.885697737491900838e+00 -8.255095113408422947e+00 3.610000000000000000e+02
3.477951722140974589e+00 -8.390191953725242513e+00 3.610000000000000000e+02
2.070205706790047895e+00 -8.525288794042060303e+00 3.610000000000000000e+02
6.624596914391203129e-01 -8.660385634358878093e+00 3.610000000000000000e+02
-7.452863239118059369e-01 -8.795482474675697659e+00 3.610000000000000000e+02
-2.153032339262733075e+00 -8.930579314992515449e+00 3.610000000000000000e+02
9.108935783544682252e+00 -7.849804592457967800e+00 3.620000000000000000e+02
7.701189768193755114e+00 -7.984901432774786478e+00 3.620000000000000000e+02
6.293443752842827976e+00 -8.119998273091605157e+00 3.620000000000000000e+02
4.885697737491900838e+00 -8.255095113408422947e+00 3.620000000000000000e+02
3.477951722140974589e+00 -8.390191953725242513e+00 3.620000000000000000e+02
2.070205706790047895e+00 -8.525288794042060303e+00 3.620000000000000000e+02
6.624596914391203129e-01 -8.660385634358878093e+00 3.620000000000000000e+02
-7.452863239118059369e-01 -8.795482474675697659e+00 3.620000000000000000e+02
-2.153032339262733075e+00 -8.930579314992515449e+00 3.620000000000000000e+02
9.108935783544682252e+00 -7.849804592457967800e+00 3.630000000000000000e+02
7.701189768193755114e+00 -7.984901432774786478e+00 3.630000000000000000e+02
6.293443752842827976e+00 -8.119998273091605157e+00 3.630000000000000000e+02
4.885697737491900838e+00 -8.255095113408422947e+00 3.630000000000000000e+02
3.477951722140974589e+00 -8.390191953725242513e+00 3.630000000000000000e+02
2.070205706790047895e+00 -8.525288794042060303e+00 3.630000000000000000e+02
6.624596914391203129e-01 -8.660385634358878093e+00 3.630000000000000000e+02
-7.452863239118059369e-01 -8.795482474675697659e+00 3.630000000000000000e+02
-2.153032339262733075e+00 -8.930579314992515449e+00 3.630000000000000000e+02
9.108935783544682252e+00 -7.849804592457967800e+00 3.640000000000000000e+02
7.701189768193755114e+00 -7.984901432774786478e+00 3.640000000000000000e+02
6.293443752842827976e+00 -8.119998273091605157e+00 3.640000000000000000e+02
4.885697737491900838e+00 -8.255095113408422947e+00 3.640000000000000000e+02
3.477951722140974589e+00 -8.390191953725242513e+00 3.640000000000000000e+02
2.070205706790047895e+00 -8.525288794042060303e+00 3.640000000000000000e+02
6.624596914391203129e-01 -8.660385634358878093e+00 3.640000000000000000e+02
-7.452863239118059369e-01 -8.795482474675697659e+00 3.640000000000000000e+02
-2.153032339262733075e+00 -8.930579314992515449e+00 3.640000000000000000e+02
9.108935783544682252e+00 -7.849804592457967800e+00 3.650000000000000000e+02
7.701189768193755114e+00 -7.984901432774786478e+00 3.650000000000000000e+02
6.293443752842827976e+00 -8.119998273091605157e+00 3.650000000000000000e+02
4.885697737491900838e+00 -8.255095113408422947e+00 3.650000000000000000e+02
3.477951722140974589e+00 -8.390191953725242513e+00 3.650000000000000000e+02
2.070205706790047895e+00 -8.525288794042060303e+00 3.650000000000000000e+02
6.624596914391203129e-01 -8.660385634358878093e+00 3.650000000000000000e+02
-7.452863239118059369e-01 -8.795482474675697659e+00 3.650000000000000000e+02
-2.153032339262733075e+00 -8.930579314992515449e+00 3.650000000000000000e+02
9.108935783544682252e+00 -7.849804592457967800e+00 3.660000000000000000e+02
7.701189768193755114e+00 -7.984901432774786478e+00 3.660000000000000000e+02
6.293443752842827976e+00 -8.119998273091605157e+00 3.660000000000000000e+02
4.885697737491900838e+00 -8.255095113408422947e+00 3.660000000000000000e+02
3.477951722140974589e+00 -8.390191953725242513e+00 3.660000000000000000e+02
2.070205706790047895e+00 -8.525288794042060303e+00 3.660000000000000000e+02
6.624596914391203129e-01 -8.660385634358878093e+00 3.660000000000000000e+02
-7.452863239118059369e-01 -8.795482474675697659e+00 3.660000000000000000e+02
-2.153032339262733075e+00 -8.930579314992515449e+00 3.660000000000000000e+02
9.108935783544682252e+00 -7.849804592457967800e+00 3.670000000000000000e+02
7.701189768193755114e+00 -7.984901432774786478e+00 3.670000000000000000e+02
6.293443752842827976e+00 -8.119998273091605157e+00 3.670000000000000000e+02
4.885697737491900838e+00 -8.255095113408422947e+00 3.670000000000000000e+02
3.477951722140974589e+00 -8.390191953725242513e+00 3.670000000000000000e+02
2.070205706790047895e+00 -8.525288794042060303e+00 3.670000000000000000e+02
6.624596914391203129e-01 -8.660385634358878093e+00 3.670000000000000000e+02
-7.452863239118059369e-01 -8.795482474675697659e+00 3.670000000000000000e+02
-2.153032339262733075e+00 -8.930579314992515449e+00 3.670000000000000000e+02
9.108935783544682252e+00 -7.849804592457967800e+00 3.680000000000000000e+02
7.701189768193755114e+00 -7.984901432774786478e+00 3.680000000000000000e+02
6.293443752842827976e+00 -8.119998273091605157e+00 3.680000000000000000e+02
4.885697737491900838e+00 -8.255095113408422947e+00 3.680000000000000000e+02
3.477951722140974589e+00 -8.390191953725242513e+00 3.680000000000000000e+02
2.070205706790047895e+00 -8.525288794042060303e+00 3.680000000000000000e+02
6.624596914391203129e-01 -8.660385634358878093e+00 3.680000000000000000e+02
-7.452863239118059369e-01 -8.795482474675697659e+00 3.680000000000000000e+02
-2.153032339262733075e+00 -8.930579314992515449e+00 3.680000000000000000e+02
9.108935783544682252e+00 -7.849804592457967800e+00 3.690000000000000000e+02
7.701189768193755114e+00 -7.984901432774786478e+00 3.690000000000000000e+02
6.293443752842827976e+00 -8.119998273091605157e+00 3.690000000000000000e+02
4.885697737491900838e+00 -8.255095113408422947e+00 3.690000000000000000e+02
3.477951722140974589e+00 -8.390191953725242513e+00 3.690000000000000000e+02
2.070205706790047895e+00 -8.525288794042060303e+00 3.690000000000000000e+02
6.624596914391203129e-01 -8.660385634358878093e+00 3.690000000000000000e+02
-7.452863239118059369e-01 -8.795482474675697659e+00 3.690000000000000000e+02
-2.153032339262733075e+00 -8.930579314992515449e+00 3.690000000000000000e+02
9.108935783544682252e+00 -7.849804592457967800e+00 3.700000000000000000e+02
7.701189768193755114e+00 -7.984901432774786478e+00 3.700000000000000000e+02
6.293443752842827976e+00 -8.119998273091605157e+00 3.700000000000000000e+02
4.885697737491900838e+00 -8.255095113408422947e+00 3.700000000000000000e+02
3.477951722140974589e+00 -8.390191953725242513e+00 3.700000000000000000e+02
2.070205706790047895e+00 -8.525288794042060303e+00 3.700000000000000000e+02
6.624596914391203129e-01 -8.660385634358878093e+00 3.700000000000000000e+02
-7.452863239118059369e-01 -8.795482474675697659e+00 3.700000000000000000e+02
-2.153032339262733075e+00 -8.930579314992515449e+00 3.700000000000000000e+02
9.108935783544682252e+00 -7.849804592457967800e+00 3.710000000000000000e+02
7.701189768193755114e+00 -7.984901432774786478e+00 3.710000000000000000e+02
6.293443752842827976e+00 -8.119998273091605157e+00 3.710000000000000000e+02
4.885697737491900838e+00 -8.255095113408422947e+00 3.710000000000000000e+02
3.477951722140974589e+00 -8.390191953725242513e+00 3.710000000000000000e+02
2.070205706790047895e+00 -8.525288794042060303e+00 3.710000000000000000e+02
6.624596914391203129e-01 -8.660385634358878093e+00 3.710000000000000000e+02
-7.452863239118059369e-01 -8.795482474675697659e+00 3.710000000000000000e+02
-2.153032339262733075e+00 -8.930579314992515449e+00 3.710000000000000000e+02
9.108935783544682252e+00 -7.849804592457967800e+00 3.720000000000000000e+02
7.701189768193755114e+00 -7.984901432774786478e+00 3.720000000000000000e+02
6.293443752842827976e+00 -8.119998273091605157e+00 3.720000000000000000e+02
4.885697737491900838e+00 -8.255095113408422947e+00 3.720000000000000000e+02
3.477951722140974589e+00 -8.390191953725242513e+00 3.720000000000000000e+02
2.070205706790047895e+00 -8.525288794042060303e+00 3.720000000000000000e+02
6.624596914391203129e-01 -8.660385634358878093e+00 3.720000000000000000e+02
-7.452863239118059369e-01 -8.795482474675697659e+00 3.720000000000000000e+02
-2.153032339262733075e+00 -8.930579314992515449e+00 3.720000000000000000e+02
9.108935783544682252e+00 -7.849804592457967800e+00 3.730000000000000000e+02
7.701189768193755114e+00 -7.984901432774786478e+00 3.730000000000000000e+02
6.293443752842827976e+00 -8.119998273091605157e+00 3.730000000000000000e+02
4.885697737491900838e+00 -8.255095113408422947e+00 3.730000000000000000e+02
3.477951722140974589e+00 -8.390191953725242513e+00 3.730000000000000000e+02
2.070205706790047895e+00 -8.525288794042060303e+00 3.730000000000000000e+02
6.624596914391203129e-01 -8.660385634358878093e+00 3.730000000000000000e+02
-7.452863239118059369e-01 -8.795482474675697659e+00 3.730000000000000000e+02
-2.153032339262733075e+00 -8.930579314992515449e+00 3.730000000000000000e+02
9.108935783544682252e+00 -7.849804592457967800e+00 3.740000000000000000e+02
7.701189768193755114e+00 -7.984901432774786478e+00 3.740000000000000000e+02
6.293443752842827976e+00 -8.119998273091605157e+00 3.740000000000000000e+02
4.885697737491900838e+00 -8.255095113408422947e+00 3.740000000000000000e+02
3.477951722140974589e+00 -8.390191953725242513e+00 3.740000000000000000e+02
2.070205706790047895e+00 -8.525288794042060303e+00 3.740000000000000000e+02
6.624596914391203129e-01 -8.660385634358878093e+00 3.740000000000000000e+02
-7.452863239118059369e-01 -8.795482474675697659e+00 3.740000000000000000e+02
-2.153032339262733075e+00 -8.930579314992515449e+00 3.740000000000000000e+02
9.108935783544682252e+00 -7.849804592457967800e+00 3.750000000000000000e+02
7.701189768193755114e+00 -7.984901432774786478e+00 3.750000000000000000e+02
6.293443752842827976e+00 -8.119998273091605157e+00 3.750000000000000000e+02
4.885697737491900838e+00 -8.255095113408422947e+00 3.750000000000000000e+02
3.477951722140974589e+00 -8.390191953725242513e+00 3.750000000000000000e+02
2.070205706790047895e+00 -8.525288794042060303e+00 3.750000000000000000e+02
6.624596914391203129e-01 -8.660385634358878093e+00 3.750000000000000000e+02
-7.452863239118059369e-01 -8.795482474675697659e+00 3.750000000000000000e+02
-2.153032339262733075e+00 -8.930579314992515449e+00 3.750000000000000000e+02
9.108935783544682252e+00 -7.849804592457967800e+00 3.760000000000000000e+02
7.701189768193755114e+00 -7.984901432774786478e+00 3.760000000000000000e+02
6.293443752842827976e+00 -8.119998273091605157e+00 3.760000000000000000e+02
4.885697737491900838e+00 -8.255095113408422947e+00 3.760000000000000000e+02
3.477951722140974589e+00 -8.390191953725242513e+00 3.760000000000000000e+02
2.070205706790047895e+00 -8.525288794042060303e+00 3.760000000000000000e+02
6.624596914391203129e-01 -8.660385634358878093e+00 3.760000000000000000e+02
-7.452863239118059369e-01 -8.795482474675697659e+00 3.760000000000000000e+02
-2.153032339262733075e+00 -8.930579314992515449e+00 3.760000000000000000e+02
9.108935783544682252e+00 -7.849804592457967800e+00 3.770000000000000000e+02
7.701189768193755114e+00 -7.984901432774786478e+00 3.770000000000000000e+02
6.293443752842827976e+00 -8.119998273091605157e+00 3.770000000000000000e+02
4.885697737491900838e+00 -8.255095113408422947e+00 3.770000000000000000e+02
3.477951722140974589e+00 -8.390191953725242513e+00 3.770000000000000000e+02
2.070205706790047895e+00 -8.525288794042060303e+00 3.770000000000000000e+02
6.624596914391203129e-01 -8.660385634358878093e+00 3.770000000000000000e+02
-7.452863239118059369e-01 -8.795482474675697659e+00 3.770000000000000000e+02
-2.153032339262733075e+00 -8.930579314992515449e+00 3.770000000000000000e+02
9.108935783544682252e+00 -7.849804592457967800e+00 3.780000000000000000e+02
7.701189768193755114e+00 -7.984901432774786478e+00 3.780000000000000000e+02
6.293443752842827976e+00 -8.119998273091605157e+00 3.780000000000000000e+02
4.885697737491900838e+00 -8.255095113408422947e+00 3.780000000000000000e+02
3.477951722140974589e+00 -8.390191953725242513e+00 3.780000000000000000e+02
2.070205706790047895e+00 -8.525288794042060303e+00 3.780000000000000000e+02
6.624596914391203129e-01 -8.660385634358878093e+00 3.780000000000000000e+02
-7.452863239118059369e-01 -8.795482474675697659e+00 3.780000000000000000e+02
-2.153032339262733075e+00 -8.930579314992515449e+00 3.780000000000000000e+02
9.108935783544682252e+00 -7.849804592457967800e+00 3.790000000000000000e+02
7.701189768193755114e+00 -7.984901432774786478e+00 3.790000000000000000e+02
6.293443752842827976e+00 -8.119998273091605157e+00 3.790000000000000000e+02
4.885697737491900838e+00 -8.255095113408422947e+00 3.790000000000000000e+02
3.477951722140974589e+00 -8.390191953725242513e+00 3.790000000000000000e+02
2.070205706790047895e+00 -8.525288794042060303e+00 3.790000000000000000e+02
6.624596914391203129e-01 -8.660385634358878093e+00 3.790000000000000000e+02
-7.452863239118059369e-01 -8.795482474675697659e+00 3.790000000000000000e+02
-2.153032339262733075e+00 -8.930579314992515449e+00 3.790000000000000000e+02
9.108935783544682252e+00 -7.849804592457967800e+00 3.800000000000000000e+02
7.701189768193755114e+00 -7.984901432774786478e+00 3.800000000000000000e+02
6.293443752842827976e+00 -8.119998273091605157e+00 3.800000000000000000e+02
4.885697737491900838e+00 -8.255095113408422947e+00 3.800000000000000000e+02
3.477951722140974589e+00 -8.390191953725242513e+00 3.800000000000000000e+02
2.070205706790047895e+00 -8.525288794042060303e+00 3.800000000000000000e+02
6.624596914391203129e-01 -8.660385634358878093e+00 3.800000000000000000e+02
-7.452863239118059369e-01 -8.795482474675697659e+00 3.800000000000000000e+02
-2.153032339262733075e+00 -8.930579314992515449e+00 3.800000000000000000e+02
-3.560778354613659324e+00 -9.065676155309333240e+00 3.800000000000000000e+02
9.108935783544682252e+00 -7.849804592457967800e+00 3.810000000000000000e+02
7.701189768193755114e+00 -7.984901432774786478e+00 3.810000000000000000e+02
6.293443752842827976e+00 -8.119998273091605157e+00 3.810000000000000000e+02
4.885697737491900838e+00 -8.255095113408422947e+00 3.810000000000000000e+02
3.477951722140974589e+00 -8.390191953725242513e+00 3.810000000000000000e+02
2.070205706790047895e+00 -8.525288794042060303e+00 3.810000000000000000e+02
6.624596914391203129e-01 -8.660385634358878093e+00 3.810000000000000000e+02
-7.452863239118059369e-01 -8.795482474675697659e+00 3.810000000000000000e+02
-2.153032339262733075e+00 -8.930579314992515449e+00 3.810000000000000000e+02
9.108935783544682252e+00 -7.849804592457967800e+00 3.820000000000000000e+02
7.701189768193755114e+00 -7.984901432774786478e+00 3.820000000000000000e+02
6.293443752842827976e+00 -8.119998273091605157e+00 3.820000000000000000e+02
4.885697737491900838e+00 -8.255095113408422947e+00 3.820000000000000000e+02
3.477951722140974589e+00 -8.390191953725242513e+00 3.820000000000000000e+02
2.070205706790047895e+00 -8.525288794042060303e+00 3.820000000000000000e+02
6.624596914391203129e-01 -8.660385634358878093e+00 3.820000000000000000e+02
-7.452863239118059369e-01 -8.795482474675697659e+00 3.820000000000000000e+02
-2.153032339262733075e+00 -8.930579314992515449e+00 3.820000000000000000e+02
9.880357211378555604e+00 -8.486129179975021586e+00 3.830000000000000000e+02
8.472611196027628466e+00 -8.621226020291841152e+00 3.830000000000000000e+02
7.064865180676701328e+00 -8.756322860608658942e+00 3.830000000000000000e+02
5.657119165325774190e+00 -8.891419700925478509e+00 3.830000000000000000e+02
4.249373149974847053e+00 -9.026516541242296299e+00 3.830000000000000000e+02
2.841627134623919915e+00 -9.161613381559114089e+00 3.830000000000000000e+02
1.433881119272993665e+00 -9.296710221875933655e+00 3.830000000000000000e+02
2.613510392206652710e-02 -9.431807062192751445e+00 3.830000000000000000e+02
-1.381610911428860611e+00 -9.566903902509569235e+00 3.830000000000000000e+02
-2.789356926779787749e+00 -9.702000742826388802e+00 3.830000000000000000e+02
9.880357211378555604e+00 -8.486129179975021586e+00 3.840000000000000000e+02
8.472611196027628466e+00 -8.621226020291841152e+00 3.840000000000000000e+02
7.064865180676701328e+00 -8.756322860608658942e+00 3.840000000000000000e+02
5.657119165325774190e+00 -8.891419700925478509e+00 3.840000000000000000e+02
4.249373149974847053e+00 -9.026516541242296299e+00 3.840000000000000000e+02
2.841627134623919915e+00 -9.161613381559114089e+00 3.840000000000000000e+02
1.433881119272993665e+00 -9.296710221875933655e+00 3.840000000000000000e+02
2.613510392206652710e-02 -9.431807062192751445e+00 3.840000000000000000e+02
-1.381610911428860611e+00 -9.566903902509569235e+00 3.840000000000000000e+02
-2.789356926779787749e+00 -9.702000742826388802e+00 3.840000000000000000e+02
9.880357211378555604e+00 -8.486129179975021586e+00 3.850000000000000000e+02
8.472611196027628466e+00 -8.621226020291841152e+00 3.850000000000000000e+02
7.064865180676701328e+00 -8.756322860608658942e+00 3.850000000000000000e+02
5.657119165325774190e+00 -8.891419700925478509e+00 3.850000000000000000e+02
4.249373149974847053e+00 -9.026516541242296299e+00 3.850000000000000000e+02
2.841627134623919915e+00 -9.161613381559114089e+00 3.850000000000000000e+02
1.433881119272993665e+00 -9.296710221875933655e+00 3.850000000000000000e+02
2.613510392206652710e-02 -9.431807062192751445e+00 3.850000000000000000e+02
-1.381610911428860611e+00 -9.566903902509569235e+00 3.850000000000000000e+02
-2.789356926779787749e+00 -9.702000742826388802e+00 3.850000000000000000e+02
9.108935783544682252e+00 -7.849804592457967800e+00 3.860000000000000000e+02
7.701189768193755114e+00 -7.984901432774786478e+00 3.860000000000000000e+02
6.293443752842827976e+00 -8.119998273091605157e+00 3.860000000000000000e+02
4.885697737491900838e+00 -8.255095113408422947e+00 3.860000000000000000e+02
3.477951722140974589e+00 -8.390191953725242513e+00 3.860000000000000000e+02
2.070205706790047895e+00 -8.525288794042060303e+00 3.860000000000000000e+02
6.624596914391203129e-01 -8.660385634358878093e+00 3.860000000000000000e+02
-7.452863239118059369e-01 -8.795482474675697659e+00 3.860000000000000000e+02
-2.153032339262733075e+00 -8.930579314992515449e+00 3.860000000000000000e+02
9.108935783544682252e+00 -7.849804592457967800e+00 3.870000000000000000e+02
7.701189768193755114e+00 -7.984901432774786478e+00 3.870000000000000000e+02
6.293443752842827976e+00 -8.119998273091605157e+00 3.870000000000000000e+02
4.885697737491900838e+00 -8.255095113408422947e+00 3.870000000000000000e+02
3.477951722140974589e+00 -8.390191953725242513e+00 3.870000000000000000e+02
2.070205706790047895e+00 -8.525288794042060303e+00 3.870000000000000000e+02
6.624596914391203129e-01 -8.660385634358878093e+00 3.870000000000000000e+02
-7.452863239118059369e-01 -8.795482474675697659e+00 3.870000000000000000e+02
-2.153032339262733075e+00 -8.930579314992515449e+00 3.870000000000000000e+02
9.108935783544682252e+00 -7.849804592457967800e+00 3.880000000000000000e+02
7.701189768193755114e+00 -7.984901432774786478e+00 3.880000000000000000e+02
6.293443752842827976e+00 -8.119998273091605157e+00 3.880000000000000000e+02
4.885697737491900838e+00 -8.255095113408422947e+00 3.880000000000000000e+02
3.477951722140974589e+00 -8.390191953725242513e+00 3.880000000000000000e+02
2.070205706790047895e+00 -8.525288794042060303e+00 3.880000000000000000e+02
6.624596914391203129e-01 -8.660385634358878093e+00 3.880000000000000000e+02
-7.452863239118059369e-01 -8.795482474675697659e+00 3.880000000000000000e+02
9.108935783544682252e+00 -7.849804592457967800e+00 3.890000000000000000e+02
7.701189768193755114e+00 -7.984901432774786478e+00 3.890000000000000000e+02
6.293443752842827976e+00 -8.119998273091605157e+00 3.890000000000000000e+02
4.885697737491900838e+00 -8.255095113408422947e+00 3.890000000000000000e+02
3.477951722140974589e+00 -8.390191953725242513e+00 3.890000000000000000e+02
2.070205706790047895e+00 -8.525288794042060303e+00 3.890000000000000000e+02
6.624596914391203129e-01 -8.660385634358878093e+00 3.890000000000000000e+02
-7.452863239118059369e-01 -8.795482474675697659e+00 3.890000000000000000e+02
9.880357211378555604e+00 -8.486129179975021586e+00 3.900000000000000000e+02
8.472611196027628466e+00 -8.621226020291841152e+00 3.900000000000000000e+02
7.064865180676701328e+00 -8.756322860608658942e+00 3.900000000000000000e+02
5.657119165325774190e+00 -8.891419700925478509e+00 3.900000000000000000e+02
4.249373149974847053e+00 -9.026516541242296299e+00 3.900000000000000000e+02
2.841627134623919915e+00 -9.161613381559114089e+00 3.900000000000000000e+02
1.433881119272993665e+00 -9.296710221875933655e+00 3.900000000000000000e+02
2.613510392206652710e-02 -9.431807062192751445e+00 3.900000000000000000e+02
-1.381610911428860611e+00 -9.566903902509569235e+00 3.900000000000000000e+02
9.108935783544682252e+00 -7.849804592457967800e+00 3.910000000000000000e+02
7.701189768193755114e+00 -7.984901432774786478e+00 3.910000000000000000e+02
6.293443752842827976e+00 -8.119998273091605157e+00 3.910000000000000000e+02
4.885697737491900838e+00 -8.255095113408422947e+00 3.910000000000000000e+02
3.477951722140974589e+00 -8.390191953725242513e+00 3.910000000000000000e+02
2.070205706790047895e+00 -8.525288794042060303e+00 3.910000000000000000e+02
6.624596914391203129e-01 -8.660385634358878093e+00 3.910000000000000000e+02
-7.452863239118059369e-01 -8.795482474675697659e+00 3.910000000000000000e+02
9.108935783544682252e+00 -7.849804592457967800e+00 3.920000000000000000e+02
7.701189768193755114e+00 -7.984901432774786478e+00 3.920000000000000000e+02
6.293443752842827976e+00 -8.119998273091605157e+00 3.920000000000000000e+02
4.885697737491900838e+00 -8.255095113408422947e+00 3.920000000000000000e+02
3.477951722140974589e+00 -8.390191953725242513e+00 3.920000000000000000e+02
2.070205706790047895e+00 -8.525288794042060303e+00 3.920000000000000000e+02
6.624596914391203129e-01 -8.660385634358878093e+00 3.920000000000000000e+02
-7.452863239118059369e-01 -8.795482474675697659e+00 3.920000000000000000e+02
9.108935783544682252e+00 -7.849804592457967800e+00 3.930000000000000000e+02
7.701189768193755114e+00 -7.984901432774786478e+00 3.930000000000000000e+02
6.293443752842827976e+00 -8.119998273091605157e+00 3.930000000000000000e+02
4.885697737491900838e+00 -8.255095113408422947e+00 3.930000000000000000e+02
3.477951722140974589e+00 -8.390191953725242513e+00 3.930000000000000000e+02
2.070205706790047895e+00 -8.525288794042060303e+00 3.930000000000000000e+02
6.624596914391203129e-01 -8.660385634358878093e+00 3.930000000000000000e+02
-7.452863239118059369e-01 -8.795482474675697659e+00 3.930000000000000000e+02
9.108935783544682252e+00 -7.849804592457967800e+00 3.940000000000000000e+02
7.701189768193755114e+00 -7.984901432774786478e+00 3.940000000000000000e+02
6.293443752842827976e+00 -8.119998273091605157e+00 3.940000000000000000e+02
4.885697737491900838e+00 -8.255095113408422947e+00 3.940000000000000000e+02
3.477951722140974589e+00 -8.390191953725242513e+00 3.940000000000000000e+02
2.070205706790047895e+00 -8.525288794042060303e+00 3.940000000000000000e+02
6.624596914391203129e-01 -8.660385634358878093e+00 3.940000000000000000e+02
-7.452863239118059369e-01 -8.795482474675697659e+00 3.940000000000000000e+02
-2.153032339262733075e+00 -8.930579314992515449e+00 3.940000000000000000e+02
9.108935783544682252e+00 -7.849804592457967800e+00 3.950000000000000000e+02
7.701189768193755114e+00 -7.984901432774786478e+00 3.950000000000000000e+02
6.293443752842827976e+00 -8.119998273091605157e+00 3.950000000000000000e+02
4.885697737491900838e+00 -8.255095113408422947e+00 3.950000000000000000e+02
3.477951722140974589e+00 -8.390191953725242513e+00 3.950000000000000000e+02
2.070205706790047895e+00 -8.525288794042060303e+00 3.950000000000000000e+02
6.624596914391203129e-01 -8.660385634358878093e+00 3.950000000000000000e+02
-7.452863239118059369e-01 -8.795482474675697659e+00 3.950000000000000000e+02
-2.153032339262733075e+00 -8.930579314992515449e+00 3.950000000000000000e+02
9.108935783544682252e+00 -7.849804592457967800e+00 3.960000000000000000e+02
7.701189768193755114e+00 -7.984901432774786478e+00 3.960000000000000000e+02
6.293443752842827976e+00 -8.119998273091605157e+00 3.960000000000000000e+02
4.885697737491900838e+00 -8.255095113408422947e+00 3.960000000000000000e+02
3.477951722140974589e+00 -8.390191953725242513e+00 3.960000000000000000e+02
2.070205706790047895e+00 -8.525288794042060303e+00 3.960000000000000000e+02
6.624596914391203129e-01 -8.660385634358878093e+00 3.960000000000000000e+02
-7.452863239118059369e-01 -8.795482474675697659e+00 3.960000000000000000e+02
9.108935783544682252e+00 -7.849804592457967800e+00 3.970000000000000000e+02
7.701189768193755114e+00 -7.984901432774786478e+00 3.970000000000000000e+02
6.293443752842827976e+00 -8.119998273091605157e+00 3.970000000000000000e+02
4.885697737491900838e+00 -8.255095113408422947e+00 3.970000000000000000e+02
3.477951722140974589e+00 -8.390191953725242513e+00 3.970000000000000000e+02
2.070205706790047895e+00 -8.525288794042060303e+00 3.970000000000000000e+02
6.624596914391203129e-01 -8.660385634358878093e+00 3.970000000000000000e+02
-7.452863239118059369e-01 -8.795482474675697659e+00 3.970000000000000000e+02
9.108935783544682252e+00 -7.849804592457967800e+00 3.980000000000000000e+02
7.701189768193755114e+00 -7.984901432774786478e+00 3.980000000000000000e+02
6.293443752842827976e+00 -8.119998273091605157e+00 3.980000000000000000e+02
4.885697737491900838e+00 -8.255095113408422947e+00 3.980000000000000000e+02
3.477951722140974589e+00 -8.390191953725242513e+00 3.980000000000000000e+02
2.070205706790047895e+00 -8.525288794042060303e+00 3.980000000000000000e+02
6.624596914391203129e-01 -8.660385634358878093e+00 3.980000000000000000e+02
-7.452863239118059369e-01 -8.795482474675697659e+00 3.980000000000000000e+02
-2.153032339262733075e+00 -8.930579314992515449e+00 3.980000000000000000e+02
9.108935783544682252e+00 -7.849804592457967800e+00 3.990000000000000000e+02
7.701189768193755114e+00 -7.984901432774786478e+00 3.990000000000000000e+02
6.293443752842827976e+00 -8.119998273091605157e+00 3.990000000000000000e+02
4.885697737491900838e+00 -8.255095113408422947e+00 3.990000000000000000e+02
3.477951722140974589e+00 -8.390191953725242513e+00 3.990000000000000000e+02
2.070205706790047895e+00 -8.525288794042060303e+00 3.990000000000000000e+02
6.624596914391203129e-01 -8.660385634358878093e+00 3.990000000000000000e+02
-7.452863239118059369e-01 -8.795482474675697659e+00 3.990000000000000000e+02
-2.153032339262733075e+00 -8.930579314992515449e+00 3.990000000000000000e+02
9.108935783544682252e+00 -7.849804592457967800e+00 4.000000000000000000e+02
7.701189768193755114e+00 -7.984901432774786478e+00 4.000000000000000000e+02
6.293443752842827976e+00 -8.119998273091605157e+00 4.000000000000000000e+02
4.885697737491900838e+00 -8.255095113408422947e+00 4.000000000000000000e+02
3.477951722140974589e+00 -8.390191953725242513e+00 4.000000000000000000e+02
2.070205706790047895e+00 -8.525288794042060303e+00 4.000000000000000000e+02
6.624596914391203129e-01 -8.660385634358878093e+00 4.000000000000000000e+02
-7.452863239118059369e-01 -8.795482474675697659e+00 4.000000000000000000e+02
-2.153032339262733075e+00 -8.930579314992515449e+00 4.000000000000000000e+02
9.880357211378555604e+00 -8.486129179975021586e+00 4.010000000000000000e+02
8.472611196027628466e+00 -8.621226020291841152e+00 4.010000000000000000e+02
7.064865180676701328e+00 -8.756322860608658942e+00 4.010000000000000000e+02
5.657119165325774190e+00 -8.891419700925478509e+00 4.010000000000000000e+02
4.249373149974847053e+00 -9.026516541242296299e+00 4.010000000000000000e+02
2.841627134623919915e+00 -9.161613381559114089e+00 4.010000000000000000e+02
1.433881119272993665e+00 -9.296710221875933655e+00 4.010000000000000000e+02
2.613510392206652710e-02 -9.431807062192751445e+00 4.010000000000000000e+02
-1.381610911428860611e+00 -9.566903902509569235e+00 4.010000000000000000e+02
-2.789356926779787749e+00 -9.702000742826388802e+00 4.010000000000000000e+02
9.880357211378555604e+00 -8.486129179975021586e+00 4.020000000000000000e+02
8.472611196027628466e+00 -8.621226020291841152e+00 4.020000000000000000e+02
7.064865180676701328e+00 -8.756322860608658942e+00 4.020000000000000000e+02
5.657119165325774190e+00 -8.891419700925478509e+00 4.020000000000000000e+02
4.249373149974847053e+00 -9.026516541242296299e+00 4.020000000000000000e+02
2.841627134623919915e+00 -9.161613381559114089e+00 4.020000000000000000e+02
1.433881119272993665e+00 -9.296710221875933655e+00 4.020000000000000000e+02
2.613510392206652710e-02 -9.431807062192751445e+00 4.020000000000000000e+02
-1.381610911428860611e+00 -9.566903902509569235e+00 4.020000000000000000e+02
-2.789356926779787749e+00 -9.702000742826388802e+00 4.020000000000000000e+02
9.880357211378555604e+00 -8.486129179975021586e+00 4.030000000000000000e+02
8.472611196027628466e+00 -8.621226020291841152e+00 4.030000000000000000e+02
7.064865180676701328e+00 -8.756322860608658942e+00 4.030000000000000000e+02
5.657119165325774190e+00 -8.891419700925478509e+00 4.030000000000000000e+02
4.249373149974847053e+00 -9.026516541242296299e+00 4.030000000000000000e+02
2.841627134623919915e+00 -9.161613381559114089e+00 4.030000000000000000e+02
1.433881119272993665e+00 -9.296710221875933655e+00 4.030000000000000000e+02
2.613510392206652710e-02 -9.431807062192751445e+00 4.030000000000000000e+02
-1.381610911428860611e+00 -9.566903902509569235e+00 4.030000000000000000e+02
-2.789356926779787749e+00 -9.702000742826388802e+00 4.030000000000000000e+02
9.880357211378555604e+00 -8.486129179975021586e+00 4.040000000000000000e+02
8.472611196027628466e+00 -8.621226020291841152e+00 4.040000000000000000e+02
7.064865180676701328e+00 -8.756322860608658942e+00 4.040000000000000000e+02
5.657119165325774190e+00 -8.891419700925478509e+00 4.040000000000000000e+02
4.249373149974847053e+00 -9.026516541242296299e+00 4.040000000000000000e+02
2.841627134623919915e+00 -9.161613381559114089e+00 4.040000000000000000e+02
1.433881119272993665e+00 -9.296710221875933655e+00 4.040000000000000000e+02
2.613510392206652710e-02 -9.431807062192751445e+00 4.040000000000000000e+02
-1.381610911428860611e+00 -9.566903902509569235e+00 4.040000000000000000e+02
-2.789356926779787749e+00 -9.702000742826388802e+00 4.040000000000000000e+02
9.880357211378555604e+00 -8.486129179975021586e+00 4.050000000000000000e+02
8.472611196027628466e+00 -8.621226020291841152e+00 4.050000000000000000e+02
7.064865180676701328e+00 -8.756322860608658942e+00 4.050000000000000000e+02
5.657119165325774190e+00 -8.891419700925478509e+00 4.050000000000000000e+02
4.249373149974847053e+00 -9.026516541242296299e+00 4.050000000000000000e+02
2.841627134623919915e+00 -9.161613381559114089e+00 4.050000000000000000e+02
1.433881119272993665e+00 -9.296710221875933655e+00 4.050000000000000000e+02
2.613510392206652710e-02 -9.431807062192751445e+00 4.050000000000000000e+02
-1.381610911428860611e+00 -9.566903902509569235e+00 4.050000000000000000e+02
9.880357211378555604e+00 -8.486129179975021586e+00 4.060000000000000000e+02
8.472611196027628466e+00 -8.621226020291841152e+00 4.060000000000000000e+02
7.064865180676701328e+00 -8.756322860608658942e+00 4.060000000000000000e+02
5.657119165325774190e+00 -8.891419700925478509e+00 4.060000000000000000e+02
4.249373149974847053e+00 -9.026516541242296299e+00 4.060000000000000000e+02
2.841627134623919915e+00 -9.161613381559114089e+00 4.060000000000000000e+02
1.433881119272993665e+00 -9.296710221875933655e+00 4.060000000000000000e+02
2.613510392206652710e-02 -9.431807062192751445e+00 4.060000000000000000e+02
-1.381610911428860611e+00 -9.566903902509569235e+00 4.060000000000000000e+02
9.880357211378555604e+00 -8.486129179975021586e+00 4.070000000000000000e+02
8.472611196027628466e+00 -8.621226020291841152e+00 4.070000000000000000e+02
7.064865180676701328e+00 -8.756322860608658942e+00 4.070000000000000000e+02
5.657119165325774190e+00 -8.891419700925478509e+00 4.070000000000000000e+02
4.249373149974847053e+00 -9.026516541242296299e+00 4.070000000000000000e+02
2.841627134623919915e+00 -9.161613381559114089e+00 4.070000000000000000e+02
1.433881119272993665e+00 -9.296710221875933655e+00 4.070000000000000000e+02
2.613510392206652710e-02 -9.431807062192751445e+00 4.070000000000000000e+02
-1.381610911428860611e+00 -9.566903902509569235e+00 4.070000000000000000e+02
9.880357211378555604e+00 -8.486129179975021586e+00 4.080000000000000000e+02
8.472611196027628466e+00 -8.621226020291841152e+00 4.080000000000000000e+02
7.064865180676701328e+00 -8.756322860608658942e+00 4.080000000000000000e+02
5.657119165325774190e+00 -8.891419700925478509e+00 4.080000000000000000e+02
4.249373149974847053e+00 -9.026516541242296299e+00 4.080000000000000000e+02
2.841627134623919915e+00 -9.161613381559114089e+00 4.080000000000000000e+02
1.433881119272993665e+00 -9.296710221875933655e+00 4.080000000000000000e+02
2.613510392206652710e-02 -9.431807062192751445e+00 4.080000000000000000e+02
-1.381610911428860611e+00 -9.566903902509569235e+00 4.080000000000000000e+02
1.065177863921242718e+01 -9.122453767492077148e+00 4.090000000000000000e+02
9.244032623861500042e+00 -9.257550607808894938e+00 4.090000000000000000e+02
7.836286608510573792e+00 -9.392647448125712728e+00 4.090000000000000000e+02
6.428540593159646654e+00 -9.527744288442532294e+00 4.090000000000000000e+02
5.020794577808719517e+00 -9.662841128759350084e+00 4.090000000000000000e+02
3.613048562457792823e+00 -9.797937969076169651e+00 4.090000000000000000e+02
2.205302547106866129e+00 -9.933034809392987441e+00 4.090000000000000000e+02
7.975565317559389911e-01 -1.006813164970980523e+01 4.090000000000000000e+02
-6.101894835949872586e-01 -1.020322849002662480e+01 4.090000000000000000e+02
-2.017935498945914397e+00 -1.033832533034344259e+01 4.090000000000000000e+02
1.065177863921242718e+01 -9.122453767492077148e+00 4.100000000000000000e+02
9.244032623861500042e+00 -9.257550607808894938e+00 4.100000000000000000e+02
7.836286608510573792e+00 -9.392647448125712728e+00 4.100000000000000000e+02
6.428540593159646654e+00 -9.527744288442532294e+00 4.100000000000000000e+02
5.020794577808719517e+00 -9.662841128759350084e+00 4.100000000000000000e+02
3.613048562457792823e+00 -9.797937969076169651e+00 4.100000000000000000e+02
2.205302547106866129e+00 -9.933034809392987441e+00 4.100000000000000000e+02
7.975565317559389911e-01 -1.006813164970980523e+01 4.100000000000000000e+02
-6.101894835949872586e-01 -1.020322849002662480e+01 4.100000000000000000e+02
-2.017935498945914397e+00 -1.033832533034344259e+01 4.100000000000000000e+02
1.065177863921242718e+01 -9.122453767492077148e+00 4.110000000000000000e+02
9.244032623861500042e+00 -9.257550607808894938e+00 4.110000000000000000e+02
7.836286608510573792e+00 -9.392647448125712728e+00 4.110000000000000000e+02
6.428540593159646654e+00 -9.527744288442532294e+00 4.110000000000000000e+02
5.020794577808719517e+00 -9.662841128759350084e+00 4.110000000000000000e+02
3.613048562457792823e+00 -9.797937969076169651e+00 4.110000000000000000e+02
2.205302547106866129e+00 -9.933034809392987441e+00 4.110000000000000000e+02
7.975565317559389911e-01 -1.006813164970980523e+01 4.110000000000000000e+02
-6.101894835949872586e-01 -1.020322849002662480e+01 4.110000000000000000e+02
-2.017935498945914397e+00 -1.033832533034344259e+01 4.110000000000000000e+02
1.065177863921242718e+01 -9.122453767492077148e+00 4.120000000000000000e+02
9.244032623861500042e+00 -9.257550607808894938e+00 4.120000000000000000e+02
7.836286608510573792e+00 -9.392647448125712728e+00 4.120000000000000000e+02
6.428540593159646654e+00 -9.527744288442532294e+00 4.120000000000000000e+02
5.020794577808719517e+00 -9.662841128759350084e+00 4.120000000000000000e+02
3.613048562457792823e+00 -9.797937969076169651e+00 4.120000000000000000e+02
2.205302547106866129e+00 -9.933034809392987441e+00 4.120000000000000000e+02
7.975565317559389911e-01 -1.006813164970980523e+01 4.120000000000000000e+02
-6.101894835949872586e-01 -1.020322849002662480e+01 4.120000000000000000e+02
-2.017935498945914397e+00 -1.033832533034344259e+01 4.120000000000000000e+02
1.065177863921242718e+01 -9.122453767492077148e+00 4.130000000000000000e+02
9.244032623861500042e+00 -9.257550607808894938e+00 4.130000000000000000e+02
7.836286608510573792e+00 -9.392647448125712728e+00 4.130000000000000000e+02
6.428540593159646654e+00 -9.527744288442532294e+00 4.130000000000000000e+02
5.020794577808719517e+00 -9.662841128759350084e+00 4.130000000000000000e+02
3.613048562457792823e+00 -9.797937969076169651e+00 4.130000000000000000e+02
2.205302547106866129e+00 -9.933034809392987441e+00 4.130000000000000000e+02
7.975565317559389911e-01 -1.006813164970980523e+01 4.130000000000000000e+02
-6.101894835949872586e-01 -1.020322849002662480e+01 4.130000000000000000e+02
-2.017935498945914397e+00 -1.033832533034344259e+01 4.130000000000000000e+02
1.065177863921242718e+01 -9.122453767492077148e+00 4.140000000000000000e+02
9.244032623861500042e+00 -9.257550607808894938e+00 4.140000000000000000e+02
7.836286608510573792e+00 -9.392647448125712728e+00 4.140000000000000000e+02
6.428540593159646654e+00 -9.527744288442532294e+00 4.140000000000000000e+02
5.020794577808719517e+00 -9.662841128759350084e+00 4.140000000000000000e+02
3.613048562457792823e+00 -9.797937969076169651e+00 4.140000000000000000e+02
2.205302547106866129e+00 -9.933034809392987441e+00 4.140000000000000000e+02
7.975565317559389911e-01 -1.006813164970980523e+01 4.140000000000000000e+02
-6.101894835949872586e-01 -1.020322849002662480e+01 4.140000000000000000e+02
-2.017935498945914397e+00 -1.033832533034344259e+01 4.140000000000000000e+02
1.065177863921242718e+01 -9.122453767492077148e+00 4.150000000000000000e+02
9.244032623861500042e+00 -9.257550607808894938e+00 4.150000000000000000e+02
7.836286608510573792e+00 -9.392647448125712728e+00 4.150000000000000000e+02
6.428540593159646654e+00 -9.527744288442532294e+00 4.150000000000000000e+02
5.020794577808719517e+00 -9.662841128759350084e+00 4.150000000000000000e+02
3.613048562457792823e+00 -9.797937969076169651e+00 4.150000000000000000e+02
2.205302547106866129e+00 -9.933034809392987441e+00 4.150000000000000000e+02
7.975565317559389911e-01 -1.006813164970980523e+01 4.150000000000000000e+02
-6.101894835949872586e-01 -1.020322849002662480e+01 4.150000000000000000e+02
-2.017935498945914397e+00 -1.033832533034344259e+01 4.150000000000000000e+02
1.065177863921242718e+01 -9.122453767492077148e+00 4.160000000000000000e+02
9.244032623861500042e+00 -9.257550607808894938e+00 4.160000000000000000e+02
7.836286608510573792e+00 -9.392647448125712728e+00 4.160000000000000000e+02
6.428540593159646654e+00 -9.527744288442532294e+00 4.160000000000000000e+02
5.020794577808719517e+00 -9.662841128759350084e+00 4.160000000000000000e+02
3.613048562457792823e+00 -9.797937969076169651e+00 4.160000000000000000e+02
2.205302547106866129e+00 -9.933034809392987441e+00 4.160000000000000000e+02
7.975565317559389911e-01 -1.006813164970980523e+01 4.160000000000000000e+02
-6.101894835949872586e-01 -1.020322849002662480e+01 4.160000000000000000e+02
-2.017935498945914397e+00 -1.033832533034344259e+01 4.160000000000000000e+02
1.065177863921242718e+01 -9.122453767492077148e+00 4.170000000000000000e+02
9.244032623861500042e+00 -9.257550607808894938e+00 4.170000000000000000e+02
7.836286608510573792e+00 -9.392647448125712728e+00 4.170000000000000000e+02
6.428540593159646654e+00 -9.527744288442532294e+00 4.170000000000000000e+02
5.020794577808719517e+00 -9.662841128759350084e+00 4.170000000000000000e+02
3.613048562457792823e+00 -9.797937969076169651e+00 4.170000000000000000e+02
2.205302547106866129e+00 -9.933034809392987441e+00 4.170000000000000000e+02
7.975565317559389911e-01 -1.006813164970980523e+01 4.170000000000000000e+02
-6.101894835949872586e-01 -1.020322849002662480e+01 4.170000000000000000e+02
-2.017935498945914397e+00 -1.033832533034344259e+01 4.170000000000000000e+02
-3.425681514296841534e+00 -1.047342217066026038e+01 4.170000000000000000e+02
1.065177863921242718e+01 -9.122453767492077148e+00 4.180000000000000000e+02
9.244032623861500042e+00 -9.257550607808894938e+00 4.180000000000000000e+02
7.836286608510573792e+00 -9.392647448125712728e+00 4.180000000000000000e+02
6.428540593159646654e+00 -9.527744288442532294e+00 4.180000000000000000e+02
5.020794577808719517e+00 -9.662841128759350084e+00 4.180000000000000000e+02
3.613048562457792823e+00 -9.797937969076169651e+00 4.180000000000000000e+02
2.205302547106866129e+00 -9.933034809392987441e+00 4.180000000000000000e+02
7.975565317559389911e-01 -1.006813164970980523e+01 4.180000000000000000e+02
-6.101894835949872586e-01 -1.020322849002662480e+01 4.180000000000000000e+02
-2.017935498945914397e+00 -1.033832533034344259e+01 4.180000000000000000e+02
1.065177863921242718e+01 -9.122453767492077148e+00 4.190000000000000000e+02
9.244032623861500042e+00 -9.257550607808894938e+00 4.190000000000000000e+02
7.836286608510573792e+00 -9.392647448125712728e+00 4.190000000000000000e+02
6.428540593159646654e+00 -9.527744288442532294e+00 4.190000000000000000e+02
5.020794577808719517e+00 -9.662841128759350084e+00 4.190000000000000000e+02
3.613048562457792823e+00 -9.797937969076169651e+00 4.190000000000000000e+02
2.205302547106866129e+00 -9.933034809392987441e+00 4.190000000000000000e+02
7.975565317559389911e-01 -1.006813164970980523e+01 4.190000000000000000e+02
-6.101894835949872586e-01 -1.020322849002662480e+01 4.190000000000000000e+02
-2.017935498945914397e+00 -1.033832533034344259e+01 4.190000000000000000e+02
1.065177863921242718e+01 -9.122453767492077148e+00 4.200000000000000000e+02
9.244032623861500042e+00 -9.257550607808894938e+00 4.200000000000000000e+02
7.836286608510573792e+00 -9.392647448125712728e+00 4.200000000000000000e+02
6.428540593159646654e+00 -9.527744288442532294e+00 4.200000000000000000e+02
5.020794577808719517e+00 -9.662841128759350084e+00 4.200000000000000000e+02
