4.167563750598215933e+00 7.080371065166083611e+01 2.910000000000000000e+02
2.885849290796112410e+00 7.020604181063411886e+01 2.910000000000000000e+02
1.604134830994009775e+00 6.960837296960741583e+01 2.910000000000000000e+02
3.224203711919066961e-01 6.901070412858071279e+01 2.910000000000000000e+02
-9.592940886101963827e-01 6.841303528755400976e+01 2.910000000000000000e+02
1.057613604960873133e+01 7.379205485679435128e+01 2.920000000000000000e+02
9.294421589806628248e+00 7.319438601576764825e+01 2.920000000000000000e+02
8.012707130004525169e+00 7.259671717474094521e+01 2.920000000000000000e+02
6.730992670202421202e+00 7.199904833371424218e+01 2.920000000000000000e+02
5.449278210400318123e+00 7.140137949268753914e+01 2.920000000000000000e+02
4.167563750598215933e+00 7.080371065166083611e+01 2.920000000000000000e+02
2.885849290796112410e+00 7.020604181063411886e+01 2.920000000000000000e+02
1.604134830994009775e+00 6.960837296960741583e+01 2.920000000000000000e+02
3.224203711919066961e-01 6.901070412858071279e+01 2.920000000000000000e+02
-9.592940886101963827e-01 6.841303528755400976e+01 2.920000000000000000e+02
-2.241008548412299461e+00 6.781536644652730672e+01 2.920000000000000000e+02
1.057613604960873133e+01 7.379205485679435128e+01 2.930000000000000000e+02
9.294421589806628248e+00 7.319438601576764825e+01 2.930000000000000000e+02
8.012707130004525169e+00 7.259671717474094521e+01 2.930000000000000000e+02
6.730992670202421202e+00 7.199904833371424218e+01 2.930000000000000000e+02
5.449278210400318123e+00 7.140137949268753914e+01 2.930000000000000000e+02
4.167563750598215933e+00 7.080371065166083611e+01 2.930000000000000000e+02
2.885849290796112410e+00 7.020604181063411886e+01 2.930000000000000000e+02
1.604134830994009775e+00 6.960837296960741583e+01 2.930000000000000000e+02
3.224203711919066961e-01 6.901070412858071279e+01 2.930000000000000000e+02
-9.592940886101963827e-01 6.841303528755400976e+01 2.930000000000000000e+02
-2.241008548412299461e+00 6.781536644652730672e+01 2.930000000000000000e+02
1.057613604960873133e+01 7.379205485679435128e+01 2.940000000000000000e+02
9.294421589806628248e+00 7.319438601576764825e+01 2.940000000000000000e+02
8.012707130004525169e+00 7.259671717474094521e+01 2.940000000000000000e+02
6.730992670202421202e+00 7.199904833371424218e+01 2.940000000000000000e+02
5.449278210400318123e+00 7.140137949268753914e+01 2.940000000000000000e+02
4.167563750598215933e+00 7.080371065166083611e+01 2.940000000000000000e+02
2.885849290796112410e+00 7.020604181063411886e+01 2.940000000000000000e+02
1.604134830994009775e+00 6.960837296960741583e+01 2.940000000000000000e+02
3.224203711919066961e-01 6.901070412858071279e+01 2.940000000000000000e+02
-9.592940886101963827e-01 6.841303528755400976e+01 2.940000000000000000e+02
-2.241008548412299461e+00 6.781536644652730672e+01 2.940000000000000000e+02
9.636444399194328270e+00 7.413407766618205130e+01 2.950000000000000000e+02
8.354729939392225191e+00 7.353640882515534827e+01 2.950000000000000000e+02
7.073015479590120336e+00 7.293873998412864523e+01 2.950000000000000000e+02
5.791301019788018145e+00 7.234107114310194220e+01 2.950000000000000000e+02
4.509586559985915066e+00 7.174340230207523916e+01 2.950000000000000000e+02
3.227872100183811988e+00 7.114573346104853613e+01 2.950000000000000000e+02
1.946157640381708909e+00 7.054806462002181888e+01 2.950000000000000000e+02
6.644431805796067181e-01 6.995039577899511585e+01 2.950000000000000000e+02
-6.172712792224972489e-01 6.935272693796841281e+01 2.950000000000000000e+02
-1.898985739024599440e+00 6.875505809694170978e+01 2.950000000000000000e+02
1.057613604960873133e+01 7.379205485679435128e+01 2.960000000000000000e+02
9.294421589806628248e+00 7.319438601576764825e+01 2.960000000000000000e+02
8.012707130004525169e+00 7.259671717474094521e+01 2.960000000000000000e+02
6.730992670202421202e+00 7.199904833371424218e+01 2.960000000000000000e+02
5.449278210400318123e+00 7.140137949268753914e+01 2.960000000000000000e+02
4.167563750598215933e+00 7.080371065166083611e+01 2.960000000000000000e+02
2.885849290796112410e+00 7.020604181063411886e+01 2.960000000000000000e+02
1.604134830994009775e+00 6.960837296960741583e+01 2.960000000000000000e+02
3.224203711919066961e-01 6.901070412858071279e+01 2.960000000000000000e+02
-9.592940886101963827e-01 6.841303528755400976e+01 2.960000000000000000e+02
-2.241008548412299461e+00 6.781536644652730672e+01 2.960000000000000000e+02
1.057613604960873133e+01 7.379205485679435128e+01 2.970000000000000000e+02
9.294421589806628248e+00 7.319438601576764825e+01 2.970000000000000000e+02
8.012707130004525169e+00 7.259671717474094521e+01 2.970000000000000000e+02
6.730992670202421202e+00 7.199904833371424218e+01 2.970000000000000000e+02
5.449278210400318123e+00 7.140137949268753914e+01 2.970000000000000000e+02
4.167563750598215933e+00 7.080371065166083611e+01 2.970000000000000000e+02
2.885849290796112410e+00 7.020604181063411886e+01 2.970000000000000000e+02
1.604134830994009775e+00 6.960837296960741583e+01 2.970000000000000000e+02
3.224203711919066961e-01 6.901070412858071279e+01 2.970000000000000000e+02
-9.592940886101963827e-01 6.841303528755400976e+01 2.970000000000000000e+02
-2.241008548412299461e+00 6.781536644652730672e+01 2.970000000000000000e+02
1.057613604960873133e+01 7.379205485679435128e+01 2.980000000000000000e+02
9.294421589806628248e+00 7.319438601576764825e+01 2.980000000000000000e+02
8.012707130004525169e+00 7.259671717474094521e+01 2.980000000000000000e+02
6.730992670202421202e+00 7.199904833371424218e+01 2.980000000000000000e+02
5.449278210400318123e+00 7.140137949268753914e+01 2.980000000000000000e+02
4.167563750598215933e+00 7.080371065166083611e+01 2.980000000000000000e+02
2.885849290796112410e+00 7.020604181063411886e+01 2.980000000000000000e+02
1.604134830994009775e+00 6.960837296960741583e+01 2.980000000000000000e+02
3.224203711919066961e-01 6.901070412858071279e+01 2.980000000000000000e+02
-9.592940886101963827e-01 6.841303528755400976e+01 2.980000000000000000e+02
1.057613604960873133e+01 7.379205485679435128e+01 2.990000000000000000e+02
9.294421589806628248e+00 7.319438601576764825e+01 2.990000000000000000e+02
8.012707130004525169e+00 7.259671717474094521e+01 2.990000000000000000e+02
6.730992670202421202e+00 7.199904833371424218e+01 2.990000000000000000e+02
5.449278210400318123e+00 7.140137949268753914e+01 2.990000000000000000e+02
4.167563750598215933e+00 7.080371065166083611e+01 2.990000000000000000e+02
2.885849290796112410e+00 7.020604181063411886e+01 2.990000000000000000e+02
1.604134830994009775e+00 6.960837296960741583e+01 2.990000000000000000e+02
3.224203711919066961e-01 6.901070412858071279e+01 2.990000000000000000e+02
-9.592940886101963827e-01 6.841303528755400976e+01 2.990000000000000000e+02
1.057613604960873133e+01 7.379205485679435128e+01 3.000000000000000000e+02
9.294421589806628248e+00 7.319438601576764825e+01 3.000000000000000000e+02
8.012707130004525169e+00 7.259671717474094521e+01 3.000000000000000000e+02
6.730992670202421202e+00 7.199904833371424218e+01 3.000000000000000000e+02
5.449278210400318123e+00 7.140137949268753914e+01 3.000000000000000000e+02
4.167563750598215933e+00 7.080371065166083611e+01 3.000000000000000000e+02
2.885849290796112410e+00 7.020604181063411886e+01 3.000000000000000000e+02
1.604134830994009775e+00 6.960837296960741583e+01 3.000000000000000000e+02
3.224203711919066961e-01 6.901070412858071279e+01 3.000000000000000000e+02
-9.592940886101963827e-01 6.841303528755400976e+01 3.000000000000000000e+02
9.636444399194328270e+00 7.413407766618205130e+01 3.010000000000000000e+02
8.354729939392225191e+00 7.353640882515534827e+01 3.010000000000000000e+02
7.073015479590120336e+00 7.293873998412864523e+01 3.010000000000000000e+02
5.791301019788018145e+00 7.234107114310194220e+01 3.010000000000000000e+02
4.509586559985915066e+00 7.174340230207523916e+01 3.010000000000000000e+02
3.227872100183811988e+00 7.114573346104853613e+01 3.010000000000000000e+02
1.946157640381708909e+00 7.054806462002181888e+01 3.010000000000000000e+02
6.644431805796067181e-01 6.995039577899511585e+01 3.010000000000000000e+02
-6.172712792224972489e-01 6.935272693796841281e+01 3.010000000000000000e+02
9.636444399194328270e+00 7.413407766618205130e+01 3.020000000000000000e+02
8.354729939392225191e+00 7.353640882515534827e+01 3.020000000000000000e+02
7.073015479590120336e+00 7.293873998412864523e+01 3.020000000000000000e+02
5.791301019788018145e+00 7.234107114310194220e+01 3.020000000000000000e+02
4.509586559985915066e+00 7.174340230207523916e+01 3.020000000000000000e+02
3.227872100183811988e+00 7.114573346104853613e+01 3.020000000000000000e+02
1.946157640381708909e+00 7.054806462002181888e+01 3.020000000000000000e+02
6.644431805796067181e-01 6.995039577899511585e+01 3.020000000000000000e+02
-6.172712792224972489e-01 6.935272693796841281e+01 3.020000000000000000e+02
-1.898985739024599440e+00 6.875505809694170978e+01 3.020000000000000000e+02
9.636444399194328270e+00 7.413407766618205130e+01 3.030000000000000000e+02
8.354729939392225191e+00 7.353640882515534827e+01 3.030000000000000000e+02
7.073015479590120336e+00 7.293873998412864523e+01 3.030000000000000000e+02
5.791301019788018145e+00 7.234107114310194220e+01 3.030000000000000000e+02
4.509586559985915066e+00 7.174340230207523916e+01 3.030000000000000000e+02
3.227872100183811988e+00 7.114573346104853613e+01 3.030000000000000000e+02
1.946157640381708909e+00 7.054806462002181888e+01 3.030000000000000000e+02
6.644431805796067181e-01 6.995039577899511585e+01 3.030000000000000000e+02
-6.172712792224972489e-01 6.935272693796841281e+01 3.030000000000000000e+02
-1.898985739024599440e+00 6.875505809694170978e+01 3.030000000000000000e+02
9.636444399194328270e+00 7.413407766618205130e+01 3.040000000000000000e+02
8.354729939392225191e+00 7.353640882515534827e+01 3.040000000000000000e+02
7.073015479590120336e+00 7.293873998412864523e+01 3.040000000000000000e+02
5.791301019788018145e+00 7.234107114310194220e+01 3.040000000000000000e+02
4.509586559985915066e+00 7.174340230207523916e+01 3.040000000000000000e+02
3.227872100183811988e+00 7.114573346104853613e+01 3.040000000000000000e+02
1.946157640381708909e+00 7.054806462002181888e+01 3.040000000000000000e+02
6.644431805796067181e-01 6.995039577899511585e+01 3.040000000000000000e+02
-6.172712792224972489e-01 6.935272693796841281e+01 3.040000000000000000e+02
-1.898985739024599440e+00 6.875505809694170978e+01 3.040000000000000000e+02
9.636444399194328270e+00 7.413407766618205130e+01 3.050000000000000000e+02
8.354729939392225191e+00 7.353640882515534827e+01 3.050000000000000000e+02
7.073015479590120336e+00 7.293873998412864523e+01 3.050000000000000000e+02
5.791301019788018145e+00 7.234107114310194220e+01 3.050000000000000000e+02
4.509586559985915066e+00 7.174340230207523916e+01 3.050000000000000000e+02
3.227872100183811988e+00 7.114573346104853613e+01 3.050000000000000000e+02
1.946157640381708909e+00 7.054806462002181888e+01 3.050000000000000000e+02
6.644431805796067181e-01 6.995039577899511585e+01 3.050000000000000000e+02
-6.172712792224972489e-01 6.935272693796841281e+01 3.050000000000000000e+02
-1.898985739024599440e+00 6.875505809694170978e+01 3.050000000000000000e+02
9.636444399194328270e+00 7.413407766618205130e+01 3.060000000000000000e+02
8.354729939392225191e+00 7.353640882515534827e+01 3.060000000000000000e+02
7.073015479590120336e+00 7.293873998412864523e+01 3.060000000000000000e+02
5.791301019788018145e+00 7.234107114310194220e+01 3.060000000000000000e+02
4.509586559985915066e+00 7.174340230207523916e+01 3.060000000000000000e+02
3.227872100183811988e+00 7.114573346104853613e+01 3.060000000000000000e+02
1.946157640381708909e+00 7.054806462002181888e+01 3.060000000000000000e+02
6.644431805796067181e-01 6.995039577899511585e+01 3.060000000000000000e+02
-6.172712792224972489e-01 6.935272693796841281e+01 3.060000000000000000e+02
-1.898985739024599440e+00 6.875505809694170978e+01 3.060000000000000000e+02
9.636444399194328270e+00 7.413407766618205130e+01 3.070000000000000000e+02
8.354729939392225191e+00 7.353640882515534827e+01 3.070000000000000000e+02
7.073015479590120336e+00 7.293873998412864523e+01 3.070000000000000000e+02
5.791301019788018145e+00 7.234107114310194220e+01 3.070000000000000000e+02
4.509586559985915066e+00 7.174340230207523916e+01 3.070000000000000000e+02
3.227872100183811988e+00 7.114573346104853613e+01 3.070000000000000000e+02
1.946157640381708909e+00 7.054806462002181888e+01 3.070000000000000000e+02
6.644431805796067181e-01 6.995039577899511585e+01 3.070000000000000000e+02
-6.172712792224972489e-01 6.935272693796841281e+01 3.070000000000000000e+02
-1.898985739024599440e+00 6.875505809694170978e+01 3.070000000000000000e+02
9.636444399194328270e+00 7.413407766618205130e+01 3.080000000000000000e+02
8.354729939392225191e+00 7.353640882515534827e+01 3.080000000000000000e+02
7.073015479590120336e+00 7.293873998412864523e+01 3.080000000000000000e+02
5.791301019788018145e+00 7.234107114310194220e+01 3.080000000000000000e+02
4.509586559985915066e+00 7.174340230207523916e+01 3.080000000000000000e+02
3.227872100183811988e+00 7.114573346104853613e+01 3.080000000000000000e+02
1.946157640381708909e+00 7.054806462002181888e+01 3.080000000000000000e+02
6.644431805796067181e-01 6.995039577899511585e+01 3.080000000000000000e+02
-6.172712792224972489e-01 6.935272693796841281e+01 3.080000000000000000e+02
-1.898985739024599440e+00 6.875505809694170978e+01 3.080000000000000000e+02
9.636444399194328270e+00 7.413407766618205130e+01 3.090000000000000000e+02
8.354729939392225191e+00 7.353640882515534827e+01 3.090000000000000000e+02
7.073015479590120336e+00 7.293873998412864523e+01 3.090000000000000000e+02
5.791301019788018145e+00 7.234107114310194220e+01 3.090000000000000000e+02
4.509586559985915066e+00 7.174340230207523916e+01 3.090000000000000000e+02
3.227872100183811988e+00 7.114573346104853613e+01 3.090000000000000000e+02
1.946157640381708909e+00 7.054806462002181888e+01 3.090000000000000000e+02
6.644431805796067181e-01 6.995039577899511585e+01 3.090000000000000000e+02
-6.172712792224972489e-01 6.935272693796841281e+01 3.090000000000000000e+02
-1.898985739024599440e+00 6.875505809694170978e+01 3.090000000000000000e+02
9.636444399194328270e+00 7.413407766618205130e+01 3.100000000000000000e+02
8.354729939392225191e+00 7.353640882515534827e+01 3.100000000000000000e+02
7.073015479590120336e+00 7.293873998412864523e+01 3.100000000000000000e+02
5.791301019788018145e+00 7.234107114310194220e+01 3.100000000000000000e+02
4.509586559985915066e+00 7.174340230207523916e+01 3.100000000000000000e+02
3.227872100183811988e+00 7.114573346104853613e+01 3.100000000000000000e+02
1.946157640381708909e+00 7.054806462002181888e+01 3.100000000000000000e+02
6.644431805796067181e-01 6.995039577899511585e+01 3.100000000000000000e+02
-6.172712792224972489e-01 6.935272693796841281e+01 3.100000000000000000e+02
9.636444399194328270e+00 7.413407766618205130e+01 3.110000000000000000e+02
8.354729939392225191e+00 7.353640882515534827e+01 3.110000000000000000e+02
7.073015479590120336e+00 7.293873998412864523e+01 3.110000000000000000e+02
5.791301019788018145e+00 7.234107114310194220e+01 3.110000000000000000e+02
4.509586559985915066e+00 7.174340230207523916e+01 3.110000000000000000e+02
3.227872100183811988e+00 7.114573346104853613e+01 3.110000000000000000e+02
1.946157640381708909e+00 7.054806462002181888e+01 3.110000000000000000e+02
6.644431805796067181e-01 6.995039577899511585e+01 3.110000000000000000e+02
-6.172712792224972489e-01 6.935272693796841281e+01 3.110000000000000000e+02
9.636444399194328270e+00 7.413407766618205130e+01 3.120000000000000000e+02
8.354729939392225191e+00 7.353640882515534827e+01 3.120000000000000000e+02
7.073015479590120336e+00 7.293873998412864523e+01 3.120000000000000000e+02
5.791301019788018145e+00 7.234107114310194220e+01 3.120000000000000000e+02
4.509586559985915066e+00 7.174340230207523916e+01 3.120000000000000000e+02
3.227872100183811988e+00 7.114573346104853613e+01 3.120000000000000000e+02
1.946157640381708909e+00 7.054806462002181888e+01 3.120000000000000000e+02
6.644431805796067181e-01 6.995039577899511585e+01 3.120000000000000000e+02
-6.172712792224972489e-01 6.935272693796841281e+01 3.120000000000000000e+02
1.057613604960873133e+01 7.379205485679435128e+01 3.130000000000000000e+02
9.294421589806628248e+00 7.319438601576764825e+01 3.130000000000000000e+02
8.012707130004525169e+00 7.259671717474094521e+01 3.130000000000000000e+02
6.730992670202421202e+00 7.199904833371424218e+01 3.130000000000000000e+02
5.449278210400318123e+00 7.140137949268753914e+01 3.130000000000000000e+02
4.167563750598215933e+00 7.080371065166083611e+01 3.130000000000000000e+02
2.885849290796112410e+00 7.020604181063411886e+01 3.130000000000000000e+02
1.604134830994009775e+00 6.960837296960741583e+01 3.130000000000000000e+02
3.224203711919066961e-01 6.901070412858071279e+01 3.130000000000000000e+02
-9.592940886101963827e-01 6.841303528755400976e+01 3.130000000000000000e+02
1.057613604960873133e+01 7.379205485679435128e+01 3.140000000000000000e+02
9.294421589806628248e+00 7.319438601576764825e+01 3.140000000000000000e+02
8.012707130004525169e+00 7.259671717474094521e+01 3.140000000000000000e+02
6.730992670202421202e+00 7.199904833371424218e+01 3.140000000000000000e+02
5.449278210400318123e+00 7.140137949268753914e+01 3.140000000000000000e+02
4.167563750598215933e+00 7.080371065166083611e+01 3.140000000000000000e+02
2.885849290796112410e+00 7.020604181063411886e+01 3.140000000000000000e+02
1.604134830994009775e+00 6.960837296960741583e+01 3.140000000000000000e+02
3.224203711919066961e-01 6.901070412858071279e+01 3.140000000000000000e+02
-9.592940886101963827e-01 6.841303528755400976e+01 3.140000000000000000e+02
-2.241008548412299461e+00 6.781536644652730672e+01 3.140000000000000000e+02
1.057613604960873133e+01 7.379205485679435128e+01 3.150000000000000000e+02
9.294421589806628248e+00 7.319438601576764825e+01 3.150000000000000000e+02
8.012707130004525169e+00 7.259671717474094521e+01 3.150000000000000000e+02
6.730992670202421202e+00 7.199904833371424218e+01 3.150000000000000000e+02
5.449278210400318123e+00 7.140137949268753914e+01 3.150000000000000000e+02
4.167563750598215933e+00 7.080371065166083611e+01 3.150000000000000000e+02
2.885849290796112410e+00 7.020604181063411886e+01 3.150000000000000000e+02
1.604134830994009775e+00 6.960837296960741583e+01 3.150000000000000000e+02
3.224203711919066961e-01 6.901070412858071279e+01 3.150000000000000000e+02
-9.592940886101963827e-01 6.841303528755400976e+01 3.150000000000000000e+02
-2.241008548412299461e+00 6.781536644652730672e+01 3.150000000000000000e+02
9.636444399194328270e+00 7.413407766618205130e+01 3.160000000000000000e+02
8.354729939392225191e+00 7.353640882515534827e+01 3.160000000000000000e+02
7.073015479590120336e+00 7.293873998412864523e+01 3.160000000000000000e+02
5.791301019788018145e+00 7.234107114310194220e+01 3.160000000000000000e+02
4.509586559985915066e+00 7.174340230207523916e+01 3.160000000000000000e+02
3.227872100183811988e+00 7.114573346104853613e+01 3.160000000000000000e+02
1.946157640381708909e+00 7.054806462002181888e+01 3.160000000000000000e+02
6.644431805796067181e-01 6.995039577899511585e+01 3.160000000000000000e+02
-6.172712792224972489e-01 6.935272693796841281e+01 3.160000000000000000e+02
-1.898985739024599440e+00 6.875505809694170978e+01 3.160000000000000000e+02
9.636444399194328270e+00 7.413407766618205130e+01 3.170000000000000000e+02
8.354729939392225191e+00 7.353640882515534827e+01 3.170000000000000000e+02
7.073015479590120336e+00 7.293873998412864523e+01 3.170000000000000000e+02
5.791301019788018145e+00 7.234107114310194220e+01 3.170000000000000000e+02
4.509586559985915066e+00 7.174340230207523916e+01 3.170000000000000000e+02
3.227872100183811988e+00 7.114573346104853613e+01 3.170000000000000000e+02
1.946157640381708909e+00 7.054806462002181888e+01 3.170000000000000000e+02
6.644431805796067181e-01 6.995039577899511585e+01 3.170000000000000000e+02
-6.172712792224972489e-01 6.935272693796841281e+01 3.170000000000000000e+02
-1.898985739024599440e+00 6.875505809694170978e+01 3.170000000000000000e+02
9.636444399194328270e+00 7.413407766618205130e+01 3.180000000000000000e+02
8.354729939392225191e+00 7.353640882515534827e+01 3.180000000000000000e+02
7.073015479590120336e+00 7.293873998412864523e+01 3.180000000000000000e+02
5.791301019788018145e+00 7.234107114310194220e+01 3.180000000000000000e+02
4.509586559985915066e+00 7.174340230207523916e+01 3.180000000000000000e+02
3.227872100183811988e+00 7.114573346104853613e+01 3.180000000000000000e+02
1.946157640381708909e+00 7.054806462002181888e+01 3.180000000000000000e+02
6.644431805796067181e-01 6.995039577899511585e+01 3.180000000000000000e+02
-6.172712792224972489e-01 6.935272693796841281e+01 3.180000000000000000e+02
-1.898985739024599440e+00 6.875505809694170978e+01 3.180000000000000000e+02
9.636444399194328270e+00 7.413407766618205130e+01 3.190000000000000000e+02
8.354729939392225191e+00 7.353640882515534827e+01 3.190000000000000000e+02
7.073015479590120336e+00 7.293873998412864523e+01 3.190000000000000000e+02
5.791301019788018145e+00 7.234107114310194220e+01 3.190000000000000000e+02
4.509586559985915066e+00 7.174340230207523916e+01 3.190000000000000000e+02
3.227872100183811988e+00 7.114573346104853613e+01 3.190000000000000000e+02
1.946157640381708909e+00 7.054806462002181888e+01 3.190000000000000000e+02
6.644431805796067181e-01 6.995039577899511585e+01 3.190000000000000000e+02
-6.172712792224972489e-01 6.935272693796841281e+01 3.190000000000000000e+02
9.636444399194328270e+00 7.413407766618205130e+01 3.200000000000000000e+02
8.354729939392225191e+00 7.353640882515534827e+01 3.200000000000000000e+02
7.073015479590120336e+00 7.293873998412864523e+01 3.200000000000000000e+02
5.791301019788018145e+00 7.234107114310194220e+01 3.200000000000000000e+02
4.509586559985915066e+00 7.174340230207523916e+01 3.200000000000000000e+02
3.227872100183811988e+00 7.114573346104853613e+01 3.200000000000000000e+02
1.946157640381708909e+00 7.054806462002181888e+01 3.200000000000000000e+02
6.644431805796067181e-01 6.995039577899511585e+01 3.200000000000000000e+02
-6.172712792224972489e-01 6.935272693796841281e+01 3.200000000000000000e+02
9.636444399194328270e+00 7.413407766618205130e+01 3.210000000000000000e+02
8.354729939392225191e+00 7.353640882515534827e+01 3.210000000000000000e+02
7.073015479590120336e+00 7.293873998412864523e+01 3.210000000000000000e+02
5.791301019788018145e+00 7.234107114310194220e+01 3.210000000000000000e+02
4.509586559985915066e+00 7.174340230207523916e+01 3.210000000000000000e+02
3.227872100183811988e+00 7.114573346104853613e+01 3.210000000000000000e+02
1.946157640381708909e+00 7.054806462002181888e+01 3.210000000000000000e+02
6.644431805796067181e-01 6.995039577899511585e+01 3.210000000000000000e+02
-6.172712792224972489e-01 6.935272693796841281e+01 3.210000000000000000e+02
9.636444399194328270e+00 7.413407766618205130e+01 3.220000000000000000e+02
8.354729939392225191e+00 7.353640882515534827e+01 3.220000000000000000e+02
7.073015479590120336e+00 7.293873998412864523e+01 3.220000000000000000e+02
5.791301019788018145e+00 7.234107114310194220e+01 3.220000000000000000e+02
4.509586559985915066e+00 7.174340230207523916e+01 3.220000000000000000e+02
3.227872100183811988e+00 7.114573346104853613e+01 3.220000000000000000e+02
1.946157640381708909e+00 7.054806462002181888e+01 3.220000000000000000e+02
6.644431805796067181e-01 6.995039577899511585e+01 3.220000000000000000e+02
-6.172712792224972489e-01 6.935272693796841281e+01 3.220000000000000000e+02
-1.898985739024599440e+00 6.875505809694170978e+01 3.220000000000000000e+02
1.057613604960873133e+01 7.379205485679435128e+01 3.230000000000000000e+02
9.294421589806628248e+00 7.319438601576764825e+01 3.230000000000000000e+02
8.012707130004525169e+00 7.259671717474094521e+01 3.230000000000000000e+02
6.730992670202421202e+00 7.199904833371424218e+01 3.230000000000000000e+02
5.449278210400318123e+00 7.140137949268753914e+01 3.230000000000000000e+02
4.167563750598215933e+00 7.080371065166083611e+01 3.230000000000000000e+02
2.885849290796112410e+00 7.020604181063411886e+01 3.230000000000000000e+02
1.604134830994009775e+00 6.960837296960741583e+01 3.230000000000000000e+02
3.224203711919066961e-01 6.901070412858071279e+01 3.230000000000000000e+02
-9.592940886101963827e-01 6.841303528755400976e+01 3.230000000000000000e+02
-2.241008548412299461e+00 6.781536644652730672e+01 3.230000000000000000e+02
9.636444399194328270e+00 7.413407766618205130e+01 3.240000000000000000e+02
8.354729939392225191e+00 7.353640882515534827e+01 3.240000000000000000e+02
7.073015479590120336e+00 7.293873998412864523e+01 3.240000000000000000e+02
5.791301019788018145e+00 7.234107114310194220e+01 3.240000000000000000e+02
4.509586559985915066e+00 7.174340230207523916e+01 3.240000000000000000e+02
3.227872100183811988e+00 7.114573346104853613e+01 3.240000000000000000e+02
1.946157640381708909e+00 7.054806462002181888e+01 3.240000000000000000e+02
6.644431805796067181e-01 6.995039577899511585e+01 3.240000000000000000e+02
-6.172712792224972489e-01 6.935272693796841281e+01 3.240000000000000000e+02
-1.898985739024599440e+00 6.875505809694170978e+01 3.240000000000000000e+02
9.636444399194328270e+00 7.413407766618205130e+01 3.250000000000000000e+02
8.354729939392225191e+00 7.353640882515534827e+01 3.250000000000000000e+02
7.073015479590120336e+00 7.293873998412864523e+01 3.250000000000000000e+02
5.791301019788018145e+00 7.234107114310194220e+01 3.250000000000000000e+02
4.509586559985915066e+00 7.174340230207523916e+01 3.250000000000000000e+02
3.227872100183811988e+00 7.114573346104853613e+01 3.250000000000000000e+02
1.946157640381708909e+00 7.054806462002181888e+01 3.250000000000000000e+02
6.644431805796067181e-01 6.995039577899511585e+01 3.250000000000000000e+02
-6.172712792224972489e-01 6.935272693796841281e+01 3.250000000000000000e+02
9.636444399194328270e+00 7.413407766618205130e+01 3.260000000000000000e+02
8.354729939392225191e+00 7.353640882515534827e+01 3.260000000000000000e+02
7.073015479590120336e+00 7.293873998412864523e+01 3.260000000000000000e+02
5.791301019788018145e+00 7.234107114310194220e+01 3.260000000000000000e+02
4.509586559985915066e+00 7.174340230207523916e+01 3.260000000000000000e+02
3.227872100183811988e+00 7.114573346104853613e+01 3.260000000000000000e+02
1.946157640381708909e+00 7.054806462002181888e+01 3.260000000000000000e+02
6.644431805796067181e-01 6.995039577899511585e+01 3.260000000000000000e+02
-6.172712792224972489e-01 6.935272693796841281e+01 3.260000000000000000e+02
-1.898985739024599440e+00 6.875505809694170978e+01 3.260000000000000000e+02
9.636444399194328270e+00 7.413407766618205130e+01 3.270000000000000000e+02
8.354729939392225191e+00 7.353640882515534827e+01 3.270000000000000000e+02
7.073015479590120336e+00 7.293873998412864523e+01 3.270000000000000000e+02
5.791301019788018145e+00 7.234107114310194220e+01 3.270000000000000000e+02
4.509586559985915066e+00 7.174340230207523916e+01 3.270000000000000000e+02
3.227872100183811988e+00 7.114573346104853613e+01 3.270000000000000000e+02
1.946157640381708909e+00 7.054806462002181888e+01 3.270000000000000000e+02
6.644431805796067181e-01 6.995039577899511585e+01 3.270000000000000000e+02
-6.172712792224972489e-01 6.935272693796841281e+01 3.270000000000000000e+02
-1.898985739024599440e+00 6.875505809694170978e+01 3.270000000000000000e+02
1.057613604960873133e+01 7.379205485679435128e+01 3.280000000000000000e+02
9.294421589806628248e+00 7.319438601576764825e+01 3.280000000000000000e+02
8.012707130004525169e+00 7.259671717474094521e+01 3.280000000000000000e+02
6.730992670202421202e+00 7.199904833371424218e+01 3.280000000000000000e+02
5.449278210400318123e+00 7.140137949268753914e+01 3.280000000000000000e+02
4.167563750598215933e+00 7.080371065166083611e+01 3.280000000000000000e+02
2.885849290796112410e+00 7.020604181063411886e+01 3.280000000000000000e+02
1.604134830994009775e+00 6.960837296960741583e+01 3.280000000000000000e+02
3.224203711919066961e-01 6.901070412858071279e+01 3.280000000000000000e+02
-9.592940886101963827e-01 6.841303528755400976e+01 3.280000000000000000e+02
-2.241008548412299461e+00 6.781536644652730672e+01 3.280000000000000000e+02
1.057613604960873133e+01 7.379205485679435128e+01 3.290000000000000000e+02
9.294421589806628248e+00 7.319438601576764825e+01 3.290000000000000000e+02
8.012707130004525169e+00 7.259671717474094521e+01 3.290000000000000000e+02
6.730992670202421202e+00 7.199904833371424218e+01 3.290000000000000000e+02
5.449278210400318123e+00 7.140137949268753914e+01 3.290000000000000000e+02
4.167563750598215933e+00 7.080371065166083611e+01 3.290000000000000000e+02
2.885849290796112410e+00 7.020604181063411886e+01 3.290000000000000000e+02
1.604134830994009775e+00 6.960837296960741583e+01 3.290000000000000000e+02
3.224203711919066961e-01 6.901070412858071279e+01 3.290000000000000000e+02
-9.592940886101963827e-01 6.841303528755400976e+01 3.290000000000000000e+02
-2.241008548412299461e+00 6.781536644652730672e+01 3.290000000000000000e+02
9.636444399194328270e+00 7.413407766618205130e+01 3.300000000000000000e+02
8.354729939392225191e+00 7.353640882515534827e+01 3.300000000000000000e+02
7.073015479590120336e+00 7.293873998412864523e+01 3.300000000000000000e+02
5.791301019788018145e+00 7.234107114310194220e+01 3.300000000000000000e+02
4.509586559985915066e+00 7.174340230207523916e+01 3.300000000000000000e+02
3.227872100183811988e+00 7.114573346104853613e+01 3.300000000000000000e+02
1.946157640381708909e+00 7.054806462002181888e+01 3.300000000000000000e+02
6.644431805796067181e-01 6.995039577899511585e+01 3.300000000000000000e+02
-6.172712792224972489e-01 6.935272693796841281e+01 3.300000000000000000e+02
-1.898985739024599440e+00 6.875505809694170978e+01 3.300000000000000000e+02
9.636444399194328270e+00 7.413407766618205130e+01 3.310000000000000000e+02
8.354729939392225191e+00 7.353640882515534827e+01 3.310000000000000000e+02
7.073015479590120336e+00 7.293873998412864523e+01 3.310000000000000000e+02
5.791301019788018145e+00 7.234107114310194220e+01 3.310000000000000000e+02
4.509586559985915066e+00 7.174340230207523916e+01 3.310000000000000000e+02
3.227872100183811988e+00 7.114573346104853613e+01 3.310000000000000000e+02
1.946157640381708909e+00 7.054806462002181888e+01 3.310000000000000000e+02
6.644431805796067181e-01 6.995039577899511585e+01 3.310000000000000000e+02
-6.172712792224972489e-01 6.935272693796841281e+01 3.310000000000000000e+02
-1.898985739024599440e+00 6.875505809694170978e+01 3.310000000000000000e+02
9.636444399194328270e+00 7.413407766618205130e+01 3.320000000000000000e+02
8.354729939392225191e+00 7.353640882515534827e+01 3.320000000000000000e+02
7.073015479590120336e+00 7.293873998412864523e+01 3.320000000000000000e+02
5.791301019788018145e+00 7.234107114310194220e+01 3.320000000000000000e+02
4.509586559985915066e+00 7.174340230207523916e+01 3.320000000000000000e+02
3.227872100183811988e+00 7.114573346104853613e+01 3.320000000000000000e+02
1.946157640381708909e+00 7.054806462002181888e+01 3.320000000000000000e+02
6.644431805796067181e-01 6.995039577899511585e+01 3.320000000000000000e+02
-6.172712792224972489e-01 6.935272693796841281e+01 3.320000000000000000e+02
-1.898985739024599440e+00 6.875505809694170978e+01 3.320000000000000000e+02
9.636444399194328270e+00 7.413407766618205130e+01 3.330000000000000000e+02
8.354729939392225191e+00 7.353640882515534827e+01 3.330000000000000000e+02
7.073015479590120336e+00 7.293873998412864523e+01 3.330000000000000000e+02
5.791301019788018145e+00 7.234107114310194220e+01 3.330000000000000000e+02
4.509586559985915066e+00 7.174340230207523916e+01 3.330000000000000000e+02
3.227872100183811988e+00 7.114573346104853613e+01 3.330000000000000000e+02
1.946157640381708909e+00 7.054806462002181888e+01 3.330000000000000000e+02
6.644431805796067181e-01 6.995039577899511585e+01 3.330000000000000000e+02
-6.172712792224972489e-01 6.935272693796841281e+01 3.330000000000000000e+02
-1.898985739024599440e+00 6.875505809694170978e+01 3.330000000000000000e+02
9.636444399194328270e+00 7.413407766618205130e+01 3.340000000000000000e+02
8.354729939392225191e+00 7.353640882515534827e+01 3.340000000000000000e+02
7.073015479590120336e+00 7.293873998412864523e+01 3.340000000000000000e+02
5.791301019788018145e+00 7.234107114310194220e+01 3.340000000000000000e+02
4.509586559985915066e+00 7.174340230207523916e+01 3.340000000000000000e+02
3.227872100183811988e+00 7.114573346104853613e+01 3.340000000000000000e+02
1.946157640381708909e+00 7.054806462002181888e+01 3.340000000000000000e+02
6.644431805796067181e-01 6.995039577899511585e+01 3.340000000000000000e+02
-6.172712792224972489e-01 6.935272693796841281e+01 3.340000000000000000e+02
-1.898985739024599440e+00 6.875505809694170978e+01 3.340000000000000000e+02
1.057613604960873133e+01 7.379205485679435128e+01 3.350000000000000000e+02
9.294421589806628248e+00 7.319438601576764825e+01 3.350000000000000000e+02
8.012707130004525169e+00 7.259671717474094521e+01 3.350000000000000000e+02
6.730992670202421202e+00 7.199904833371424218e+01 3.350000000000000000e+02
5.449278210400318123e+00 7.140137949268753914e+01 3.350000000000000000e+02
4.167563750598215933e+00 7.080371065166083611e+01 3.350000000000000000e+02
2.885849290796112410e+00 7.020604181063411886e+01 3.350000000000000000e+02
1.604134830994009775e+00 6.960837296960741583e+01 3.350000000000000000e+02
3.224203711919066961e-01 6.901070412858071279e+01 3.350000000000000000e+02
-9.592940886101963827e-01 6.841303528755400976e+01 3.350000000000000000e+02
-2.241008548412299461e+00 6.781536644652730672e+01 3.350000000000000000e+02
9.636444399194328270e+00 7.413407766618205130e+01 3.360000000000000000e+02
8.354729939392225191e+00 7.353640882515534827e+01 3.360000000000000000e+02
7.073015479590120336e+00 7.293873998412864523e+01 3.360000000000000000e+02
5.791301019788018145e+00 7.234107114310194220e+01 3.360000000000000000e+02
4.509586559985915066e+00 7.174340230207523916e+01 3.360000000000000000e+02
3.227872100183811988e+00 7.114573346104853613e+01 3.360000000000000000e+02
1.946157640381708909e+00 7.054806462002181888e+01 3.360000000000000000e+02
6.644431805796067181e-01 6.995039577899511585e+01 3.360000000000000000e+02
-6.172712792224972489e-01 6.935272693796841281e+01 3.360000000000000000e+02
-1.898985739024599440e+00 6.875505809694170978e+01 3.360000000000000000e+02
9.636444399194328270e+00 7.413407766618205130e+01 3.370000000000000000e+02
8.354729939392225191e+00 7.353640882515534827e+01 3.370000000000000000e+02
7.073015479590120336e+00 7.293873998412864523e+01 3.370000000000000000e+02
5.791301019788018145e+00 7.234107114310194220e+01 3.370000000000000000e+02
4.509586559985915066e+00 7.174340230207523916e+01 3.370000000000000000e+02
3.227872100183811988e+00 7.114573346104853613e+01 3.370000000000000000e+02
1.946157640381708909e+00 7.054806462002181888e+01 3.370000000000000000e+02
6.644431805796067181e-01 6.995039577899511585e+01 3.370000000000000000e+02
-6.172712792224972489e-01 6.935272693796841281e+01 3.370000000000000000e+02
-1.898985739024599440e+00 6.875505809694170978e+01 3.370000000000000000e+02
9.636444399194328270e+00 7.413407766618205130e+01 3.380000000000000000e+02
8.354729939392225191e+00 7.353640882515534827e+01 3.380000000000000000e+02
7.073015479590120336e+00 7.293873998412864523e+01 3.380000000000000000e+02
5.791301019788018145e+00 7.234107114310194220e+01 3.380000000000000000e+02
4.509586559985915066e+00 7.174340230207523916e+01 3.380000000000000000e+02
3.227872100183811988e+00 7.114573346104853613e+01 3.380000000000000000e+02
1.946157640381708909e+00 7.054806462002181888e+01 3.380000000000000000e+02
6.644431805796067181e-01 6.995039577899511585e+01 3.380000000000000000e+02
-6.172712792224972489e-01 6.935272693796841281e+01 3.380000000000000000e+02
-1.898985739024599440e+00 6.875505809694170978e+01 3.380000000000000000e+02
9.636444399194328270e+00 7.413407766618205130e+01 3.390000000000000000e+02
8.354729939392225191e+00 7.353640882515534827e+01 3.390000000000000000e+02
7.073015479590120336e+00 7.293873998412864523e+01 3.390000000000000000e+02
5.791301019788018145e+00 7.234107114310194220e+01 3.390000000000000000e+02
4.509586559985915066e+00 7.174340230207523916e+01 3.390000000000000000e+02
3.227872100183811988e+00 7.114573346104853613e+01 3.390000000000000000e+02
1.946157640381708909e+00 7.054806462002181888e+01 3.390000000000000000e+02
6.644431805796067181e-01 6.995039577899511585e+01 3.390000000000000000e+02
-6.172712792224972489e-01 6.935272693796841281e+01 3.390000000000000000e+02
-1.898985739024599440e+00 6.875505809694170978e+01 3.390000000000000000e+02
9.636444399194328270e+00 7.413407766618205130e+01 3.400000000000000000e+02
8.354729939392225191e+00 7.353640882515534827e+01 3.400000000000000000e+02
7.073015479590120336e+00 7.293873998412864523e+01 3.400000000000000000e+02
5.791301019788018145e+00 7.234107114310194220e+01 3.400000000000000000e+02
4.509586559985915066e+00 7.174340230207523916e+01 3.400000000000000000e+02
3.227872100183811988e+00 7.114573346104853613e+01 3.400000000000000000e+02
1.946157640381708909e+00 7.054806462002181888e+01 3.400000000000000000e+02
6.644431805796067181e-01 6.995039577899511585e+01 3.400000000000000000e+02
-6.172712792224972489e-01 6.935272693796841281e+01 3.400000000000000000e+02
1.057613604960873133e+01 7.379205485679435128e+01 3.410000000000000000e+02
9.294421589806628248e+00 7.319438601576764825e+01 3.410000000000000000e+02
8.012707130004525169e+00 7.259671717474094521e+01 3.410000000000000000e+02
6.730992670202421202e+00 7.199904833371424218e+01 3.410000000000000000e+02
5.449278210400318123e+00 7.140137949268753914e+01 3.410000000000000000e+02
4.167563750598215933e+00 7.080371065166083611e+01 3.410000000000000000e+02
2.885849290796112410e+00 7.020604181063411886e+01 3.410000000000000000e+02
1.604134830994009775e+00 6.960837296960741583e+01 3.410000000000000000e+02
3.224203711919066961e-01 6.901070412858071279e+01 3.410000000000000000e+02
-9.592940886101963827e-01 6.841303528755400976e+01 3.410000000000000000e+02
1.057613604960873133e+01 7.379205485679435128e+01 3.420000000000000000e+02
9.294421589806628248e+00 7.319438601576764825e+01 3.420000000000000000e+02
8.012707130004525169e+00 7.259671717474094521e+01 3.420000000000000000e+02
6.730992670202421202e+00 7.199904833371424218e+01 3.420000000000000000e+02
5.449278210400318123e+00 7.140137949268753914e+01 3.420000000000000000e+02
4.167563750598215933e+00 7.080371065166083611e+01 3.420000000000000000e+02
2.885849290796112410e+00 7.020604181063411886e+01 3.420000000000000000e+02
1.604134830994009775e+00 6.960837296960741583e+01 3.420000000000000000e+02
3.224203711919066961e-01 6.901070412858071279e+01 3.420000000000000000e+02
-9.592940886101963827e-01 6.841303528755400976e+01 3.420000000000000000e+02
1.057613604960873133e+01 7.379205485679435128e+01 3.430000000000000000e+02
9.294421589806628248e+00 7.319438601576764825e+01 3.430000000000000000e+02
8.012707130004525169e+00 7.259671717474094521e+01 3.430000000000000000e+02
6.730992670202421202e+00 7.199904833371424218e+01 3.430000000000000000e+02
5.449278210400318123e+00 7.140137949268753914e+01 3.430000000000000000e+02
4.167563750598215933e+00 7.080371065166083611e+01 3.430000000000000000e+02
2.885849290796112410e+00 7.020604181063411886e+01 3.430000000000000000e+02
1.604134830994009775e+00 6.960837296960741583e+01 3.430000000000000000e+02
3.224203711919066961e-01 6.901070412858071279e+01 3.430000000000000000e+02
-9.592940886101963827e-01 6.841303528755400976e+01 3.430000000000000000e+02
-2.241008548412299461e+00 6.781536644652730672e+01 3.430000000000000000e+02
1.057613604960873133e+01 7.379205485679435128e+01 3.440000000000000000e+02
9.294421589806628248e+00 7.319438601576764825e+01 3.440000000000000000e+02
8.012707130004525169e+00 7.259671717474094521e+01 3.440000000000000000e+02
6.730992670202421202e+00 7.199904833371424218e+01 3.440000000000000000e+02
5.449278210400318123e+00 7.140137949268753914e+01 3.440000000000000000e+02
4.167563750598215933e+00 7.080371065166083611e+01 3.440000000000000000e+02
2.885849290796112410e+00 7.020604181063411886e+01 3.440000000000000000e+02
1.604134830994009775e+00 6.960837296960741583e+01 3.440000000000000000e+02
3.224203711919066961e-01 6.901070412858071279e+01 3.440000000000000000e+02
-9.592940886101963827e-01 6.841303528755400976e+01 3.440000000000000000e+02
-2.241008548412299461e+00 6.781536644652730672e+01 3.440000000000000000e+02
1.057613604960873133e+01 7.379205485679435128e+01 3.450000000000000000e+02
9.294421589806628248e+00 7.319438601576764825e+01 3.450000000000000000e+02
8.012707130004525169e+00 7.259671717474094521e+01 3.450000000000000000e+02
6.730992670202421202e+00 7.199904833371424218e+01 3.450000000000000000e+02
5.449278210400318123e+00 7.140137949268753914e+01 3.450000000000000000e+02
4.167563750598215933e+00 7.080371065166083611e+01 3.450000000000000000e+02
2.885849290796112410e+00 7.020604181063411886e+01 3.450000000000000000e+02
1.604134830994009775e+00 6.960837296960741583e+01 3.450000000000000000e+02
3.224203711919066961e-01 6.901070412858071279e+01 3.450000000000000000e+02
-9.592940886101963827e-01 6.841303528755400976e+01 3.450000000000000000e+02
-2.241008548412299461e+00 6.781536644652730672e+01 3.450000000000000000e+02
9.636444399194328270e+00 7.413407766618205130e+01 3.460000000000000000e+02
8.354729939392225191e+00 7.353640882515534827e+01 3.460000000000000000e+02
7.073015479590120336e+00 7.293873998412864523e+01 3.460000000000000000e+02
5.791301019788018145e+00 7.234107114310194220e+01 3.460000000000000000e+02
4.509586559985915066e+00 7.174340230207523916e+01 3.460000000000000000e+02
3.227872100183811988e+00 7.114573346104853613e+01 3.460000000000000000e+02
1.946157640381708909e+00 7.054806462002181888e+01 3.460000000000000000e+02
6.644431805796067181e-01 6.995039577899511585e+01 3.460000000000000000e+02
-6.172712792224972489e-01 6.935272693796841281e+01 3.460000000000000000e+02
-1.898985739024599440e+00 6.875505809694170978e+01 3.460000000000000000e+02
9.636444399194328270e+00 7.413407766618205130e+01 3.470000000000000000e+02
8.354729939392225191e+00 7.353640882515534827e+01 3.470000000000000000e+02
7.073015479590120336e+00 7.293873998412864523e+01 3.470000000000000000e+02
5.791301019788018145e+00 7.234107114310194220e+01 3.470000000000000000e+02
4.509586559985915066e+00 7.174340230207523916e+01 3.470000000000000000e+02
3.227872100183811988e+00 7.114573346104853613e+01 3.470000000000000000e+02
1.946157640381708909e+00 7.054806462002181888e+01 3.470000000000000000e+02
6.644431805796067181e-01 6.995039577899511585e+01 3.470000000000000000e+02
-6.172712792224972489e-01 6.935272693796841281e+01 3.470000000000000000e+02
-1.898985739024599440e+00 6.875505809694170978e+01 3.470000000000000000e+02
9.636444399194328270e+00 7.413407766618205130e+01 3.480000000000000000e+02
8.354729939392225191e+00 7.353640882515534827e+01 3.480000000000000000e+02
7.073015479590120336e+00 7.293873998412864523e+01 3.480000000000000000e+02
5.791301019788018145e+00 7.234107114310194220e+01 3.480000000000000000e+02
4.509586559985915066e+00 7.174340230207523916e+01 3.480000000000000000e+02
3.227872100183811988e+00 7.114573346104853613e+01 3.480000000000000000e+02
1.946157640381708909e+00 7.054806462002181888e+01 3.480000000000000000e+02
6.644431805796067181e-01 6.995039577899511585e+01 3.480000000000000000e+02
-6.172712792224972489e-01 6.935272693796841281e+01 3.480000000000000000e+02
9.636444399194328270e+00 7.413407766618205130e+01 3.490000000000000000e+02
8.354729939392225191e+00 7.353640882515534827e+01 3.490000000000000000e+02
7.073015479590120336e+00 7.293873998412864523e+01 3.490000000000000000e+02
5.791301019788018145e+00 7.234107114310194220e+01 3.490000000000000000e+02
4.509586559985915066e+00 7.174340230207523916e+01 3.490000000000000000e+02
3.227872100183811988e+00 7.114573346104853613e+01 3.490000000000000000e+02
1.946157640381708909e+00 7.054806462002181888e+01 3.490000000000000000e+02
6.644431805796067181e-01 6.995039577899511585e+01 3.490000000000000000e+02
-6.172712792224972489e-01 6.935272693796841281e+01 3.490000000000000000e+02
9.636444399194328270e+00 7.413407766618205130e+01 3.500000000000000000e+02
8.354729939392225191e+00 7.353640882515534827e+01 3.500000000000000000e+02
7.073015479590120336e+00 7.293873998412864523e+01 3.500000000000000000e+02
5.791301019788018145e+00 7.234107114310194220e+01 3.500000000000000000e+02
4.509586559985915066e+00 7.174340230207523916e+01 3.500000000000000000e+02
3.227872100183811988e+00 7.114573346104853613e+01 3.500000000000000000e+02
1.946157640381708909e+00 7.054806462002181888e+01 3.500000000000000000e+02
6.644431805796067181e-01 6.995039577899511585e+01 3.500000000000000000e+02
-6.172712792224972489e-01 6.935272693796841281e+01 3.500000000000000000e+02
9.636444399194328270e+00 7.413407766618205130e+01 3.510000000000000000e+02
8.354729939392225191e+00 7.353640882515534827e+01 3.510000000000000000e+02
7.073015479590120336e+00 7.293873998412864523e+01 3.510000000000000000e+02
5.791301019788018145e+00 7.234107114310194220e+01 3.510000000000000000e+02
4.509586559985915066e+00 7.174340230207523916e+01 3.510000000000000000e+02
3.227872100183811988e+00 7.114573346104853613e+01 3.510000000000000000e+02
1.946157640381708909e+00 7.054806462002181888e+01 3.510000000000000000e+02
6.644431805796067181e-01 6.995039577899511585e+01 3.510000000000000000e+02
-6.172712792224972489e-01 6.935272693796841281e+01 3.510000000000000000e+02
9.636444399194328270e+00 7.413407766618205130e+01 3.520000000000000000e+02
8.354729939392225191e+00 7.353640882515534827e+01 3.520000000000000000e+02
7.073015479590120336e+00 7.293873998412864523e+01 3.520000000000000000e+02
5.791301019788018145e+00 7.234107114310194220e+01 3.520000000000000000e+02
4.509586559985915066e+00 7.174340230207523916e+01 3.520000000000000000e+02
3.227872100183811988e+00 7.114573346104853613e+01 3.520000000000000000e+02
1.946157640381708909e+00 7.054806462002181888e+01 3.520000000000000000e+02
6.644431805796067181e-01 6.995039577899511585e+01 3.520000000000000000e+02
-6.172712792224972489e-01 6.935272693796841281e+01 3.520000000000000000e+02
9.636444399194328270e+00 7.413407766618205130e+01 3.530000000000000000e+02
8.354729939392225191e+00 7.353640882515534827e+01 3.530000000000000000e+02
7.073015479590120336e+00 7.293873998412864523e+01 3.530000000000000000e+02
5.791301019788018145e+00 7.234107114310194220e+01 3.530000000000000000e+02
4.509586559985915066e+00 7.174340230207523916e+01 3.530000000000000000e+02
3.227872100183811988e+00 7.114573346104853613e+01 3.530000000000000000e+02
1.946157640381708909e+00 7.054806462002181888e+01 3.530000000000000000e+02
6.644431805796067181e-01 6.995039577899511585e+01 3.530000000000000000e+02
-6.172712792224972489e-01 6.935272693796841281e+01 3.530000000000000000e+02
9.636444399194328270e+00 7.413407766618205130e+01 3.540000000000000000e+02
8.354729939392225191e+00 7.353640882515534827e+01 3.540000000000000000e+02
7.073015479590120336e+00 7.293873998412864523e+01 3.540000000000000000e+02
5.791301019788018145e+00 7.234107114310194220e+01 3.540000000000000000e+02
4.509586559985915066e+00 7.174340230207523916e+01 3.540000000000000000e+02
3.227872100183811988e+00 7.114573346104853613e+01 3.540000000000000000e+02
1.946157640381708909e+00 7.054806462002181888e+01 3.540000000000000000e+02
6.644431805796067181e-01 6.995039577899511585e+01 3.540000000000000000e+02
-6.172712792224972489e-01 6.935272693796841281e+01 3.540000000000000000e+02
9.636444399194328270e+00 7.413407766618205130e+01 3.550000000000000000e+02
8.354729939392225191e+00 7.353640882515534827e+01 3.550000000000000000e+02
7.073015479590120336e+00 7.293873998412864523e+01 3.550000000000000000e+02
5.791301019788018145e+00 7.234107114310194220e+01 3.550000000000000000e+02
4.509586559985915066e+00 7.174340230207523916e+01 3.550000000000000000e+02
