-6.081464497191223728e+00 6.430999848557003418e+01 1.540000000000000000e+02
-5.081460656044518132e+00 6.530999464440857594e+01 1.540000000000000000e+02
-4.081456814897810759e+00 6.630999080324711770e+01 1.540000000000000000e+02
-3.081452973751105162e+00 6.730998696208565946e+01 1.540000000000000000e+02
-2.081449132604398677e+00 6.830998312092420122e+01 1.540000000000000000e+02
-1.081445291457693081e+00 6.930997927976272877e+01 1.540000000000000000e+02
-8.144145031098659615e-02 7.030997543860127053e+01 1.540000000000000000e+02
9.185623908357198886e-01 7.130997159743981229e+01 1.540000000000000000e+02
1.918566231982425485e+00 7.230996775627835405e+01 1.540000000000000000e+02
-6.081464497191223728e+00 6.430999848557003418e+01 1.550000000000000000e+02
-5.081460656044518132e+00 6.530999464440857594e+01 1.550000000000000000e+02
-4.081456814897810759e+00 6.630999080324711770e+01 1.550000000000000000e+02
-3.081452973751105162e+00 6.730998696208565946e+01 1.550000000000000000e+02
-2.081449132604398677e+00 6.830998312092420122e+01 1.550000000000000000e+02
-1.081445291457693081e+00 6.930997927976272877e+01 1.550000000000000000e+02
-8.144145031098659615e-02 7.030997543860127053e+01 1.550000000000000000e+02
9.185623908357198886e-01 7.130997159743981229e+01 1.550000000000000000e+02
1.918566231982425485e+00 7.230996775627835405e+01 1.550000000000000000e+02
-6.081464497191223728e+00 6.430999848557003418e+01 1.560000000000000000e+02
-5.081460656044518132e+00 6.530999464440857594e+01 1.560000000000000000e+02
-4.081456814897810759e+00 6.630999080324711770e+01 1.560000000000000000e+02
-3.081452973751105162e+00 6.730998696208565946e+01 1.560000000000000000e+02
-2.081449132604398677e+00 6.830998312092420122e+01 1.560000000000000000e+02
-1.081445291457693081e+00 6.930997927976272877e+01 1.560000000000000000e+02
-8.144145031098659615e-02 7.030997543860127053e+01 1.560000000000000000e+02
9.185623908357198886e-01 7.130997159743981229e+01 1.560000000000000000e+02
1.918566231982425485e+00 7.230996775627835405e+01 1.560000000000000000e+02
-6.081464497191223728e+00 6.430999848557003418e+01 1.570000000000000000e+02
-5.081460656044518132e+00 6.530999464440857594e+01 1.570000000000000000e+02
-4.081456814897810759e+00 6.630999080324711770e+01 1.570000000000000000e+02
-3.081452973751105162e+00 6.730998696208565946e+01 1.570000000000000000e+02
-2.081449132604398677e+00 6.830998312092420122e+01 1.570000000000000000e+02
-1.081445291457693081e+00 6.930997927976272877e+01 1.570000000000000000e+02
-8.144145031098659615e-02 7.030997543860127053e+01 1.570000000000000000e+02
9.185623908357198886e-01 7.130997159743981229e+01 1.570000000000000000e+02
-6.081464497191223728e+00 6.430999848557003418e+01 1.580000000000000000e+02
-5.081460656044518132e+00 6.530999464440857594e+01 1.580000000000000000e+02
-4.081456814897810759e+00 6.630999080324711770e+01 1.580000000000000000e+02
-3.081452973751105162e+00 6.730998696208565946e+01 1.580000000000000000e+02
-2.081449132604398677e+00 6.830998312092420122e+01 1.580000000000000000e+02
-1.081445291457693081e+00 6.930997927976272877e+01 1.580000000000000000e+02
-8.144145031098659615e-02 7.030997543860127053e+01 1.580000000000000000e+02
9.185623908357198886e-01 7.130997159743981229e+01 1.580000000000000000e+02
1.918566231982425485e+00 7.230996775627835405e+01 1.580000000000000000e+02
-6.081464497191223728e+00 6.430999848557003418e+01 1.590000000000000000e+02
-5.081460656044518132e+00 6.530999464440857594e+01 1.590000000000000000e+02
-4.081456814897810759e+00 6.630999080324711770e+01 1.590000000000000000e+02
-3.081452973751105162e+00 6.730998696208565946e+01 1.590000000000000000e+02
-2.081449132604398677e+00 6.830998312092420122e+01 1.590000000000000000e+02
-1.081445291457693081e+00 6.930997927976272877e+01 1.590000000000000000e+02
-8.144145031098659615e-02 7.030997543860127053e+01 1.590000000000000000e+02
9.185623908357198886e-01 7.130997159743981229e+01 1.590000000000000000e+02
1.918566231982425485e+00 7.230996775627835405e+01 1.590000000000000000e+02
-6.081464497191223728e+00 6.430999848557003418e+01 1.600000000000000000e+02
-5.081460656044518132e+00 6.530999464440857594e+01 1.600000000000000000e+02
-4.081456814897810759e+00 6.630999080324711770e+01 1.600000000000000000e+02
-3.081452973751105162e+00 6.730998696208565946e+01 1.600000000000000000e+02
-2.081449132604398677e+00 6.830998312092420122e+01 1.600000000000000000e+02
-1.081445291457693081e+00 6.930997927976272877e+01 1.600000000000000000e+02
-8.144145031098659615e-02 7.030997543860127053e+01 1.600000000000000000e+02
9.185623908357198886e-01 7.130997159743981229e+01 1.600000000000000000e+02
1.918566231982425485e+00 7.230996775627835405e+01 1.600000000000000000e+02
-6.081464497191223728e+00 6.430999848557003418e+01 1.610000000000000000e+02
-5.081460656044518132e+00 6.530999464440857594e+01 1.610000000000000000e+02
-4.081456814897810759e+00 6.630999080324711770e+01 1.610000000000000000e+02
-3.081452973751105162e+00 6.730998696208565946e+01 1.610000000000000000e+02
-2.081449132604398677e+00 6.830998312092420122e+01 1.610000000000000000e+02
-1.081445291457693081e+00 6.930997927976272877e+01 1.610000000000000000e+02
-8.144145031098659615e-02 7.030997543860127053e+01 1.610000000000000000e+02
9.185623908357198886e-01 7.130997159743981229e+01 1.610000000000000000e+02
1.918566231982425485e+00 7.230996775627835405e+01 1.610000000000000000e+02
-6.081464497191223728e+00 6.430999848557003418e+01 1.620000000000000000e+02
-5.081460656044518132e+00 6.530999464440857594e+01 1.620000000000000000e+02
-4.081456814897810759e+00 6.630999080324711770e+01 1.620000000000000000e+02
-3.081452973751105162e+00 6.730998696208565946e+01 1.620000000000000000e+02
-2.081449132604398677e+00 6.830998312092420122e+01 1.620000000000000000e+02
-1.081445291457693081e+00 6.930997927976272877e+01 1.620000000000000000e+02
-8.144145031098659615e-02 7.030997543860127053e+01 1.620000000000000000e+02
9.185623908357198886e-01 7.130997159743981229e+01 1.620000000000000000e+02
1.918566231982425485e+00 7.230996775627835405e+01 1.620000000000000000e+02
-6.081464497191223728e+00 6.430999848557003418e+01 1.630000000000000000e+02
-5.081460656044518132e+00 6.530999464440857594e+01 1.630000000000000000e+02
-4.081456814897810759e+00 6.630999080324711770e+01 1.630000000000000000e+02
-3.081452973751105162e+00 6.730998696208565946e+01 1.630000000000000000e+02
-2.081449132604398677e+00 6.830998312092420122e+01 1.630000000000000000e+02
-1.081445291457693081e+00 6.930997927976272877e+01 1.630000000000000000e+02
-8.144145031098659615e-02 7.030997543860127053e+01 1.630000000000000000e+02
9.185623908357198886e-01 7.130997159743981229e+01 1.630000000000000000e+02
1.918566231982425485e+00 7.230996775627835405e+01 1.630000000000000000e+02
2.918570073129131970e+00 7.330996391511689581e+01 1.630000000000000000e+02
-6.081464497191223728e+00 6.430999848557003418e+01 1.640000000000000000e+02
-5.081460656044518132e+00 6.530999464440857594e+01 1.640000000000000000e+02
-4.081456814897810759e+00 6.630999080324711770e+01 1.640000000000000000e+02
-3.081452973751105162e+00 6.730998696208565946e+01 1.640000000000000000e+02
-2.081449132604398677e+00 6.830998312092420122e+01 1.640000000000000000e+02
-1.081445291457693081e+00 6.930997927976272877e+01 1.640000000000000000e+02
-8.144145031098659615e-02 7.030997543860127053e+01 1.640000000000000000e+02
9.185623908357198886e-01 7.130997159743981229e+01 1.640000000000000000e+02
1.918566231982425485e+00 7.230996775627835405e+01 1.640000000000000000e+02
2.918570073129131970e+00 7.330996391511689581e+01 1.640000000000000000e+02
-6.081464497191223728e+00 6.430999848557003418e+01 1.650000000000000000e+02
-5.081460656044518132e+00 6.530999464440857594e+01 1.650000000000000000e+02
-4.081456814897810759e+00 6.630999080324711770e+01 1.650000000000000000e+02
-3.081452973751105162e+00 6.730998696208565946e+01 1.650000000000000000e+02
-2.081449132604398677e+00 6.830998312092420122e+01 1.650000000000000000e+02
-1.081445291457693081e+00 6.930997927976272877e+01 1.650000000000000000e+02
-8.144145031098659615e-02 7.030997543860127053e+01 1.650000000000000000e+02
9.185623908357198886e-01 7.130997159743981229e+01 1.650000000000000000e+02
1.918566231982425485e+00 7.230996775627835405e+01 1.650000000000000000e+02
2.918570073129131970e+00 7.330996391511689581e+01 1.650000000000000000e+02
-5.081464497198600938e+00 6.430999464441595137e+01 1.660000000000000000e+02
-4.081460656051895342e+00 6.530999080325449313e+01 1.660000000000000000e+02
-3.081456814905187969e+00 6.630998696209303489e+01 1.660000000000000000e+02
-2.081452973758482372e+00 6.730998312093157665e+01 1.660000000000000000e+02
-1.081449132611775887e+00 6.830997927977011841e+01 1.660000000000000000e+02
-8.144529146507029083e-02 6.930997543860864596e+01 1.660000000000000000e+02
9.185585496816361939e-01 7.030997159744718772e+01 1.660000000000000000e+02
1.918562390828342235e+00 7.130996775628572948e+01 1.660000000000000000e+02
2.918566231975048275e+00 7.230996391512427124e+01 1.660000000000000000e+02
-5.081464497198600938e+00 6.430999464441595137e+01 1.670000000000000000e+02
-4.081460656051895342e+00 6.530999080325449313e+01 1.670000000000000000e+02
-3.081456814905187969e+00 6.630998696209303489e+01 1.670000000000000000e+02
-2.081452973758482372e+00 6.730998312093157665e+01 1.670000000000000000e+02
-1.081449132611775887e+00 6.830997927977011841e+01 1.670000000000000000e+02
-8.144529146507029083e-02 6.930997543860864596e+01 1.670000000000000000e+02
9.185585496816361939e-01 7.030997159744718772e+01 1.670000000000000000e+02
1.918562390828342235e+00 7.130996775628572948e+01 1.670000000000000000e+02
2.918566231975048275e+00 7.230996391512427124e+01 1.670000000000000000e+02
-5.081464497198600938e+00 6.430999464441595137e+01 1.680000000000000000e+02
-4.081460656051895342e+00 6.530999080325449313e+01 1.680000000000000000e+02
-3.081456814905187969e+00 6.630998696209303489e+01 1.680000000000000000e+02
-2.081452973758482372e+00 6.730998312093157665e+01 1.680000000000000000e+02
-1.081449132611775887e+00 6.830997927977011841e+01 1.680000000000000000e+02
-8.144529146507029083e-02 6.930997543860864596e+01 1.680000000000000000e+02
9.185585496816361939e-01 7.030997159744718772e+01 1.680000000000000000e+02
1.918562390828342235e+00 7.130996775628572948e+01 1.680000000000000000e+02
2.918566231975048275e+00 7.230996391512427124e+01 1.680000000000000000e+02
-5.081464497198600938e+00 6.430999464441595137e+01 1.690000000000000000e+02
-4.081460656051895342e+00 6.530999080325449313e+01 1.690000000000000000e+02
-3.081456814905187969e+00 6.630998696209303489e+01 1.690000000000000000e+02
-2.081452973758482372e+00 6.730998312093157665e+01 1.690000000000000000e+02
-1.081449132611775887e+00 6.830997927977011841e+01 1.690000000000000000e+02
-8.144529146507029083e-02 6.930997543860864596e+01 1.690000000000000000e+02
9.185585496816361939e-01 7.030997159744718772e+01 1.690000000000000000e+02
1.918562390828342235e+00 7.130996775628572948e+01 1.690000000000000000e+02
2.918566231975048275e+00 7.230996391512427124e+01 1.690000000000000000e+02
-5.081464497198600938e+00 6.430999464441595137e+01 1.700000000000000000e+02
-4.081460656051895342e+00 6.530999080325449313e+01 1.700000000000000000e+02
-3.081456814905187969e+00 6.630998696209303489e+01 1.700000000000000000e+02
-2.081452973758482372e+00 6.730998312093157665e+01 1.700000000000000000e+02
-1.081449132611775887e+00 6.830997927977011841e+01 1.700000000000000000e+02
-8.144529146507029083e-02 6.930997543860864596e+01 1.700000000000000000e+02
9.185585496816361939e-01 7.030997159744718772e+01 1.700000000000000000e+02
1.918562390828342235e+00 7.130996775628572948e+01 1.700000000000000000e+02
2.918566231975048275e+00 7.230996391512427124e+01 1.700000000000000000e+02
-5.081464497198600938e+00 6.430999464441595137e+01 1.710000000000000000e+02
-4.081460656051895342e+00 6.530999080325449313e+01 1.710000000000000000e+02
-3.081456814905187969e+00 6.630998696209303489e+01 1.710000000000000000e+02
-2.081452973758482372e+00 6.730998312093157665e+01 1.710000000000000000e+02
-1.081449132611775887e+00 6.830997927977011841e+01 1.710000000000000000e+02
-8.144529146507029083e-02 6.930997543860864596e+01 1.710000000000000000e+02
9.185585496816361939e-01 7.030997159744718772e+01 1.710000000000000000e+02
1.918562390828342235e+00 7.130996775628572948e+01 1.710000000000000000e+02
2.918566231975048275e+00 7.230996391512427124e+01 1.710000000000000000e+02
-5.081464497198600938e+00 6.430999464441595137e+01 1.720000000000000000e+02
-4.081460656051895342e+00 6.530999080325449313e+01 1.720000000000000000e+02
-3.081456814905187969e+00 6.630998696209303489e+01 1.720000000000000000e+02
-2.081452973758482372e+00 6.730998312093157665e+01 1.720000000000000000e+02
-1.081449132611775887e+00 6.830997927977011841e+01 1.720000000000000000e+02
-8.144529146507029083e-02 6.930997543860864596e+01 1.720000000000000000e+02
9.185585496816361939e-01 7.030997159744718772e+01 1.720000000000000000e+02
1.918562390828342235e+00 7.130996775628572948e+01 1.720000000000000000e+02
2.918566231975048275e+00 7.230996391512427124e+01 1.720000000000000000e+02
-5.081464497198600938e+00 6.430999464441595137e+01 1.730000000000000000e+02
-4.081460656051895342e+00 6.530999080325449313e+01 1.730000000000000000e+02
-3.081456814905187969e+00 6.630998696209303489e+01 1.730000000000000000e+02
-2.081452973758482372e+00 6.730998312093157665e+01 1.730000000000000000e+02
-1.081449132611775887e+00 6.830997927977011841e+01 1.730000000000000000e+02
-8.144529146507029083e-02 6.930997543860864596e+01 1.730000000000000000e+02
9.185585496816361939e-01 7.030997159744718772e+01 1.730000000000000000e+02
1.918562390828342235e+00 7.130996775628572948e+01 1.730000000000000000e+02
2.918566231975048275e+00 7.230996391512427124e+01 1.730000000000000000e+02
-5.081464497198600938e+00 6.430999464441595137e+01 1.740000000000000000e+02
-4.081460656051895342e+00 6.530999080325449313e+01 1.740000000000000000e+02
-3.081456814905187969e+00 6.630998696209303489e+01 1.740000000000000000e+02
-2.081452973758482372e+00 6.730998312093157665e+01 1.740000000000000000e+02
-1.081449132611775887e+00 6.830997927977011841e+01 1.740000000000000000e+02
-8.144529146507029083e-02 6.930997543860864596e+01 1.740000000000000000e+02
9.185585496816361939e-01 7.030997159744718772e+01 1.740000000000000000e+02
1.918562390828342235e+00 7.130996775628572948e+01 1.740000000000000000e+02
2.918566231975048275e+00 7.230996391512427124e+01 1.740000000000000000e+02
-5.081464497198600938e+00 6.430999464441595137e+01 1.750000000000000000e+02
-4.081460656051895342e+00 6.530999080325449313e+01 1.750000000000000000e+02
-3.081456814905187969e+00 6.630998696209303489e+01 1.750000000000000000e+02
-2.081452973758482372e+00 6.730998312093157665e+01 1.750000000000000000e+02
-1.081449132611775887e+00 6.830997927977011841e+01 1.750000000000000000e+02
-8.144529146507029083e-02 6.930997543860864596e+01 1.750000000000000000e+02
9.185585496816361939e-01 7.030997159744718772e+01 1.750000000000000000e+02
1.918562390828342235e+00 7.130996775628572948e+01 1.750000000000000000e+02
2.918566231975048275e+00 7.230996391512427124e+01 1.750000000000000000e+02
-5.081464497198600938e+00 6.430999464441595137e+01 1.760000000000000000e+02
-4.081460656051895342e+00 6.530999080325449313e+01 1.760000000000000000e+02
-3.081456814905187969e+00 6.630998696209303489e+01 1.760000000000000000e+02
-2.081452973758482372e+00 6.730998312093157665e+01 1.760000000000000000e+02
-1.081449132611775887e+00 6.830997927977011841e+01 1.760000000000000000e+02
-8.144529146507029083e-02 6.930997543860864596e+01 1.760000000000000000e+02
9.185585496816361939e-01 7.030997159744718772e+01 1.760000000000000000e+02
1.918562390828342235e+00 7.130996775628572948e+01 1.760000000000000000e+02
2.918566231975048275e+00 7.230996391512427124e+01 1.760000000000000000e+02
-5.081464497198600938e+00 6.430999464441595137e+01 1.770000000000000000e+02
-4.081460656051895342e+00 6.530999080325449313e+01 1.770000000000000000e+02
-3.081456814905187969e+00 6.630998696209303489e+01 1.770000000000000000e+02
-2.081452973758482372e+00 6.730998312093157665e+01 1.770000000000000000e+02
-1.081449132611775887e+00 6.830997927977011841e+01 1.770000000000000000e+02
-8.144529146507029083e-02 6.930997543860864596e+01 1.770000000000000000e+02
9.185585496816361939e-01 7.030997159744718772e+01 1.770000000000000000e+02
1.918562390828342235e+00 7.130996775628572948e+01 1.770000000000000000e+02
2.918566231975048275e+00 7.230996391512427124e+01 1.770000000000000000e+02
-5.081464497198600938e+00 6.430999464441595137e+01 1.780000000000000000e+02
-4.081460656051895342e+00 6.530999080325449313e+01 1.780000000000000000e+02
-3.081456814905187969e+00 6.630998696209303489e+01 1.780000000000000000e+02
-2.081452973758482372e+00 6.730998312093157665e+01 1.780000000000000000e+02
-1.081449132611775887e+00 6.830997927977011841e+01 1.780000000000000000e+02
-8.144529146507029083e-02 6.930997543860864596e+01 1.780000000000000000e+02
9.185585496816361939e-01 7.030997159744718772e+01 1.780000000000000000e+02
1.918562390828342235e+00 7.130996775628572948e+01 1.780000000000000000e+02
2.918566231975048275e+00 7.230996391512427124e+01 1.780000000000000000e+02
-6.081464497191223728e+00 6.430999848557003418e+01 1.790000000000000000e+02
-5.081460656044518132e+00 6.530999464440857594e+01 1.790000000000000000e+02
-4.081456814897810759e+00 6.630999080324711770e+01 1.790000000000000000e+02
-3.081452973751105162e+00 6.730998696208565946e+01 1.790000000000000000e+02
-2.081449132604398677e+00 6.830998312092420122e+01 1.790000000000000000e+02
-1.081445291457693081e+00 6.930997927976272877e+01 1.790000000000000000e+02
-8.144145031098659615e-02 7.030997543860127053e+01 1.790000000000000000e+02
9.185623908357198886e-01 7.130997159743981229e+01 1.790000000000000000e+02
1.918566231982425485e+00 7.230996775627835405e+01 1.790000000000000000e+02
2.918570073129131970e+00 7.330996391511689581e+01 1.790000000000000000e+02
-5.081464497198600938e+00 6.430999464441595137e+01 1.800000000000000000e+02
-4.081460656051895342e+00 6.530999080325449313e+01 1.800000000000000000e+02
-3.081456814905187969e+00 6.630998696209303489e+01 1.800000000000000000e+02
-2.081452973758482372e+00 6.730998312093157665e+01 1.800000000000000000e+02
-1.081449132611775887e+00 6.830997927977011841e+01 1.800000000000000000e+02
-8.144529146507029083e-02 6.930997543860864596e+01 1.800000000000000000e+02
9.185585496816361939e-01 7.030997159744718772e+01 1.800000000000000000e+02
1.918562390828342235e+00 7.130996775628572948e+01 1.800000000000000000e+02
2.918566231975048275e+00 7.230996391512427124e+01 1.800000000000000000e+02
3.918570073121754760e+00 7.330996007396281300e+01 1.800000000000000000e+02
-5.081464497198600938e+00 6.430999464441595137e+01 1.810000000000000000e+02
-4.081460656051895342e+00 6.530999080325449313e+01 1.810000000000000000e+02
-3.081456814905187969e+00 6.630998696209303489e+01 1.810000000000000000e+02
-2.081452973758482372e+00 6.730998312093157665e+01 1.810000000000000000e+02
-1.081449132611775887e+00 6.830997927977011841e+01 1.810000000000000000e+02
-8.144529146507029083e-02 6.930997543860864596e+01 1.810000000000000000e+02
9.185585496816361939e-01 7.030997159744718772e+01 1.810000000000000000e+02
1.918562390828342235e+00 7.130996775628572948e+01 1.810000000000000000e+02
2.918566231975048275e+00 7.230996391512427124e+01 1.810000000000000000e+02
-5.081464497198600938e+00 6.430999464441595137e+01 1.820000000000000000e+02
-4.081460656051895342e+00 6.530999080325449313e+01 1.820000000000000000e+02
-3.081456814905187969e+00 6.630998696209303489e+01 1.820000000000000000e+02
-2.081452973758482372e+00 6.730998312093157665e+01 1.820000000000000000e+02
-1.081449132611775887e+00 6.830997927977011841e+01 1.820000000000000000e+02
-8.144529146507029083e-02 6.930997543860864596e+01 1.820000000000000000e+02
9.185585496816361939e-01 7.030997159744718772e+01 1.820000000000000000e+02
1.918562390828342235e+00 7.130996775628572948e+01 1.820000000000000000e+02
2.918566231975048275e+00 7.230996391512427124e+01 1.820000000000000000e+02
3.918570073121754760e+00 7.330996007396281300e+01 1.820000000000000000e+02
-5.081464497198600938e+00 6.430999464441595137e+01 1.830000000000000000e+02
-4.081460656051895342e+00 6.530999080325449313e+01 1.830000000000000000e+02
-3.081456814905187969e+00 6.630998696209303489e+01 1.830000000000000000e+02
-2.081452973758482372e+00 6.730998312093157665e+01 1.830000000000000000e+02
-1.081449132611775887e+00 6.830997927977011841e+01 1.830000000000000000e+02
-8.144529146507029083e-02 6.930997543860864596e+01 1.830000000000000000e+02
9.185585496816361939e-01 7.030997159744718772e+01 1.830000000000000000e+02
1.918562390828342235e+00 7.130996775628572948e+01 1.830000000000000000e+02
2.918566231975048275e+00 7.230996391512427124e+01 1.830000000000000000e+02
3.918570073121754760e+00 7.330996007396281300e+01 1.830000000000000000e+02
-5.081464497198600938e+00 6.430999464441595137e+01 1.840000000000000000e+02
-4.081460656051895342e+00 6.530999080325449313e+01 1.840000000000000000e+02
-3.081456814905187969e+00 6.630998696209303489e+01 1.840000000000000000e+02
-2.081452973758482372e+00 6.730998312093157665e+01 1.840000000000000000e+02
-1.081449132611775887e+00 6.830997927977011841e+01 1.840000000000000000e+02
-8.144529146507029083e-02 6.930997543860864596e+01 1.840000000000000000e+02
9.185585496816361939e-01 7.030997159744718772e+01 1.840000000000000000e+02
1.918562390828342235e+00 7.130996775628572948e+01 1.840000000000000000e+02
2.918566231975048275e+00 7.230996391512427124e+01 1.840000000000000000e+02
3.918570073121754760e+00 7.330996007396281300e+01 1.840000000000000000e+02
-5.081464497198600938e+00 6.430999464441595137e+01 1.850000000000000000e+02
-4.081460656051895342e+00 6.530999080325449313e+01 1.850000000000000000e+02
-3.081456814905187969e+00 6.630998696209303489e+01 1.850000000000000000e+02
-2.081452973758482372e+00 6.730998312093157665e+01 1.850000000000000000e+02
-1.081449132611775887e+00 6.830997927977011841e+01 1.850000000000000000e+02
-8.144529146507029083e-02 6.930997543860864596e+01 1.850000000000000000e+02
9.185585496816361939e-01 7.030997159744718772e+01 1.850000000000000000e+02
1.918562390828342235e+00 7.130996775628572948e+01 1.850000000000000000e+02
2.918566231975048275e+00 7.230996391512427124e+01 1.850000000000000000e+02
3.918570073121754760e+00 7.330996007396281300e+01 1.850000000000000000e+02
-5.081464497198600938e+00 6.430999464441595137e+01 1.860000000000000000e+02
-4.081460656051895342e+00 6.530999080325449313e+01 1.860000000000000000e+02
-3.081456814905187969e+00 6.630998696209303489e+01 1.860000000000000000e+02
-2.081452973758482372e+00 6.730998312093157665e+01 1.860000000000000000e+02
-1.081449132611775887e+00 6.830997927977011841e+01 1.860000000000000000e+02
-8.144529146507029083e-02 6.930997543860864596e+01 1.860000000000000000e+02
9.185585496816361939e-01 7.030997159744718772e+01 1.860000000000000000e+02
1.918562390828342235e+00 7.130996775628572948e+01 1.860000000000000000e+02
2.918566231975048275e+00 7.230996391512427124e+01 1.860000000000000000e+02
3.918570073121754760e+00 7.330996007396281300e+01 1.860000000000000000e+02
-5.081464497198600938e+00 6.430999464441595137e+01 1.870000000000000000e+02
-4.081460656051895342e+00 6.530999080325449313e+01 1.870000000000000000e+02
-3.081456814905187969e+00 6.630998696209303489e+01 1.870000000000000000e+02
-2.081452973758482372e+00 6.730998312093157665e+01 1.870000000000000000e+02
-1.081449132611775887e+00 6.830997927977011841e+01 1.870000000000000000e+02
-8.144529146507029083e-02 6.930997543860864596e+01 1.870000000000000000e+02
9.185585496816361939e-01 7.030997159744718772e+01 1.870000000000000000e+02
1.918562390828342235e+00 7.130996775628572948e+01 1.870000000000000000e+02
2.918566231975048275e+00 7.230996391512427124e+01 1.870000000000000000e+02
3.918570073121754760e+00 7.330996007396281300e+01 1.870000000000000000e+02
-5.081464497198600938e+00 6.430999464441595137e+01 1.880000000000000000e+02
-4.081460656051895342e+00 6.530999080325449313e+01 1.880000000000000000e+02
-3.081456814905187969e+00 6.630998696209303489e+01 1.880000000000000000e+02
-2.081452973758482372e+00 6.730998312093157665e+01 1.880000000000000000e+02
-1.081449132611775887e+00 6.830997927977011841e+01 1.880000000000000000e+02
-8.144529146507029083e-02 6.930997543860864596e+01 1.880000000000000000e+02
9.185585496816361939e-01 7.030997159744718772e+01 1.880000000000000000e+02
1.918562390828342235e+00 7.130996775628572948e+01 1.880000000000000000e+02
2.918566231975048275e+00 7.230996391512427124e+01 1.880000000000000000e+02
3.918570073121754760e+00 7.330996007396281300e+01 1.880000000000000000e+02
-5.081464497198600938e+00 6.430999464441595137e+01 1.890000000000000000e+02
-4.081460656051895342e+00 6.530999080325449313e+01 1.890000000000000000e+02
-3.081456814905187969e+00 6.630998696209303489e+01 1.890000000000000000e+02
-2.081452973758482372e+00 6.730998312093157665e+01 1.890000000000000000e+02
-1.081449132611775887e+00 6.830997927977011841e+01 1.890000000000000000e+02
-8.144529146507029083e-02 6.930997543860864596e+01 1.890000000000000000e+02
9.185585496816361939e-01 7.030997159744718772e+01 1.890000000000000000e+02
1.918562390828342235e+00 7.130996775628572948e+01 1.890000000000000000e+02
2.918566231975048275e+00 7.230996391512427124e+01 1.890000000000000000e+02
3.918570073121754760e+00 7.330996007396281300e+01 1.890000000000000000e+02
-5.081464497198600938e+00 6.430999464441595137e+01 1.900000000000000000e+02
-4.081460656051895342e+00 6.530999080325449313e+01 1.900000000000000000e+02
-3.081456814905187969e+00 6.630998696209303489e+01 1.900000000000000000e+02
-2.081452973758482372e+00 6.730998312093157665e+01 1.900000000000000000e+02
-1.081449132611775887e+00 6.830997927977011841e+01 1.900000000000000000e+02
-8.144529146507029083e-02 6.930997543860864596e+01 1.900000000000000000e+02
9.185585496816361939e-01 7.030997159744718772e+01 1.900000000000000000e+02
1.918562390828342235e+00 7.130996775628572948e+01 1.900000000000000000e+02
2.918566231975048275e+00 7.230996391512427124e+01 1.900000000000000000e+02
3.918570073121754760e+00 7.330996007396281300e+01 1.900000000000000000e+02
-5.081464497198600938e+00 6.430999464441595137e+01 1.910000000000000000e+02
-4.081460656051895342e+00 6.530999080325449313e+01 1.910000000000000000e+02
-3.081456814905187969e+00 6.630998696209303489e+01 1.910000000000000000e+02
-2.081452973758482372e+00 6.730998312093157665e+01 1.910000000000000000e+02
-1.081449132611775887e+00 6.830997927977011841e+01 1.910000000000000000e+02
-8.144529146507029083e-02 6.930997543860864596e+01 1.910000000000000000e+02
9.185585496816361939e-01 7.030997159744718772e+01 1.910000000000000000e+02
1.918562390828342235e+00 7.130996775628572948e+01 1.910000000000000000e+02
2.918566231975048275e+00 7.230996391512427124e+01 1.910000000000000000e+02
3.918570073121754760e+00 7.330996007396281300e+01 1.910000000000000000e+02
-5.081464497198600938e+00 6.430999464441595137e+01 1.920000000000000000e+02
-4.081460656051895342e+00 6.530999080325449313e+01 1.920000000000000000e+02
-3.081456814905187969e+00 6.630998696209303489e+01 1.920000000000000000e+02
-2.081452973758482372e+00 6.730998312093157665e+01 1.920000000000000000e+02
-1.081449132611775887e+00 6.830997927977011841e+01 1.920000000000000000e+02
-8.144529146507029083e-02 6.930997543860864596e+01 1.920000000000000000e+02
9.185585496816361939e-01 7.030997159744718772e+01 1.920000000000000000e+02
1.918562390828342235e+00 7.130996775628572948e+01 1.920000000000000000e+02
2.918566231975048275e+00 7.230996391512427124e+01 1.920000000000000000e+02
3.918570073121754760e+00 7.330996007396281300e+01 1.920000000000000000e+02
-4.081464497205978148e+00 6.430999080326186856e+01 1.930000000000000000e+02
-3.081460656059272551e+00 6.530998696210041032e+01 1.930000000000000000e+02
-2.081456814912566067e+00 6.630998312093895208e+01 1.930000000000000000e+02
-1.081452973765859582e+00 6.730997927977749384e+01 1.930000000000000000e+02
-8.144913261915309732e-02 6.830997543861603560e+01 1.930000000000000000e+02
9.185547085275524992e-01 6.930997159745456315e+01 1.930000000000000000e+02
1.918558549674258984e+00 7.030996775629310491e+01 1.930000000000000000e+02
2.918562390820965025e+00 7.130996391513164667e+01 1.930000000000000000e+02
3.918566231967671065e+00 7.230996007397018843e+01 1.930000000000000000e+02
-4.081464497205978148e+00 6.430999080326186856e+01 1.940000000000000000e+02
-3.081460656059272551e+00 6.530998696210041032e+01 1.940000000000000000e+02
-2.081456814912566067e+00 6.630998312093895208e+01 1.940000000000000000e+02
-1.081452973765859582e+00 6.730997927977749384e+01 1.940000000000000000e+02
-8.144913261915309732e-02 6.830997543861603560e+01 1.940000000000000000e+02
9.185547085275524992e-01 6.930997159745456315e+01 1.940000000000000000e+02
1.918558549674258984e+00 7.030996775629310491e+01 1.940000000000000000e+02
2.918562390820965025e+00 7.130996391513164667e+01 1.940000000000000000e+02
3.918566231967671065e+00 7.230996007397018843e+01 1.940000000000000000e+02
-4.081464497205978148e+00 6.430999080326186856e+01 1.950000000000000000e+02
-3.081460656059272551e+00 6.530998696210041032e+01 1.950000000000000000e+02
-2.081456814912566067e+00 6.630998312093895208e+01 1.950000000000000000e+02
-1.081452973765859582e+00 6.730997927977749384e+01 1.950000000000000000e+02
-8.144913261915309732e-02 6.830997543861603560e+01 1.950000000000000000e+02
9.185547085275524992e-01 6.930997159745456315e+01 1.950000000000000000e+02
1.918558549674258984e+00 7.030996775629310491e+01 1.950000000000000000e+02
2.918562390820965025e+00 7.130996391513164667e+01 1.950000000000000000e+02
3.918566231967671065e+00 7.230996007397018843e+01 1.950000000000000000e+02
-4.081464497205978148e+00 6.430999080326186856e+01 1.960000000000000000e+02
-3.081460656059272551e+00 6.530998696210041032e+01 1.960000000000000000e+02
-2.081456814912566067e+00 6.630998312093895208e+01 1.960000000000000000e+02
-1.081452973765859582e+00 6.730997927977749384e+01 1.960000000000000000e+02
-8.144913261915309732e-02 6.830997543861603560e+01 1.960000000000000000e+02
9.185547085275524992e-01 6.930997159745456315e+01 1.960000000000000000e+02
1.918558549674258984e+00 7.030996775629310491e+01 1.960000000000000000e+02
2.918562390820965025e+00 7.130996391513164667e+01 1.960000000000000000e+02
3.918566231967671065e+00 7.230996007397018843e+01 1.960000000000000000e+02
-4.081464497205978148e+00 6.430999080326186856e+01 1.970000000000000000e+02
-3.081460656059272551e+00 6.530998696210041032e+01 1.970000000000000000e+02
-2.081456814912566067e+00 6.630998312093895208e+01 1.970000000000000000e+02
-1.081452973765859582e+00 6.730997927977749384e+01 1.970000000000000000e+02
-8.144913261915309732e-02 6.830997543861603560e+01 1.970000000000000000e+02
9.185547085275524992e-01 6.930997159745456315e+01 1.970000000000000000e+02
1.918558549674258984e+00 7.030996775629310491e+01 1.970000000000000000e+02
2.918562390820965025e+00 7.130996391513164667e+01 1.970000000000000000e+02
3.918566231967671065e+00 7.230996007397018843e+01 1.970000000000000000e+02
-5.081464497198600938e+00 6.430999464441595137e+01 1.980000000000000000e+02
-4.081460656051895342e+00 6.530999080325449313e+01 1.980000000000000000e+02
-3.081456814905187969e+00 6.630998696209303489e+01 1.980000000000000000e+02
-2.081452973758482372e+00 6.730998312093157665e+01 1.980000000000000000e+02
-1.081449132611775887e+00 6.830997927977011841e+01 1.980000000000000000e+02
-8.144529146507029083e-02 6.930997543860864596e+01 1.980000000000000000e+02
9.185585496816361939e-01 7.030997159744718772e+01 1.980000000000000000e+02
1.918562390828342235e+00 7.130996775628572948e+01 1.980000000000000000e+02
2.918566231975048275e+00 7.230996391512427124e+01 1.980000000000000000e+02
3.918570073121754760e+00 7.330996007396281300e+01 1.980000000000000000e+02
-5.081464497198600938e+00 6.430999464441595137e+01 1.990000000000000000e+02
-4.081460656051895342e+00 6.530999080325449313e+01 1.990000000000000000e+02
-3.081456814905187969e+00 6.630998696209303489e+01 1.990000000000000000e+02
-2.081452973758482372e+00 6.730998312093157665e+01 1.990000000000000000e+02
-1.081449132611775887e+00 6.830997927977011841e+01 1.990000000000000000e+02
-8.144529146507029083e-02 6.930997543860864596e+01 1.990000000000000000e+02
9.185585496816361939e-01 7.030997159744718772e+01 1.990000000000000000e+02
1.918562390828342235e+00 7.130996775628572948e+01 1.990000000000000000e+02
2.918566231975048275e+00 7.230996391512427124e+01 1.990000000000000000e+02
3.918570073121754760e+00 7.330996007396281300e+01 1.990000000000000000e+02
-5.081464497198600938e+00 6.430999464441595137e+01 2.000000000000000000e+02
-4.081460656051895342e+00 6.530999080325449313e+01 2.000000000000000000e+02
-3.081456814905187969e+00 6.630998696209303489e+01 2.000000000000000000e+02
-2.081452973758482372e+00 6.730998312093157665e+01 2.000000000000000000e+02
-1.081449132611775887e+00 6.830997927977011841e+01 2.000000000000000000e+02
-8.144529146507029083e-02 6.930997543860864596e+01 2.000000000000000000e+02
9.185585496816361939e-01 7.030997159744718772e+01 2.000000000000000000e+02
1.918562390828342235e+00 7.130996775628572948e+01 2.000000000000000000e+02
2.918566231975048275e+00 7.230996391512427124e+01 2.000000000000000000e+02
3.918570073121754760e+00 7.330996007396281300e+01 2.000000000000000000e+02
-5.081464497198600938e+00 6.430999464441595137e+01 2.010000000000000000e+02
-4.081460656051895342e+00 6.530999080325449313e+01 2.010000000000000000e+02
-3.081456814905187969e+00 6.630998696209303489e+01 2.010000000000000000e+02
-2.081452973758482372e+00 6.730998312093157665e+01 2.010000000000000000e+02
-1.081449132611775887e+00 6.830997927977011841e+01 2.010000000000000000e+02
-8.144529146507029083e-02 6.930997543860864596e+01 2.010000000000000000e+02
9.185585496816361939e-01 7.030997159744718772e+01 2.010000000000000000e+02
1.918562390828342235e+00 7.130996775628572948e+01 2.010000000000000000e+02
2.918566231975048275e+00 7.230996391512427124e+01 2.010000000000000000e+02
3.918570073121754760e+00 7.330996007396281300e+01 2.010000000000000000e+02
-5.081464497198600938e+00 6.430999464441595137e+01 2.020000000000000000e+02
-4.081460656051895342e+00 6.530999080325449313e+01 2.020000000000000000e+02
-3.081456814905187969e+00 6.630998696209303489e+01 2.020000000000000000e+02
-2.081452973758482372e+00 6.730998312093157665e+01 2.020000000000000000e+02
-1.081449132611775887e+00 6.830997927977011841e+01 2.020000000000000000e+02
-8.144529146507029083e-02 6.930997543860864596e+01 2.020000000000000000e+02
9.185585496816361939e-01 7.030997159744718772e+01 2.020000000000000000e+02
1.918562390828342235e+00 7.130996775628572948e+01 2.020000000000000000e+02
2.918566231975048275e+00 7.230996391512427124e+01 2.020000000000000000e+02
3.918570073121754760e+00 7.330996007396281300e+01 2.020000000000000000e+02
-4.081464497205978148e+00 6.430999080326186856e+01 2.030000000000000000e+02
-3.081460656059272551e+00 6.530998696210041032e+01 2.030000000000000000e+02
-2.081456814912566067e+00 6.630998312093895208e+01 2.030000000000000000e+02
-1.081452973765859582e+00 6.730997927977749384e+01 2.030000000000000000e+02
-8.144913261915309732e-02 6.830997543861603560e+01 2.030000000000000000e+02
9.185547085275524992e-01 6.930997159745456315e+01 2.030000000000000000e+02
1.918558549674258984e+00 7.030996775629310491e+01 2.030000000000000000e+02
2.918562390820965025e+00 7.130996391513164667e+01 2.030000000000000000e+02
3.918566231967671065e+00 7.230996007397018843e+01 2.030000000000000000e+02
-4.081464497205978148e+00 6.430999080326186856e+01 2.040000000000000000e+02
-3.081460656059272551e+00 6.530998696210041032e+01 2.040000000000000000e+02
-2.081456814912566067e+00 6.630998312093895208e+01 2.040000000000000000e+02
-1.081452973765859582e+00 6.730997927977749384e+01 2.040000000000000000e+02
-8.144913261915309732e-02 6.830997543861603560e+01 2.040000000000000000e+02
9.185547085275524992e-01 6.930997159745456315e+01 2.040000000000000000e+02
1.918558549674258984e+00 7.030996775629310491e+01 2.040000000000000000e+02
2.918562390820965025e+00 7.130996391513164667e+01 2.040000000000000000e+02
3.918566231967671065e+00 7.230996007397018843e+01 2.040000000000000000e+02
-4.081464497205978148e+00 6.430999080326186856e+01 2.050000000000000000e+02
-3.081460656059272551e+00 6.530998696210041032e+01 2.050000000000000000e+02
-2.081456814912566067e+00 6.630998312093895208e+01 2.050000000000000000e+02
-1.081452973765859582e+00 6.730997927977749384e+01 2.050000000000000000e+02
-8.144913261915309732e-02 6.830997543861603560e+01 2.050000000000000000e+02
9.185547085275524992e-01 6.930997159745456315e+01 2.050000000000000000e+02
1.918558549674258984e+00 7.030996775629310491e+01 2.050000000000000000e+02
2.918562390820965025e+00 7.130996391513164667e+01 2.050000000000000000e+02
3.918566231967671065e+00 7.230996007397018843e+01 2.050000000000000000e+02
-4.081464497205978148e+00 6.430999080326186856e+01 2.060000000000000000e+02
-3.081460656059272551e+00 6.530998696210041032e+01 2.060000000000000000e+02
-2.081456814912566067e+00 6.630998312093895208e+01 2.060000000000000000e+02
-1.081452973765859582e+00 6.730997927977749384e+01 2.060000000000000000e+02
-8.144913261915309732e-02 6.830997543861603560e+01 2.060000000000000000e+02
9.185547085275524992e-01 6.930997159745456315e+01 2.060000000000000000e+02
1.918558549674258984e+00 7.030996775629310491e+01 2.060000000000000000e+02
2.918562390820965025e+00 7.130996391513164667e+01 2.060000000000000000e+02
3.918566231967671065e+00 7.230996007397018843e+01 2.060000000000000000e+02
4.918570073114377550e+00 7.330995623280873019e+01 2.060000000000000000e+02
-4.081464497205978148e+00 6.430999080326186856e+01 2.070000000000000000e+02
-3.081460656059272551e+00 6.530998696210041032e+01 2.070000000000000000e+02
-2.081456814912566067e+00 6.630998312093895208e+01 2.070000000000000000e+02
-1.081452973765859582e+00 6.730997927977749384e+01 2.070000000000000000e+02
-8.144913261915309732e-02 6.830997543861603560e+01 2.070000000000000000e+02
9.185547085275524992e-01 6.930997159745456315e+01 2.070000000000000000e+02
1.918558549674258984e+00 7.030996775629310491e+01 2.070000000000000000e+02
2.918562390820965025e+00 7.130996391513164667e+01 2.070000000000000000e+02
3.918566231967671065e+00 7.230996007397018843e+01 2.070000000000000000e+02
4.918570073114377550e+00 7.330995623280873019e+01 2.070000000000000000e+02
-4.081464497205978148e+00 6.430999080326186856e+01 2.080000000000000000e+02
-3.081460656059272551e+00 6.530998696210041032e+01 2.080000000000000000e+02
-2.081456814912566067e+00 6.630998312093895208e+01 2.080000000000000000e+02
-1.081452973765859582e+00 6.730997927977749384e+01 2.080000000000000000e+02
-8.144913261915309732e-02 6.830997543861603560e+01 2.080000000000000000e+02
9.185547085275524992e-01 6.930997159745456315e+01 2.080000000000000000e+02
1.918558549674258984e+00 7.030996775629310491e+01 2.080000000000000000e+02
2.918562390820965025e+00 7.130996391513164667e+01 2.080000000000000000e+02
3.918566231967671065e+00 7.230996007397018843e+01 2.080000000000000000e+02
4.918570073114377550e+00 7.330995623280873019e+01 2.080000000000000000e+02
-4.081464497205978148e+00 6.430999080326186856e+01 2.090000000000000000e+02
-3.081460656059272551e+00 6.530998696210041032e+01 2.090000000000000000e+02
-2.081456814912566067e+00 6.630998312093895208e+01 2.090000000000000000e+02
-1.081452973765859582e+00 6.730997927977749384e+01 2.090000000000000000e+02
-8.144913261915309732e-02 6.830997543861603560e+01 2.090000000000000000e+02
9.185547085275524992e-01 6.930997159745456315e+01 2.090000000000000000e+02
1.918558549674258984e+00 7.030996775629310491e+01 2.090000000000000000e+02
2.918562390820965025e+00 7.130996391513164667e+01 2.090000000000000000e+02
3.918566231967671065e+00 7.230996007397018843e+01 2.090000000000000000e+02
4.918570073114377550e+00 7.330995623280873019e+01 2.090000000000000000e+02
-5.081464497198600938e+00 6.430999464441595137e+01 2.100000000000000000e+02
-4.081460656051895342e+00 6.530999080325449313e+01 2.100000000000000000e+02
-3.081456814905187969e+00 6.630998696209303489e+01 2.100000000000000000e+02
-2.081452973758482372e+00 6.730998312093157665e+01 2.100000000000000000e+02
-1.081449132611775887e+00 6.830997927977011841e+01 2.100000000000000000e+02
-8.144529146507029083e-02 6.930997543860864596e+01 2.100000000000000000e+02
9.185585496816361939e-01 7.030997159744718772e+01 2.100000000000000000e+02
1.918562390828342235e+00 7.130996775628572948e+01 2.100000000000000000e+02
2.918566231975048275e+00 7.230996391512427124e+01 2.100000000000000000e+02
3.918570073121754760e+00 7.330996007396281300e+01 2.100000000000000000e+02
-4.081464497205978148e+00 6.430999080326186856e+01 2.110000000000000000e+02
-3.081460656059272551e+00 6.530998696210041032e+01 2.110000000000000000e+02
-2.081456814912566067e+00 6.630998312093895208e+01 2.110000000000000000e+02
-1.081452973765859582e+00 6.730997927977749384e+01 2.110000000000000000e+02
-8.144913261915309732e-02 6.830997543861603560e+01 2.110000000000000000e+02
9.185547085275524992e-01 6.930997159745456315e+01 2.110000000000000000e+02
1.918558549674258984e+00 7.030996775629310491e+01 2.110000000000000000e+02
2.918562390820965025e+00 7.130996391513164667e+01 2.110000000000000000e+02
3.918566231967671065e+00 7.230996007397018843e+01 2.110000000000000000e+02
-5.081464497198600938e+00 6.430999464441595137e+01 2.120000000000000000e+02
-4.081460656051895342e+00 6.530999080325449313e+01 2.120000000000000000e+02
-3.081456814905187969e+00 6.630998696209303489e+01 2.120000000000000000e+02
-2.081452973758482372e+00 6.730998312093157665e+01 2.120000000000000000e+02
-1.081449132611775887e+00 6.830997927977011841e+01 2.120000000000000000e+02
-8.144529146507029083e-02 6.930997543860864596e+01 2.120000000000000000e+02
9.185585496816361939e-01 7.030997159744718772e+01 2.120000000000000000e+02
1.918562390828342235e+00 7.130996775628572948e+01 2.120000000000000000e+02
2.918566231975048275e+00 7.230996391512427124e+01 2.120000000000000000e+02
3.918570073121754760e+00 7.330996007396281300e+01 2.120000000000000000e+02
-5.081464497198600938e+00 6.430999464441595137e+01 2.130000000000000000e+02
-4.081460656051895342e+00 6.530999080325449313e+01 2.130000000000000000e+02
-3.081456814905187969e+00 6.630998696209303489e+01 2.130000000000000000e+02
-2.081452973758482372e+00 6.730998312093157665e+01 2.130000000000000000e+02
-1.081449132611775887e+00 6.830997927977011841e+01 2.130000000000000000e+02
-8.144529146507029083e-02 6.930997543860864596e+01 2.130000000000000000e+02
9.185585496816361939e-01 7.030997159744718772e+01 2.130000000000000000e+02
1.918562390828342235e+00 7.130996775628572948e+01 2.130000000000000000e+02
2.918566231975048275e+00 7.230996391512427124e+01 2.130000000000000000e+02
3.918570073121754760e+00 7.330996007396281300e+01 2.130000000000000000e+02
-5.081464497198600938e+00 6.430999464441595137e+01 2.140000000000000000e+02
-4.081460656051895342e+00 6.530999080325449313e+01 2.140000000000000000e+02
-3.081456814905187969e+00 6.630998696209303489e+01 2.140000000000000000e+02
-2.081452973758482372e+00 6.730998312093157665e+01 2.140000000000000000e+02
-1.081449132611775887e+00 6.830997927977011841e+01 2.140000000000000000e+02
-8.144529146507029083e-02 6.930997543860864596e+01 2.140000000000000000e+02
9.185585496816361939e-01 7.030997159744718772e+01 2.140000000000000000e+02
1.918562390828342235e+00 7.130996775628572948e+01 2.140000000000000000e+02
2.918566231975048275e+00 7.230996391512427124e+01 2.140000000000000000e+02
3.918570073121754760e+00 7.330996007396281300e+01 2.140000000000000000e+02
-5.081464497198600938e+00 6.430999464441595137e+01 2.150000000000000000e+02
-4.081460656051895342e+00 6.530999080325449313e+01 2.150000000000000000e+02
-3.081456814905187969e+00 6.630998696209303489e+01 2.150000000000000000e+02
-2.081452973758482372e+00 6.730998312093157665e+01 2.150000000000000000e+02
-1.081449132611775887e+00 6.830997927977011841e+01 2.150000000000000000e+02
-8.144529146507029083e-02 6.930997543860864596e+01 2.150000000000000000e+02
9.185585496816361939e-01 7.030997159744718772e+01 2.150000000000000000e+02
1.918562390828342235e+00 7.130996775628572948e+01 2.150000000000000000e+02
2.918566231975048275e+00 7.230996391512427124e+01 2.150000000000000000e+02
3.918570073121754760e+00 7.330996007396281300e+01 2.150000000000000000e+02
4.918573914268460356e+00 7.430995623280135476e+01 2.150000000000000000e+02
-4.081464497205978148e+00 6.430999080326186856e+01 2.160000000000000000e+02
-3.081460656059272551e+00 6.530998696210041032e+01 2.160000000000000000e+02
-2.081456814912566067e+00 6.630998312093895208e+01 2.160000000000000000e+02
-1.081452973765859582e+00 6.730997927977749384e+01 2.160000000000000000e+02
-8.144913261915309732e-02 6.830997543861603560e+01 2.160000000000000000e+02
9.185547085275524992e-01 6.930997159745456315e+01 2.160000000000000000e+02
1.918558549674258984e+00 7.030996775629310491e+01 2.160000000000000000e+02
2.918562390820965025e+00 7.130996391513164667e+01 2.160000000000000000e+02
3.918566231967671065e+00 7.230996007397018843e+01 2.160000000000000000e+02
4.918570073114377550e+00 7.330995623280873019e+01 2.160000000000000000e+02
-4.081464497205978148e+00 6.430999080326186856e+01 2.170000000000000000e+02
-3.081460656059272551e+00 6.530998696210041032e+01 2.170000000000000000e+02
-2.081456814912566067e+00 6.630998312093895208e+01 2.170000000000000000e+02
-1.081452973765859582e+00 6.730997927977749384e+01 2.170000000000000000e+02
-8.144913261915309732e-02 6.830997543861603560e+01 2.170000000000000000e+02
9.185547085275524992e-01 6.930997159745456315e+01 2.170000000000000000e+02
1.918558549674258984e+00 7.030996775629310491e+01 2.170000000000000000e+02
2.918562390820965025e+00 7.130996391513164667e+01 2.170000000000000000e+02
3.918566231967671065e+00 7.230996007397018843e+01 2.170000000000000000e+02
4.918570073114377550e+00 7.330995623280873019e+01 2.170000000000000000e+02
-4.081464497205978148e+00 6.430999080326186856e+01 2.180000000000000000e+02
-3.081460656059272551e+00 6.530998696210041032e+01 2.180000000000000000e+02
-2.081456814912566067e+00 6.630998312093895208e+01 2.180000000000000000e+02
-1.081452973765859582e+00 6.730997927977749384e+01 2.180000000000000000e+02
-8.144913261915309732e-02 6.830997543861603560e+01 2.180000000000000000e+02
9.185547085275524992e-01 6.930997159745456315e+01 2.180000000000000000e+02
1.918558549674258984e+00 7.030996775629310491e+01 2.180000000000000000e+02
2.918562390820965025e+00 7.130996391513164667e+01 2.180000000000000000e+02
3.918566231967671065e+00 7.230996007397018843e+01 2.180000000000000000e+02
-4.081464497205978148e+00 6.430999080326186856e+01 2.190000000000000000e+02
-3.081460656059272551e+00 6.530998696210041032e+01 2.190000000000000000e+02
-2.081456814912566067e+00 6.630998312093895208e+01 2.190000000000000000e+02
-1.081452973765859582e+00 6.730997927977749384e+01 2.190000000000000000e+02
-8.144913261915309732e-02 6.830997543861603560e+01 2.190000000000000000e+02
9.185547085275524992e-01 6.930997159745456315e+01 2.190000000000000000e+02
1.918558549674258984e+00 7.030996775629310491e+01 2.190000000000000000e+02
2.918562390820965025e+00 7.130996391513164667e+01 2.190000000000000000e+02
3.918566231967671065e+00 7.230996007397018843e+01 2.190000000000000000e+02
-4.081464497205978148e+00 6.430999080326186856e+01 2.200000000000000000e+02
-3.081460656059272551e+00 6.530998696210041032e+01 2.200000000000000000e+02
-2.081456814912566067e+00 6.630998312093895208e+01 2.200000000000000000e+02
-1.081452973765859582e+00 6.730997927977749384e+01 2.200000000000000000e+02
-8.144913261915309732e-02 6.830997543861603560e+01 2.200000000000000000e+02
9.185547085275524992e-01 6.930997159745456315e+01 2.200000000000000000e+02
1.918558549674258984e+00 7.030996775629310491e+01 2.200000000000000000e+02
2.918562390820965025e+00 7.130996391513164667e+01 2.200000000000000000e+02
