6.946012958964604245e+00 6.657189712902211909e+01 2.340000000000000000e+02
7.264142324757942859e+00 6.794986436615801040e+01 2.340000000000000000e+02
7.582271690551282362e+00 6.932783160329390171e+01 2.340000000000000000e+02
7.900401056344620976e+00 7.070579884042979302e+01 2.340000000000000000e+02
8.218530422137959590e+00 7.208376607756568433e+01 2.340000000000000000e+02
5.673495495791248899e+00 6.106002818047853964e+01 2.350000000000000000e+02
5.991624861584588402e+00 6.243799541761443095e+01 2.350000000000000000e+02
6.309754227377927016e+00 6.381596265475032936e+01 2.350000000000000000e+02
6.627883593171265630e+00 6.519392989188622778e+01 2.350000000000000000e+02
6.946012958964604245e+00 6.657189712902211909e+01 2.350000000000000000e+02
7.264142324757942859e+00 6.794986436615801040e+01 2.350000000000000000e+02
7.582271690551282362e+00 6.932783160329390171e+01 2.350000000000000000e+02
7.900401056344620976e+00 7.070579884042979302e+01 2.350000000000000000e+02
8.218530422137959590e+00 7.208376607756568433e+01 2.350000000000000000e+02
8.536659787931299093e+00 7.346173331470157564e+01 2.350000000000000000e+02
8.854789153724636819e+00 7.483970055183748116e+01 2.350000000000000000e+02
1.044543598269133078e+01 8.172953673751695192e+01 2.350000000000000000e+02
4.825447194326633493e+00 6.053010924480726374e+01 2.360000000000000000e+02
5.143576560119972108e+00 6.190807648194315504e+01 2.360000000000000000e+02
5.461705925913310722e+00 6.328604371907904635e+01 2.360000000000000000e+02
5.779835291706649336e+00 6.466401095621493766e+01 2.360000000000000000e+02
6.097964657499987950e+00 6.604197819335084318e+01 2.360000000000000000e+02
6.416094023293327453e+00 6.741994543048673449e+01 2.360000000000000000e+02
6.734223389086666067e+00 6.879791266762262580e+01 2.360000000000000000e+02
7.052352754880004682e+00 7.017587990475851711e+01 2.360000000000000000e+02
7.370482120673344184e+00 7.155384714189440842e+01 2.360000000000000000e+02
7.688611486466681910e+00 7.293181437903029973e+01 2.360000000000000000e+02
8.006740852260021413e+00 7.430978161616619104e+01 2.360000000000000000e+02
8.324870218053359139e+00 7.568774885330209656e+01 2.360000000000000000e+02
9.279258315433375870e+00 7.982165056470977049e+01 2.360000000000000000e+02
5.673495495791248899e+00 6.106002818047853964e+01 2.370000000000000000e+02
5.991624861584588402e+00 6.243799541761443095e+01 2.370000000000000000e+02
6.309754227377927016e+00 6.381596265475032936e+01 2.370000000000000000e+02
6.627883593171265630e+00 6.519392989188622778e+01 2.370000000000000000e+02
6.946012958964604245e+00 6.657189712902211909e+01 2.370000000000000000e+02
7.264142324757942859e+00 6.794986436615801040e+01 2.370000000000000000e+02
7.582271690551282362e+00 6.932783160329390171e+01 2.370000000000000000e+02
7.900401056344620976e+00 7.070579884042979302e+01 2.370000000000000000e+02
8.218530422137959590e+00 7.208376607756568433e+01 2.370000000000000000e+02
8.536659787931299093e+00 7.346173331470157564e+01 2.370000000000000000e+02
8.854789153724636819e+00 7.483970055183748116e+01 2.370000000000000000e+02
5.673495495791248899e+00 6.106002818047853964e+01 2.380000000000000000e+02
5.991624861584588402e+00 6.243799541761443095e+01 2.380000000000000000e+02
6.309754227377927016e+00 6.381596265475032936e+01 2.380000000000000000e+02
6.627883593171265630e+00 6.519392989188622778e+01 2.380000000000000000e+02
6.946012958964604245e+00 6.657189712902211909e+01 2.380000000000000000e+02
7.264142324757942859e+00 6.794986436615801040e+01 2.380000000000000000e+02
7.582271690551282362e+00 6.932783160329390171e+01 2.380000000000000000e+02
7.900401056344620976e+00 7.070579884042979302e+01 2.380000000000000000e+02
8.218530422137959590e+00 7.208376607756568433e+01 2.380000000000000000e+02
8.536659787931299093e+00 7.346173331470157564e+01 2.380000000000000000e+02
8.854789153724636819e+00 7.483970055183748116e+01 2.380000000000000000e+02
5.673495495791248899e+00 6.106002818047853964e+01 2.390000000000000000e+02
5.991624861584588402e+00 6.243799541761443095e+01 2.390000000000000000e+02
6.309754227377927016e+00 6.381596265475032936e+01 2.390000000000000000e+02
6.627883593171265630e+00 6.519392989188622778e+01 2.390000000000000000e+02
6.946012958964604245e+00 6.657189712902211909e+01 2.390000000000000000e+02
7.264142324757942859e+00 6.794986436615801040e+01 2.390000000000000000e+02
7.582271690551282362e+00 6.932783160329390171e+01 2.390000000000000000e+02
7.900401056344620976e+00 7.070579884042979302e+01 2.390000000000000000e+02
8.218530422137959590e+00 7.208376607756568433e+01 2.390000000000000000e+02
8.536659787931299093e+00 7.346173331470157564e+01 2.390000000000000000e+02
8.854789153724636819e+00 7.483970055183748116e+01 2.390000000000000000e+02
5.673495495791248899e+00 6.106002818047853964e+01 2.400000000000000000e+02
5.991624861584588402e+00 6.243799541761443095e+01 2.400000000000000000e+02
6.309754227377927016e+00 6.381596265475032936e+01 2.400000000000000000e+02
6.627883593171265630e+00 6.519392989188622778e+01 2.400000000000000000e+02
6.946012958964604245e+00 6.657189712902211909e+01 2.400000000000000000e+02
7.264142324757942859e+00 6.794986436615801040e+01 2.400000000000000000e+02
7.582271690551282362e+00 6.932783160329390171e+01 2.400000000000000000e+02
7.900401056344620976e+00 7.070579884042979302e+01 2.400000000000000000e+02
8.218530422137959590e+00 7.208376607756568433e+01 2.400000000000000000e+02
8.536659787931299093e+00 7.346173331470157564e+01 2.400000000000000000e+02
5.673495495791248899e+00 6.106002818047853964e+01 2.410000000000000000e+02
5.991624861584588402e+00 6.243799541761443095e+01 2.410000000000000000e+02
6.309754227377927016e+00 6.381596265475032936e+01 2.410000000000000000e+02
6.627883593171265630e+00 6.519392989188622778e+01 2.410000000000000000e+02
6.946012958964604245e+00 6.657189712902211909e+01 2.410000000000000000e+02
7.264142324757942859e+00 6.794986436615801040e+01 2.410000000000000000e+02
7.582271690551282362e+00 6.932783160329390171e+01 2.410000000000000000e+02
7.900401056344620976e+00 7.070579884042979302e+01 2.410000000000000000e+02
8.218530422137959590e+00 7.208376607756568433e+01 2.410000000000000000e+02
8.536659787931299093e+00 7.346173331470157564e+01 2.410000000000000000e+02
5.673495495791248899e+00 6.106002818047853964e+01 2.420000000000000000e+02
5.991624861584588402e+00 6.243799541761443095e+01 2.420000000000000000e+02
6.309754227377927016e+00 6.381596265475032936e+01 2.420000000000000000e+02
6.627883593171265630e+00 6.519392989188622778e+01 2.420000000000000000e+02
6.946012958964604245e+00 6.657189712902211909e+01 2.420000000000000000e+02
7.264142324757942859e+00 6.794986436615801040e+01 2.420000000000000000e+02
7.582271690551282362e+00 6.932783160329390171e+01 2.420000000000000000e+02
7.900401056344620976e+00 7.070579884042979302e+01 2.420000000000000000e+02
8.218530422137959590e+00 7.208376607756568433e+01 2.420000000000000000e+02
8.536659787931299093e+00 7.346173331470157564e+01 2.420000000000000000e+02
5.673495495791248899e+00 6.106002818047853964e+01 2.430000000000000000e+02
5.991624861584588402e+00 6.243799541761443095e+01 2.430000000000000000e+02
6.309754227377927016e+00 6.381596265475032936e+01 2.430000000000000000e+02
6.627883593171265630e+00 6.519392989188622778e+01 2.430000000000000000e+02
6.946012958964604245e+00 6.657189712902211909e+01 2.430000000000000000e+02
7.264142324757942859e+00 6.794986436615801040e+01 2.430000000000000000e+02
7.582271690551282362e+00 6.932783160329390171e+01 2.430000000000000000e+02
7.900401056344620976e+00 7.070579884042979302e+01 2.430000000000000000e+02
8.218530422137959590e+00 7.208376607756568433e+01 2.430000000000000000e+02
8.536659787931299093e+00 7.346173331470157564e+01 2.430000000000000000e+02
8.854789153724636819e+00 7.483970055183748116e+01 2.430000000000000000e+02
5.673495495791248899e+00 6.106002818047853964e+01 2.440000000000000000e+02
5.991624861584588402e+00 6.243799541761443095e+01 2.440000000000000000e+02
6.309754227377927016e+00 6.381596265475032936e+01 2.440000000000000000e+02
6.627883593171265630e+00 6.519392989188622778e+01 2.440000000000000000e+02
6.946012958964604245e+00 6.657189712902211909e+01 2.440000000000000000e+02
7.264142324757942859e+00 6.794986436615801040e+01 2.440000000000000000e+02
7.582271690551282362e+00 6.932783160329390171e+01 2.440000000000000000e+02
7.900401056344620976e+00 7.070579884042979302e+01 2.440000000000000000e+02
8.218530422137959590e+00 7.208376607756568433e+01 2.440000000000000000e+02
8.536659787931299093e+00 7.346173331470157564e+01 2.440000000000000000e+02
8.854789153724636819e+00 7.483970055183748116e+01 2.440000000000000000e+02
5.673495495791248899e+00 6.106002818047853964e+01 2.450000000000000000e+02
5.991624861584588402e+00 6.243799541761443095e+01 2.450000000000000000e+02
6.309754227377927016e+00 6.381596265475032936e+01 2.450000000000000000e+02
6.627883593171265630e+00 6.519392989188622778e+01 2.450000000000000000e+02
6.946012958964604245e+00 6.657189712902211909e+01 2.450000000000000000e+02
7.264142324757942859e+00 6.794986436615801040e+01 2.450000000000000000e+02
7.582271690551282362e+00 6.932783160329390171e+01 2.450000000000000000e+02
7.900401056344620976e+00 7.070579884042979302e+01 2.450000000000000000e+02
8.218530422137959590e+00 7.208376607756568433e+01 2.450000000000000000e+02
8.536659787931299093e+00 7.346173331470157564e+01 2.450000000000000000e+02
8.854789153724636819e+00 7.483970055183748116e+01 2.450000000000000000e+02
5.673495495791248899e+00 6.106002818047853964e+01 2.460000000000000000e+02
5.991624861584588402e+00 6.243799541761443095e+01 2.460000000000000000e+02
6.309754227377927016e+00 6.381596265475032936e+01 2.460000000000000000e+02
6.627883593171265630e+00 6.519392989188622778e+01 2.460000000000000000e+02
6.946012958964604245e+00 6.657189712902211909e+01 2.460000000000000000e+02
7.264142324757942859e+00 6.794986436615801040e+01 2.460000000000000000e+02
7.582271690551282362e+00 6.932783160329390171e+01 2.460000000000000000e+02
7.900401056344620976e+00 7.070579884042979302e+01 2.460000000000000000e+02
8.218530422137959590e+00 7.208376607756568433e+01 2.460000000000000000e+02
8.536659787931299093e+00 7.346173331470157564e+01 2.460000000000000000e+02
8.854789153724636819e+00 7.483970055183748116e+01 2.460000000000000000e+02
5.673495495791248899e+00 6.106002818047853964e+01 2.470000000000000000e+02
5.991624861584588402e+00 6.243799541761443095e+01 2.470000000000000000e+02
6.309754227377927016e+00 6.381596265475032936e+01 2.470000000000000000e+02
6.627883593171265630e+00 6.519392989188622778e+01 2.470000000000000000e+02
6.946012958964604245e+00 6.657189712902211909e+01 2.470000000000000000e+02
7.264142324757942859e+00 6.794986436615801040e+01 2.470000000000000000e+02
7.582271690551282362e+00 6.932783160329390171e+01 2.470000000000000000e+02
7.900401056344620976e+00 7.070579884042979302e+01 2.470000000000000000e+02
8.218530422137959590e+00 7.208376607756568433e+01 2.470000000000000000e+02
8.536659787931299093e+00 7.346173331470157564e+01 2.470000000000000000e+02
5.673495495791248899e+00 6.106002818047853964e+01 2.480000000000000000e+02
5.991624861584588402e+00 6.243799541761443095e+01 2.480000000000000000e+02
6.309754227377927016e+00 6.381596265475032936e+01 2.480000000000000000e+02
6.627883593171265630e+00 6.519392989188622778e+01 2.480000000000000000e+02
6.946012958964604245e+00 6.657189712902211909e+01 2.480000000000000000e+02
7.264142324757942859e+00 6.794986436615801040e+01 2.480000000000000000e+02
7.582271690551282362e+00 6.932783160329390171e+01 2.480000000000000000e+02
7.900401056344620976e+00 7.070579884042979302e+01 2.480000000000000000e+02
8.218530422137959590e+00 7.208376607756568433e+01 2.480000000000000000e+02
8.536659787931299093e+00 7.346173331470157564e+01 2.480000000000000000e+02
5.673495495791248899e+00 6.106002818047853964e+01 2.490000000000000000e+02
5.991624861584588402e+00 6.243799541761443095e+01 2.490000000000000000e+02
6.309754227377927016e+00 6.381596265475032936e+01 2.490000000000000000e+02
6.627883593171265630e+00 6.519392989188622778e+01 2.490000000000000000e+02
6.946012958964604245e+00 6.657189712902211909e+01 2.490000000000000000e+02
7.264142324757942859e+00 6.794986436615801040e+01 2.490000000000000000e+02
7.582271690551282362e+00 6.932783160329390171e+01 2.490000000000000000e+02
7.900401056344620976e+00 7.070579884042979302e+01 2.490000000000000000e+02
8.218530422137959590e+00 7.208376607756568433e+01 2.490000000000000000e+02
8.536659787931299093e+00 7.346173331470157564e+01 2.490000000000000000e+02
5.673495495791248899e+00 6.106002818047853964e+01 2.500000000000000000e+02
5.991624861584588402e+00 6.243799541761443095e+01 2.500000000000000000e+02
6.309754227377927016e+00 6.381596265475032936e+01 2.500000000000000000e+02
6.627883593171265630e+00 6.519392989188622778e+01 2.500000000000000000e+02
6.946012958964604245e+00 6.657189712902211909e+01 2.500000000000000000e+02
7.264142324757942859e+00 6.794986436615801040e+01 2.500000000000000000e+02
7.582271690551282362e+00 6.932783160329390171e+01 2.500000000000000000e+02
7.900401056344620976e+00 7.070579884042979302e+01 2.500000000000000000e+02
8.218530422137959590e+00 7.208376607756568433e+01 2.500000000000000000e+02
8.536659787931299093e+00 7.346173331470157564e+01 2.500000000000000000e+02
5.673495495791248899e+00 6.106002818047853964e+01 2.510000000000000000e+02
5.991624861584588402e+00 6.243799541761443095e+01 2.510000000000000000e+02
6.309754227377927016e+00 6.381596265475032936e+01 2.510000000000000000e+02
6.627883593171265630e+00 6.519392989188622778e+01 2.510000000000000000e+02
6.946012958964604245e+00 6.657189712902211909e+01 2.510000000000000000e+02
7.264142324757942859e+00 6.794986436615801040e+01 2.510000000000000000e+02
7.582271690551282362e+00 6.932783160329390171e+01 2.510000000000000000e+02
7.900401056344620976e+00 7.070579884042979302e+01 2.510000000000000000e+02
8.218530422137959590e+00 7.208376607756568433e+01 2.510000000000000000e+02
8.536659787931299093e+00 7.346173331470157564e+01 2.510000000000000000e+02
5.673495495791248899e+00 6.106002818047853964e+01 2.520000000000000000e+02
5.991624861584588402e+00 6.243799541761443095e+01 2.520000000000000000e+02
6.309754227377927016e+00 6.381596265475032936e+01 2.520000000000000000e+02
6.627883593171265630e+00 6.519392989188622778e+01 2.520000000000000000e+02
6.946012958964604245e+00 6.657189712902211909e+01 2.520000000000000000e+02
7.264142324757942859e+00 6.794986436615801040e+01 2.520000000000000000e+02
7.582271690551282362e+00 6.932783160329390171e+01 2.520000000000000000e+02
7.900401056344620976e+00 7.070579884042979302e+01 2.520000000000000000e+02
8.218530422137959590e+00 7.208376607756568433e+01 2.520000000000000000e+02
8.536659787931299093e+00 7.346173331470157564e+01 2.520000000000000000e+02
5.673495495791248899e+00 6.106002818047853964e+01 2.530000000000000000e+02
5.991624861584588402e+00 6.243799541761443095e+01 2.530000000000000000e+02
6.309754227377927016e+00 6.381596265475032936e+01 2.530000000000000000e+02
6.627883593171265630e+00 6.519392989188622778e+01 2.530000000000000000e+02
6.946012958964604245e+00 6.657189712902211909e+01 2.530000000000000000e+02
7.264142324757942859e+00 6.794986436615801040e+01 2.530000000000000000e+02
7.582271690551282362e+00 6.932783160329390171e+01 2.530000000000000000e+02
7.900401056344620976e+00 7.070579884042979302e+01 2.530000000000000000e+02
8.218530422137959590e+00 7.208376607756568433e+01 2.530000000000000000e+02
8.536659787931299093e+00 7.346173331470157564e+01 2.530000000000000000e+02
5.673495495791248899e+00 6.106002818047853964e+01 2.540000000000000000e+02
5.991624861584588402e+00 6.243799541761443095e+01 2.540000000000000000e+02
6.309754227377927016e+00 6.381596265475032936e+01 2.540000000000000000e+02
6.627883593171265630e+00 6.519392989188622778e+01 2.540000000000000000e+02
6.946012958964604245e+00 6.657189712902211909e+01 2.540000000000000000e+02
7.264142324757942859e+00 6.794986436615801040e+01 2.540000000000000000e+02
7.582271690551282362e+00 6.932783160329390171e+01 2.540000000000000000e+02
7.900401056344620976e+00 7.070579884042979302e+01 2.540000000000000000e+02
8.218530422137959590e+00 7.208376607756568433e+01 2.540000000000000000e+02
8.536659787931299093e+00 7.346173331470157564e+01 2.540000000000000000e+02
5.673495495791248899e+00 6.106002818047853964e+01 2.550000000000000000e+02
5.991624861584588402e+00 6.243799541761443095e+01 2.550000000000000000e+02
6.309754227377927016e+00 6.381596265475032936e+01 2.550000000000000000e+02
6.627883593171265630e+00 6.519392989188622778e+01 2.550000000000000000e+02
6.946012958964604245e+00 6.657189712902211909e+01 2.550000000000000000e+02
7.264142324757942859e+00 6.794986436615801040e+01 2.550000000000000000e+02
7.582271690551282362e+00 6.932783160329390171e+01 2.550000000000000000e+02
7.900401056344620976e+00 7.070579884042979302e+01 2.550000000000000000e+02
8.218530422137959590e+00 7.208376607756568433e+01 2.550000000000000000e+02
8.536659787931299093e+00 7.346173331470157564e+01 2.550000000000000000e+02
5.673495495791248899e+00 6.106002818047853964e+01 2.560000000000000000e+02
5.991624861584588402e+00 6.243799541761443095e+01 2.560000000000000000e+02
6.309754227377927016e+00 6.381596265475032936e+01 2.560000000000000000e+02
6.627883593171265630e+00 6.519392989188622778e+01 2.560000000000000000e+02
6.946012958964604245e+00 6.657189712902211909e+01 2.560000000000000000e+02
7.264142324757942859e+00 6.794986436615801040e+01 2.560000000000000000e+02
7.582271690551282362e+00 6.932783160329390171e+01 2.560000000000000000e+02
7.900401056344620976e+00 7.070579884042979302e+01 2.560000000000000000e+02
8.218530422137959590e+00 7.208376607756568433e+01 2.560000000000000000e+02
8.536659787931299093e+00 7.346173331470157564e+01 2.560000000000000000e+02
5.673495495791248899e+00 6.106002818047853964e+01 2.570000000000000000e+02
5.991624861584588402e+00 6.243799541761443095e+01 2.570000000000000000e+02
6.309754227377927016e+00 6.381596265475032936e+01 2.570000000000000000e+02
6.627883593171265630e+00 6.519392989188622778e+01 2.570000000000000000e+02
6.946012958964604245e+00 6.657189712902211909e+01 2.570000000000000000e+02
7.264142324757942859e+00 6.794986436615801040e+01 2.570000000000000000e+02
7.582271690551282362e+00 6.932783160329390171e+01 2.570000000000000000e+02
7.900401056344620976e+00 7.070579884042979302e+01 2.570000000000000000e+02
8.218530422137959590e+00 7.208376607756568433e+01 2.570000000000000000e+02
8.536659787931299093e+00 7.346173331470157564e+01 2.570000000000000000e+02
5.673495495791248899e+00 6.106002818047853964e+01 2.580000000000000000e+02
5.991624861584588402e+00 6.243799541761443095e+01 2.580000000000000000e+02
6.309754227377927016e+00 6.381596265475032936e+01 2.580000000000000000e+02
6.627883593171265630e+00 6.519392989188622778e+01 2.580000000000000000e+02
6.946012958964604245e+00 6.657189712902211909e+01 2.580000000000000000e+02
7.264142324757942859e+00 6.794986436615801040e+01 2.580000000000000000e+02
7.582271690551282362e+00 6.932783160329390171e+01 2.580000000000000000e+02
7.900401056344620976e+00 7.070579884042979302e+01 2.580000000000000000e+02
8.218530422137959590e+00 7.208376607756568433e+01 2.580000000000000000e+02
8.536659787931299093e+00 7.346173331470157564e+01 2.580000000000000000e+02
5.673495495791248899e+00 6.106002818047853964e+01 2.590000000000000000e+02
5.991624861584588402e+00 6.243799541761443095e+01 2.590000000000000000e+02
6.309754227377927016e+00 6.381596265475032936e+01 2.590000000000000000e+02
6.627883593171265630e+00 6.519392989188622778e+01 2.590000000000000000e+02
6.946012958964604245e+00 6.657189712902211909e+01 2.590000000000000000e+02
7.264142324757942859e+00 6.794986436615801040e+01 2.590000000000000000e+02
7.582271690551282362e+00 6.932783160329390171e+01 2.590000000000000000e+02
7.900401056344620976e+00 7.070579884042979302e+01 2.590000000000000000e+02
8.218530422137959590e+00 7.208376607756568433e+01 2.590000000000000000e+02
8.536659787931299093e+00 7.346173331470157564e+01 2.590000000000000000e+02
5.673495495791248899e+00 6.106002818047853964e+01 2.600000000000000000e+02
5.991624861584588402e+00 6.243799541761443095e+01 2.600000000000000000e+02
6.309754227377927016e+00 6.381596265475032936e+01 2.600000000000000000e+02
6.627883593171265630e+00 6.519392989188622778e+01 2.600000000000000000e+02
6.946012958964604245e+00 6.657189712902211909e+01 2.600000000000000000e+02
7.264142324757942859e+00 6.794986436615801040e+01 2.600000000000000000e+02
7.582271690551282362e+00 6.932783160329390171e+01 2.600000000000000000e+02
7.900401056344620976e+00 7.070579884042979302e+01 2.600000000000000000e+02
8.218530422137959590e+00 7.208376607756568433e+01 2.600000000000000000e+02
8.536659787931299093e+00 7.346173331470157564e+01 2.600000000000000000e+02
5.673495495791248899e+00 6.106002818047853964e+01 2.610000000000000000e+02
5.991624861584588402e+00 6.243799541761443095e+01 2.610000000000000000e+02
6.309754227377927016e+00 6.381596265475032936e+01 2.610000000000000000e+02
6.627883593171265630e+00 6.519392989188622778e+01 2.610000000000000000e+02
6.946012958964604245e+00 6.657189712902211909e+01 2.610000000000000000e+02
7.264142324757942859e+00 6.794986436615801040e+01 2.610000000000000000e+02
7.582271690551282362e+00 6.932783160329390171e+01 2.610000000000000000e+02
7.900401056344620976e+00 7.070579884042979302e+01 2.610000000000000000e+02
8.218530422137959590e+00 7.208376607756568433e+01 2.610000000000000000e+02
8.536659787931299093e+00 7.346173331470157564e+01 2.610000000000000000e+02
5.673495495791248899e+00 6.106002818047853964e+01 2.620000000000000000e+02
5.991624861584588402e+00 6.243799541761443095e+01 2.620000000000000000e+02
6.309754227377927016e+00 6.381596265475032936e+01 2.620000000000000000e+02
6.627883593171265630e+00 6.519392989188622778e+01 2.620000000000000000e+02
6.946012958964604245e+00 6.657189712902211909e+01 2.620000000000000000e+02
7.264142324757942859e+00 6.794986436615801040e+01 2.620000000000000000e+02
7.582271690551282362e+00 6.932783160329390171e+01 2.620000000000000000e+02
7.900401056344620976e+00 7.070579884042979302e+01 2.620000000000000000e+02
8.218530422137959590e+00 7.208376607756568433e+01 2.620000000000000000e+02
8.536659787931299093e+00 7.346173331470157564e+01 2.620000000000000000e+02
5.673495495791248899e+00 6.106002818047853964e+01 2.630000000000000000e+02
5.991624861584588402e+00 6.243799541761443095e+01 2.630000000000000000e+02
6.309754227377927016e+00 6.381596265475032936e+01 2.630000000000000000e+02
6.627883593171265630e+00 6.519392989188622778e+01 2.630000000000000000e+02
6.946012958964604245e+00 6.657189712902211909e+01 2.630000000000000000e+02
7.264142324757942859e+00 6.794986436615801040e+01 2.630000000000000000e+02
7.582271690551282362e+00 6.932783160329390171e+01 2.630000000000000000e+02
7.900401056344620976e+00 7.070579884042979302e+01 2.630000000000000000e+02
8.218530422137959590e+00 7.208376607756568433e+01 2.630000000000000000e+02
8.536659787931299093e+00 7.346173331470157564e+01 2.630000000000000000e+02
4.825447194326633493e+00 6.053010924480726374e+01 2.640000000000000000e+02
5.143576560119972108e+00 6.190807648194315504e+01 2.640000000000000000e+02
5.461705925913310722e+00 6.328604371907904635e+01 2.640000000000000000e+02
5.779835291706649336e+00 6.466401095621493766e+01 2.640000000000000000e+02
6.097964657499987950e+00 6.604197819335084318e+01 2.640000000000000000e+02
6.416094023293327453e+00 6.741994543048673449e+01 2.640000000000000000e+02
6.734223389086666067e+00 6.879791266762262580e+01 2.640000000000000000e+02
7.052352754880004682e+00 7.017587990475851711e+01 2.640000000000000000e+02
7.370482120673344184e+00 7.155384714189440842e+01 2.640000000000000000e+02
7.688611486466681910e+00 7.293181437903029973e+01 2.640000000000000000e+02
8.006740852260021413e+00 7.430978161616619104e+01 2.640000000000000000e+02
4.825447194326633493e+00 6.053010924480726374e+01 2.650000000000000000e+02
5.143576560119972108e+00 6.190807648194315504e+01 2.650000000000000000e+02
5.461705925913310722e+00 6.328604371907904635e+01 2.650000000000000000e+02
5.779835291706649336e+00 6.466401095621493766e+01 2.650000000000000000e+02
6.097964657499987950e+00 6.604197819335084318e+01 2.650000000000000000e+02
6.416094023293327453e+00 6.741994543048673449e+01 2.650000000000000000e+02
6.734223389086666067e+00 6.879791266762262580e+01 2.650000000000000000e+02
7.052352754880004682e+00 7.017587990475851711e+01 2.650000000000000000e+02
7.370482120673344184e+00 7.155384714189440842e+01 2.650000000000000000e+02
7.688611486466681910e+00 7.293181437903029973e+01 2.650000000000000000e+02
8.006740852260021413e+00 7.430978161616619104e+01 2.650000000000000000e+02
4.825447194326633493e+00 6.053010924480726374e+01 2.660000000000000000e+02
5.143576560119972108e+00 6.190807648194315504e+01 2.660000000000000000e+02
5.461705925913310722e+00 6.328604371907904635e+01 2.660000000000000000e+02
5.779835291706649336e+00 6.466401095621493766e+01 2.660000000000000000e+02
6.097964657499987950e+00 6.604197819335084318e+01 2.660000000000000000e+02
6.416094023293327453e+00 6.741994543048673449e+01 2.660000000000000000e+02
6.734223389086666067e+00 6.879791266762262580e+01 2.660000000000000000e+02
7.052352754880004682e+00 7.017587990475851711e+01 2.660000000000000000e+02
7.370482120673344184e+00 7.155384714189440842e+01 2.660000000000000000e+02
7.688611486466681910e+00 7.293181437903029973e+01 2.660000000000000000e+02
8.006740852260021413e+00 7.430978161616619104e+01 2.660000000000000000e+02
5.673495495791248899e+00 6.106002818047853964e+01 2.670000000000000000e+02
5.991624861584588402e+00 6.243799541761443095e+01 2.670000000000000000e+02
6.309754227377927016e+00 6.381596265475032936e+01 2.670000000000000000e+02
6.627883593171265630e+00 6.519392989188622778e+01 2.670000000000000000e+02
6.946012958964604245e+00 6.657189712902211909e+01 2.670000000000000000e+02
7.264142324757942859e+00 6.794986436615801040e+01 2.670000000000000000e+02
7.582271690551282362e+00 6.932783160329390171e+01 2.670000000000000000e+02
7.900401056344620976e+00 7.070579884042979302e+01 2.670000000000000000e+02
8.218530422137959590e+00 7.208376607756568433e+01 2.670000000000000000e+02
8.536659787931299093e+00 7.346173331470157564e+01 2.670000000000000000e+02
5.673495495791248899e+00 6.106002818047853964e+01 2.680000000000000000e+02
5.991624861584588402e+00 6.243799541761443095e+01 2.680000000000000000e+02
6.309754227377927016e+00 6.381596265475032936e+01 2.680000000000000000e+02
6.627883593171265630e+00 6.519392989188622778e+01 2.680000000000000000e+02
6.946012958964604245e+00 6.657189712902211909e+01 2.680000000000000000e+02
7.264142324757942859e+00 6.794986436615801040e+01 2.680000000000000000e+02
7.582271690551282362e+00 6.932783160329390171e+01 2.680000000000000000e+02
7.900401056344620976e+00 7.070579884042979302e+01 2.680000000000000000e+02
8.218530422137959590e+00 7.208376607756568433e+01 2.680000000000000000e+02
8.536659787931299093e+00 7.346173331470157564e+01 2.680000000000000000e+02
5.673495495791248899e+00 6.106002818047853964e+01 2.690000000000000000e+02
5.991624861584588402e+00 6.243799541761443095e+01 2.690000000000000000e+02
6.309754227377927016e+00 6.381596265475032936e+01 2.690000000000000000e+02
6.627883593171265630e+00 6.519392989188622778e+01 2.690000000000000000e+02
6.946012958964604245e+00 6.657189712902211909e+01 2.690000000000000000e+02
7.264142324757942859e+00 6.794986436615801040e+01 2.690000000000000000e+02
7.582271690551282362e+00 6.932783160329390171e+01 2.690000000000000000e+02
7.900401056344620976e+00 7.070579884042979302e+01 2.690000000000000000e+02
8.218530422137959590e+00 7.208376607756568433e+01 2.690000000000000000e+02
8.536659787931299093e+00 7.346173331470157564e+01 2.690000000000000000e+02
4.825447194326633493e+00 6.053010924480726374e+01 2.700000000000000000e+02
5.143576560119972108e+00 6.190807648194315504e+01 2.700000000000000000e+02
5.461705925913310722e+00 6.328604371907904635e+01 2.700000000000000000e+02
5.779835291706649336e+00 6.466401095621493766e+01 2.700000000000000000e+02
6.097964657499987950e+00 6.604197819335084318e+01 2.700000000000000000e+02
6.416094023293327453e+00 6.741994543048673449e+01 2.700000000000000000e+02
6.734223389086666067e+00 6.879791266762262580e+01 2.700000000000000000e+02
7.052352754880004682e+00 7.017587990475851711e+01 2.700000000000000000e+02
7.370482120673344184e+00 7.155384714189440842e+01 2.700000000000000000e+02
7.688611486466681910e+00 7.293181437903029973e+01 2.700000000000000000e+02
8.006740852260021413e+00 7.430978161616619104e+01 2.700000000000000000e+02
4.825447194326633493e+00 6.053010924480726374e+01 2.710000000000000000e+02
5.143576560119972108e+00 6.190807648194315504e+01 2.710000000000000000e+02
5.461705925913310722e+00 6.328604371907904635e+01 2.710000000000000000e+02
5.779835291706649336e+00 6.466401095621493766e+01 2.710000000000000000e+02
6.097964657499987950e+00 6.604197819335084318e+01 2.710000000000000000e+02
6.416094023293327453e+00 6.741994543048673449e+01 2.710000000000000000e+02
6.734223389086666067e+00 6.879791266762262580e+01 2.710000000000000000e+02
7.052352754880004682e+00 7.017587990475851711e+01 2.710000000000000000e+02
7.370482120673344184e+00 7.155384714189440842e+01 2.710000000000000000e+02
7.688611486466681910e+00 7.293181437903029973e+01 2.710000000000000000e+02
8.006740852260021413e+00 7.430978161616619104e+01 2.710000000000000000e+02
4.825447194326633493e+00 6.053010924480726374e+01 2.720000000000000000e+02
5.143576560119972108e+00 6.190807648194315504e+01 2.720000000000000000e+02
5.461705925913310722e+00 6.328604371907904635e+01 2.720000000000000000e+02
5.779835291706649336e+00 6.466401095621493766e+01 2.720000000000000000e+02
6.097964657499987950e+00 6.604197819335084318e+01 2.720000000000000000e+02
6.416094023293327453e+00 6.741994543048673449e+01 2.720000000000000000e+02
6.734223389086666067e+00 6.879791266762262580e+01 2.720000000000000000e+02
7.052352754880004682e+00 7.017587990475851711e+01 2.720000000000000000e+02
7.370482120673344184e+00 7.155384714189440842e+01 2.720000000000000000e+02
7.688611486466681910e+00 7.293181437903029973e+01 2.720000000000000000e+02
8.006740852260021413e+00 7.430978161616619104e+01 2.720000000000000000e+02
8.324870218053359139e+00 7.568774885330209656e+01 2.720000000000000000e+02
4.825447194326633493e+00 6.053010924480726374e+01 2.730000000000000000e+02
5.143576560119972108e+00 6.190807648194315504e+01 2.730000000000000000e+02
5.461705925913310722e+00 6.328604371907904635e+01 2.730000000000000000e+02
5.779835291706649336e+00 6.466401095621493766e+01 2.730000000000000000e+02
6.097964657499987950e+00 6.604197819335084318e+01 2.730000000000000000e+02
6.416094023293327453e+00 6.741994543048673449e+01 2.730000000000000000e+02
6.734223389086666067e+00 6.879791266762262580e+01 2.730000000000000000e+02
7.052352754880004682e+00 7.017587990475851711e+01 2.730000000000000000e+02
7.370482120673344184e+00 7.155384714189440842e+01 2.730000000000000000e+02
7.688611486466681910e+00 7.293181437903029973e+01 2.730000000000000000e+02
8.006740852260021413e+00 7.430978161616619104e+01 2.730000000000000000e+02
5.673495495791248899e+00 6.106002818047853964e+01 2.740000000000000000e+02
5.991624861584588402e+00 6.243799541761443095e+01 2.740000000000000000e+02
6.309754227377927016e+00 6.381596265475032936e+01 2.740000000000000000e+02
6.627883593171265630e+00 6.519392989188622778e+01 2.740000000000000000e+02
6.946012958964604245e+00 6.657189712902211909e+01 2.740000000000000000e+02
7.264142324757942859e+00 6.794986436615801040e+01 2.740000000000000000e+02
7.582271690551282362e+00 6.932783160329390171e+01 2.740000000000000000e+02
7.900401056344620976e+00 7.070579884042979302e+01 2.740000000000000000e+02
8.218530422137959590e+00 7.208376607756568433e+01 2.740000000000000000e+02
8.536659787931299093e+00 7.346173331470157564e+01 2.740000000000000000e+02
5.673495495791248899e+00 6.106002818047853964e+01 2.750000000000000000e+02
5.991624861584588402e+00 6.243799541761443095e+01 2.750000000000000000e+02
6.309754227377927016e+00 6.381596265475032936e+01 2.750000000000000000e+02
6.627883593171265630e+00 6.519392989188622778e+01 2.750000000000000000e+02
6.946012958964604245e+00 6.657189712902211909e+01 2.750000000000000000e+02
7.264142324757942859e+00 6.794986436615801040e+01 2.750000000000000000e+02
7.582271690551282362e+00 6.932783160329390171e+01 2.750000000000000000e+02
7.900401056344620976e+00 7.070579884042979302e+01 2.750000000000000000e+02
8.218530422137959590e+00 7.208376607756568433e+01 2.750000000000000000e+02
8.536659787931299093e+00 7.346173331470157564e+01 2.750000000000000000e+02
5.673495495791248899e+00 6.106002818047853964e+01 2.760000000000000000e+02
5.991624861584588402e+00 6.243799541761443095e+01 2.760000000000000000e+02
6.309754227377927016e+00 6.381596265475032936e+01 2.760000000000000000e+02
6.627883593171265630e+00 6.519392989188622778e+01 2.760000000000000000e+02
6.946012958964604245e+00 6.657189712902211909e+01 2.760000000000000000e+02
7.264142324757942859e+00 6.794986436615801040e+01 2.760000000000000000e+02
7.582271690551282362e+00 6.932783160329390171e+01 2.760000000000000000e+02
7.900401056344620976e+00 7.070579884042979302e+01 2.760000000000000000e+02
8.218530422137959590e+00 7.208376607756568433e+01 2.760000000000000000e+02
8.536659787931299093e+00 7.346173331470157564e+01 2.760000000000000000e+02
5.673495495791248899e+00 6.106002818047853964e+01 2.770000000000000000e+02
5.991624861584588402e+00 6.243799541761443095e+01 2.770000000000000000e+02
6.309754227377927016e+00 6.381596265475032936e+01 2.770000000000000000e+02
6.627883593171265630e+00 6.519392989188622778e+01 2.770000000000000000e+02
6.946012958964604245e+00 6.657189712902211909e+01 2.770000000000000000e+02
7.264142324757942859e+00 6.794986436615801040e+01 2.770000000000000000e+02
7.582271690551282362e+00 6.932783160329390171e+01 2.770000000000000000e+02
7.900401056344620976e+00 7.070579884042979302e+01 2.770000000000000000e+02
8.218530422137959590e+00 7.208376607756568433e+01 2.770000000000000000e+02
8.536659787931299093e+00 7.346173331470157564e+01 2.770000000000000000e+02
5.673495495791248899e+00 6.106002818047853964e+01 2.780000000000000000e+02
5.991624861584588402e+00 6.243799541761443095e+01 2.780000000000000000e+02
6.309754227377927016e+00 6.381596265475032936e+01 2.780000000000000000e+02
6.627883593171265630e+00 6.519392989188622778e+01 2.780000000000000000e+02
6.946012958964604245e+00 6.657189712902211909e+01 2.780000000000000000e+02
7.264142324757942859e+00 6.794986436615801040e+01 2.780000000000000000e+02
7.582271690551282362e+00 6.932783160329390171e+01 2.780000000000000000e+02
7.900401056344620976e+00 7.070579884042979302e+01 2.780000000000000000e+02
8.218530422137959590e+00 7.208376607756568433e+01 2.780000000000000000e+02
8.536659787931299093e+00 7.346173331470157564e+01 2.780000000000000000e+02
5.673495495791248899e+00 6.106002818047853964e+01 2.790000000000000000e+02
5.991624861584588402e+00 6.243799541761443095e+01 2.790000000000000000e+02
6.309754227377927016e+00 6.381596265475032936e+01 2.790000000000000000e+02
6.627883593171265630e+00 6.519392989188622778e+01 2.790000000000000000e+02
6.946012958964604245e+00 6.657189712902211909e+01 2.790000000000000000e+02
7.264142324757942859e+00 6.794986436615801040e+01 2.790000000000000000e+02
7.582271690551282362e+00 6.932783160329390171e+01 2.790000000000000000e+02
7.900401056344620976e+00 7.070579884042979302e+01 2.790000000000000000e+02
8.218530422137959590e+00 7.208376607756568433e+01 2.790000000000000000e+02
8.536659787931299093e+00 7.346173331470157564e+01 2.790000000000000000e+02
5.673495495791248899e+00 6.106002818047853964e+01 2.800000000000000000e+02
5.991624861584588402e+00 6.243799541761443095e+01 2.800000000000000000e+02
6.309754227377927016e+00 6.381596265475032936e+01 2.800000000000000000e+02
6.627883593171265630e+00 6.519392989188622778e+01 2.800000000000000000e+02
6.946012958964604245e+00 6.657189712902211909e+01 2.800000000000000000e+02
7.264142324757942859e+00 6.794986436615801040e+01 2.800000000000000000e+02
7.582271690551282362e+00 6.932783160329390171e+01 2.800000000000000000e+02
7.900401056344620976e+00 7.070579884042979302e+01 2.800000000000000000e+02
8.218530422137959590e+00 7.208376607756568433e+01 2.800000000000000000e+02
8.536659787931299093e+00 7.346173331470157564e+01 2.800000000000000000e+02
5.673495495791248899e+00 6.106002818047853964e+01 2.810000000000000000e+02
5.991624861584588402e+00 6.243799541761443095e+01 2.810000000000000000e+02
6.309754227377927016e+00 6.381596265475032936e+01 2.810000000000000000e+02
6.627883593171265630e+00 6.519392989188622778e+01 2.810000000000000000e+02
6.946012958964604245e+00 6.657189712902211909e+01 2.810000000000000000e+02
7.264142324757942859e+00 6.794986436615801040e+01 2.810000000000000000e+02
7.582271690551282362e+00 6.932783160329390171e+01 2.810000000000000000e+02
7.900401056344620976e+00 7.070579884042979302e+01 2.810000000000000000e+02
8.218530422137959590e+00 7.208376607756568433e+01 2.810000000000000000e+02
8.536659787931299093e+00 7.346173331470157564e+01 2.810000000000000000e+02
8.854789153724636819e+00 7.483970055183748116e+01 2.810000000000000000e+02
5.673495495791248899e+00 6.106002818047853964e+01 2.820000000000000000e+02
5.991624861584588402e+00 6.243799541761443095e+01 2.820000000000000000e+02
6.309754227377927016e+00 6.381596265475032936e+01 2.820000000000000000e+02
6.627883593171265630e+00 6.519392989188622778e+01 2.820000000000000000e+02
6.946012958964604245e+00 6.657189712902211909e+01 2.820000000000000000e+02
7.264142324757942859e+00 6.794986436615801040e+01 2.820000000000000000e+02
7.582271690551282362e+00 6.932783160329390171e+01 2.820000000000000000e+02
7.900401056344620976e+00 7.070579884042979302e+01 2.820000000000000000e+02
8.218530422137959590e+00 7.208376607756568433e+01 2.820000000000000000e+02
8.536659787931299093e+00 7.346173331470157564e+01 2.820000000000000000e+02
8.854789153724636819e+00 7.483970055183748116e+01 2.820000000000000000e+02
5.673495495791248899e+00 6.106002818047853964e+01 2.830000000000000000e+02
5.991624861584588402e+00 6.243799541761443095e+01 2.830000000000000000e+02
6.309754227377927016e+00 6.381596265475032936e+01 2.830000000000000000e+02
6.627883593171265630e+00 6.519392989188622778e+01 2.830000000000000000e+02
6.946012958964604245e+00 6.657189712902211909e+01 2.830000000000000000e+02
7.264142324757942859e+00 6.794986436615801040e+01 2.830000000000000000e+02
7.582271690551282362e+00 6.932783160329390171e+01 2.830000000000000000e+02
7.900401056344620976e+00 7.070579884042979302e+01 2.830000000000000000e+02
8.218530422137959590e+00 7.208376607756568433e+01 2.830000000000000000e+02
8.536659787931299093e+00 7.346173331470157564e+01 2.830000000000000000e+02
5.673495495791248899e+00 6.106002818047853964e+01 2.840000000000000000e+02
5.991624861584588402e+00 6.243799541761443095e+01 2.840000000000000000e+02
6.309754227377927016e+00 6.381596265475032936e+01 2.840000000000000000e+02
6.627883593171265630e+00 6.519392989188622778e+01 2.840000000000000000e+02
6.946012958964604245e+00 6.657189712902211909e+01 2.840000000000000000e+02
7.264142324757942859e+00 6.794986436615801040e+01 2.840000000000000000e+02
7.582271690551282362e+00 6.932783160329390171e+01 2.840000000000000000e+02
7.900401056344620976e+00 7.070579884042979302e+01 2.840000000000000000e+02
8.218530422137959590e+00 7.208376607756568433e+01 2.840000000000000000e+02
8.536659787931299093e+00 7.346173331470157564e+01 2.840000000000000000e+02
5.673495495791248899e+00 6.106002818047853964e+01 2.850000000000000000e+02
5.991624861584588402e+00 6.243799541761443095e+01 2.850000000000000000e+02
6.309754227377927016e+00 6.381596265475032936e+01 2.850000000000000000e+02
6.627883593171265630e+00 6.519392989188622778e+01 2.850000000000000000e+02
6.946012958964604245e+00 6.657189712902211909e+01 2.850000000000000000e+02
7.264142324757942859e+00 6.794986436615801040e+01 2.850000000000000000e+02
7.582271690551282362e+00 6.932783160329390171e+01 2.850000000000000000e+02
7.900401056344620976e+00 7.070579884042979302e+01 2.850000000000000000e+02
8.218530422137959590e+00 7.208376607756568433e+01 2.850000000000000000e+02
8.536659787931299093e+00 7.346173331470157564e+01 2.850000000000000000e+02
5.673495495791248899e+00 6.106002818047853964e+01 2.860000000000000000e+02
5.991624861584588402e+00 6.243799541761443095e+01 2.860000000000000000e+02
6.309754227377927016e+00 6.381596265475032936e+01 2.860000000000000000e+02
6.627883593171265630e+00 6.519392989188622778e+01 2.860000000000000000e+02
6.946012958964604245e+00 6.657189712902211909e+01 2.860000000000000000e+02
7.264142324757942859e+00 6.794986436615801040e+01 2.860000000000000000e+02
7.582271690551282362e+00 6.932783160329390171e+01 2.860000000000000000e+02
7.900401056344620976e+00 7.070579884042979302e+01 2.860000000000000000e+02
8.218530422137959590e+00 7.208376607756568433e+01 2.860000000000000000e+02
8.536659787931299093e+00 7.346173331470157564e+01 2.860000000000000000e+02
4.825447194326633493e+00 6.053010924480726374e+01 2.870000000000000000e+02
5.143576560119972108e+00 6.190807648194315504e+01 2.870000000000000000e+02
5.461705925913310722e+00 6.328604371907904635e+01 2.870000000000000000e+02
5.779835291706649336e+00 6.466401095621493766e+01 2.870000000000000000e+02
6.097964657499987950e+00 6.604197819335084318e+01 2.870000000000000000e+02
6.416094023293327453e+00 6.741994543048673449e+01 2.870000000000000000e+02
6.734223389086666067e+00 6.879791266762262580e+01 2.870000000000000000e+02
7.052352754880004682e+00 7.017587990475851711e+01 2.870000000000000000e+02
7.370482120673344184e+00 7.155384714189440842e+01 2.870000000000000000e+02
7.688611486466681910e+00 7.293181437903029973e+01 2.870000000000000000e+02
8.006740852260021413e+00 7.430978161616619104e+01 2.870000000000000000e+02
4.825447194326633493e+00 6.053010924480726374e+01 2.880000000000000000e+02
5.143576560119972108e+00 6.190807648194315504e+01 2.880000000000000000e+02
5.461705925913310722e+00 6.328604371907904635e+01 2.880000000000000000e+02
5.779835291706649336e+00 6.466401095621493766e+01 2.880000000000000000e+02
6.097964657499987950e+00 6.604197819335084318e+01 2.880000000000000000e+02
6.416094023293327453e+00 6.741994543048673449e+01 2.880000000000000000e+02
6.734223389086666067e+00 6.879791266762262580e+01 2.880000000000000000e+02
7.052352754880004682e+00 7.017587990475851711e+01 2.880000000000000000e+02
7.370482120673344184e+00 7.155384714189440842e+01 2.880000000000000000e+02
7.688611486466681910e+00 7.293181437903029973e+01 2.880000000000000000e+02
8.006740852260021413e+00 7.430978161616619104e+01 2.880000000000000000e+02
5.673495495791248899e+00 6.106002818047853964e+01 2.890000000000000000e+02
5.991624861584588402e+00 6.243799541761443095e+01 2.890000000000000000e+02
6.309754227377927016e+00 6.381596265475032936e+01 2.890000000000000000e+02
6.627883593171265630e+00 6.519392989188622778e+01 2.890000000000000000e+02
6.946012958964604245e+00 6.657189712902211909e+01 2.890000000000000000e+02
7.264142324757942859e+00 6.794986436615801040e+01 2.890000000000000000e+02
7.582271690551282362e+00 6.932783160329390171e+01 2.890000000000000000e+02
7.900401056344620976e+00 7.070579884042979302e+01 2.890000000000000000e+02
8.218530422137959590e+00 7.208376607756568433e+01 2.890000000000000000e+02
8.536659787931299093e+00 7.346173331470157564e+01 2.890000000000000000e+02
5.673495495791248899e+00 6.106002818047853964e+01 2.900000000000000000e+02
5.991624861584588402e+00 6.243799541761443095e+01 2.900000000000000000e+02
6.309754227377927016e+00 6.381596265475032936e+01 2.900000000000000000e+02
6.627883593171265630e+00 6.519392989188622778e+01 2.900000000000000000e+02
6.946012958964604245e+00 6.657189712902211909e+01 2.900000000000000000e+02
7.264142324757942859e+00 6.794986436615801040e+01 2.900000000000000000e+02
7.582271690551282362e+00 6.932783160329390171e+01 2.900000000000000000e+02
7.900401056344620976e+00 7.070579884042979302e+01 2.900000000000000000e+02
8.218530422137959590e+00 7.208376607756568433e+01 2.900000000000000000e+02
8.536659787931299093e+00 7.346173331470157564e+01 2.900000000000000000e+02
8.854789153724636819e+00 7.483970055183748116e+01 2.900000000000000000e+02
4.825447194326633493e+00 6.053010924480726374e+01 2.910000000000000000e+02
5.143576560119972108e+00 6.190807648194315504e+01 2.910000000000000000e+02
5.461705925913310722e+00 6.328604371907904635e+01 2.910000000000000000e+02
5.779835291706649336e+00 6.466401095621493766e+01 2.910000000000000000e+02
6.097964657499987950e+00 6.604197819335084318e+01 2.910000000000000000e+02
6.416094023293327453e+00 6.741994543048673449e+01 2.910000000000000000e+02
6.734223389086666067e+00 6.879791266762262580e+01 2.910000000000000000e+02
7.052352754880004682e+00 7.017587990475851711e+01 2.910000000000000000e+02
7.370482120673344184e+00 7.155384714189440842e+01 2.910000000000000000e+02
7.688611486466681910e+00 7.293181437903029973e+01 2.910000000000000000e+02
8.006740852260021413e+00 7.430978161616619104e+01 2.910000000000000000e+02
8.324870218053359139e+00 7.568774885330209656e+01 2.910000000000000000e+02
4.825447194326633493e+00 6.053010924480726374e+01 2.920000000000000000e+02
5.143576560119972108e+00 6.190807648194315504e+01 2.920000000000000000e+02
5.461705925913310722e+00 6.328604371907904635e+01 2.920000000000000000e+02
5.779835291706649336e+00 6.466401095621493766e+01 2.920000000000000000e+02
6.097964657499987950e+00 6.604197819335084318e+01 2.920000000000000000e+02
6.416094023293327453e+00 6.741994543048673449e+01 2.920000000000000000e+02
6.734223389086666067e+00 6.879791266762262580e+01 2.920000000000000000e+02
7.052352754880004682e+00 7.017587990475851711e+01 2.920000000000000000e+02
7.370482120673344184e+00 7.155384714189440842e+01 2.920000000000000000e+02
7.688611486466681910e+00 7.293181437903029973e+01 2.920000000000000000e+02
8.006740852260021413e+00 7.430978161616619104e+01 2.920000000000000000e+02
4.825447194326633493e+00 6.053010924480726374e+01 2.930000000000000000e+02
5.143576560119972108e+00 6.190807648194315504e+01 2.930000000000000000e+02
5.461705925913310722e+00 6.328604371907904635e+01 2.930000000000000000e+02
5.779835291706649336e+00 6.466401095621493766e+01 2.930000000000000000e+02
6.097964657499987950e+00 6.604197819335084318e+01 2.930000000000000000e+02
6.416094023293327453e+00 6.741994543048673449e+01 2.930000000000000000e+02
6.734223389086666067e+00 6.879791266762262580e+01 2.930000000000000000e+02
7.052352754880004682e+00 7.017587990475851711e+01 2.930000000000000000e+02
7.370482120673344184e+00 7.155384714189440842e+01 2.930000000000000000e+02
7.688611486466681910e+00 7.293181437903029973e+01 2.930000000000000000e+02
8.006740852260021413e+00 7.430978161616619104e+01 2.930000000000000000e+02
4.825447194326633493e+00 6.053010924480726374e+01 2.940000000000000000e+02
5.143576560119972108e+00 6.190807648194315504e+01 2.940000000000000000e+02
5.461705925913310722e+00 6.328604371907904635e+01 2.940000000000000000e+02
5.779835291706649336e+00 6.466401095621493766e+01 2.940000000000000000e+02
6.097964657499987950e+00 6.604197819335084318e+01 2.940000000000000000e+02
6.416094023293327453e+00 6.741994543048673449e+01 2.940000000000000000e+02
6.734223389086666067e+00 6.879791266762262580e+01 2.940000000000000000e+02
7.052352754880004682e+00 7.017587990475851711e+01 2.940000000000000000e+02
7.370482120673344184e+00 7.155384714189440842e+01 2.940000000000000000e+02
7.688611486466681910e+00 7.293181437903029973e+01 2.940000000000000000e+02
8.006740852260021413e+00 7.430978161616619104e+01 2.940000000000000000e+02
5.673495495791248899e+00 6.106002818047853964e+01 2.950000000000000000e+02
5.991624861584588402e+00 6.243799541761443095e+01 2.950000000000000000e+02
6.309754227377927016e+00 6.381596265475032936e+01 2.950000000000000000e+02
6.627883593171265630e+00 6.519392989188622778e+01 2.950000000000000000e+02
6.946012958964604245e+00 6.657189712902211909e+01 2.950000000000000000e+02
