9.346712925169318176e-01 -8.469208789931197856e+00 3.490000000000000000e+02
-1.948533132988066185e-01 -9.320193022955994167e+00 3.490000000000000000e+02
-1.324377919114545499e+00 -1.017117725598079048e+01 3.490000000000000000e+02
6.582294321595624886e+00 -4.214287624807218080e+00 3.500000000000000000e+02
5.452769715779886894e+00 -5.065271857832013502e+00 3.500000000000000000e+02
4.323245109964148014e+00 -5.916256090856808925e+00 3.500000000000000000e+02
3.193720504148409134e+00 -6.767240323881605235e+00 3.500000000000000000e+02
2.064195898332670698e+00 -7.618224556906401546e+00 3.500000000000000000e+02
9.346712925169318176e-01 -8.469208789931197856e+00 3.500000000000000000e+02
-1.948533132988066185e-01 -9.320193022955994167e+00 3.500000000000000000e+02
-1.324377919114545499e+00 -1.017117725598079048e+01 3.500000000000000000e+02
6.582294321595624886e+00 -4.214287624807218080e+00 3.510000000000000000e+02
5.452769715779886894e+00 -5.065271857832013502e+00 3.510000000000000000e+02
4.323245109964148014e+00 -5.916256090856808925e+00 3.510000000000000000e+02
3.193720504148409134e+00 -6.767240323881605235e+00 3.510000000000000000e+02
2.064195898332670698e+00 -7.618224556906401546e+00 3.510000000000000000e+02
9.346712925169318176e-01 -8.469208789931197856e+00 3.510000000000000000e+02
-1.948533132988066185e-01 -9.320193022955994167e+00 3.510000000000000000e+02
-1.324377919114545499e+00 -1.017117725598079048e+01 3.510000000000000000e+02
6.582294321595624886e+00 -4.214287624807218080e+00 3.520000000000000000e+02
5.452769715779886894e+00 -5.065271857832013502e+00 3.520000000000000000e+02
4.323245109964148014e+00 -5.916256090856808925e+00 3.520000000000000000e+02
3.193720504148409134e+00 -6.767240323881605235e+00 3.520000000000000000e+02
2.064195898332670698e+00 -7.618224556906401546e+00 3.520000000000000000e+02
9.346712925169318176e-01 -8.469208789931197856e+00 3.520000000000000000e+02
-1.948533132988066185e-01 -9.320193022955994167e+00 3.520000000000000000e+02
-1.324377919114545499e+00 -1.017117725598079048e+01 3.520000000000000000e+02
6.582294321595624886e+00 -4.214287624807218080e+00 3.530000000000000000e+02
5.452769715779886894e+00 -5.065271857832013502e+00 3.530000000000000000e+02
4.323245109964148014e+00 -5.916256090856808925e+00 3.530000000000000000e+02
3.193720504148409134e+00 -6.767240323881605235e+00 3.530000000000000000e+02
2.064195898332670698e+00 -7.618224556906401546e+00 3.530000000000000000e+02
9.346712925169318176e-01 -8.469208789931197856e+00 3.530000000000000000e+02
-1.948533132988066185e-01 -9.320193022955994167e+00 3.530000000000000000e+02
-1.324377919114545499e+00 -1.017117725598079048e+01 3.530000000000000000e+02
6.582294321595624886e+00 -4.214287624807218080e+00 3.540000000000000000e+02
5.452769715779886894e+00 -5.065271857832013502e+00 3.540000000000000000e+02
4.323245109964148014e+00 -5.916256090856808925e+00 3.540000000000000000e+02
3.193720504148409134e+00 -6.767240323881605235e+00 3.540000000000000000e+02
2.064195898332670698e+00 -7.618224556906401546e+00 3.540000000000000000e+02
9.346712925169318176e-01 -8.469208789931197856e+00 3.540000000000000000e+02
-1.948533132988066185e-01 -9.320193022955994167e+00 3.540000000000000000e+02
-1.324377919114545499e+00 -1.017117725598079048e+01 3.540000000000000000e+02
6.582294321595624886e+00 -4.214287624807218080e+00 3.550000000000000000e+02
5.452769715779886894e+00 -5.065271857832013502e+00 3.550000000000000000e+02
4.323245109964148014e+00 -5.916256090856808925e+00 3.550000000000000000e+02
3.193720504148409134e+00 -6.767240323881605235e+00 3.550000000000000000e+02
2.064195898332670698e+00 -7.618224556906401546e+00 3.550000000000000000e+02
9.346712925169318176e-01 -8.469208789931197856e+00 3.550000000000000000e+02
-1.948533132988066185e-01 -9.320193022955994167e+00 3.550000000000000000e+02
-1.324377919114545499e+00 -1.017117725598079048e+01 3.550000000000000000e+02
6.582294321595624886e+00 -4.214287624807218080e+00 3.560000000000000000e+02
5.452769715779886894e+00 -5.065271857832013502e+00 3.560000000000000000e+02
4.323245109964148014e+00 -5.916256090856808925e+00 3.560000000000000000e+02
3.193720504148409134e+00 -6.767240323881605235e+00 3.560000000000000000e+02
2.064195898332670698e+00 -7.618224556906401546e+00 3.560000000000000000e+02
9.346712925169318176e-01 -8.469208789931197856e+00 3.560000000000000000e+02
-1.948533132988066185e-01 -9.320193022955994167e+00 3.560000000000000000e+02
-1.324377919114545499e+00 -1.017117725598079048e+01 3.560000000000000000e+02
6.582294321595624886e+00 -4.214287624807218080e+00 3.570000000000000000e+02
5.452769715779886894e+00 -5.065271857832013502e+00 3.570000000000000000e+02
4.323245109964148014e+00 -5.916256090856808925e+00 3.570000000000000000e+02
3.193720504148409134e+00 -6.767240323881605235e+00 3.570000000000000000e+02
2.064195898332670698e+00 -7.618224556906401546e+00 3.570000000000000000e+02
9.346712925169318176e-01 -8.469208789931197856e+00 3.570000000000000000e+02
-1.948533132988066185e-01 -9.320193022955994167e+00 3.570000000000000000e+02
-1.324377919114545499e+00 -1.017117725598079048e+01 3.570000000000000000e+02
6.582294321595624886e+00 -4.214287624807218080e+00 3.580000000000000000e+02
5.452769715779886894e+00 -5.065271857832013502e+00 3.580000000000000000e+02
4.323245109964148014e+00 -5.916256090856808925e+00 3.580000000000000000e+02
3.193720504148409134e+00 -6.767240323881605235e+00 3.580000000000000000e+02
2.064195898332670698e+00 -7.618224556906401546e+00 3.580000000000000000e+02
9.346712925169318176e-01 -8.469208789931197856e+00 3.580000000000000000e+02
-1.948533132988066185e-01 -9.320193022955994167e+00 3.580000000000000000e+02
-1.324377919114545499e+00 -1.017117725598079048e+01 3.580000000000000000e+02
6.582294321595624886e+00 -4.214287624807218080e+00 3.590000000000000000e+02
5.452769715779886894e+00 -5.065271857832013502e+00 3.590000000000000000e+02
4.323245109964148014e+00 -5.916256090856808925e+00 3.590000000000000000e+02
3.193720504148409134e+00 -6.767240323881605235e+00 3.590000000000000000e+02
2.064195898332670698e+00 -7.618224556906401546e+00 3.590000000000000000e+02
9.346712925169318176e-01 -8.469208789931197856e+00 3.590000000000000000e+02
-1.948533132988066185e-01 -9.320193022955994167e+00 3.590000000000000000e+02
-1.324377919114545499e+00 -1.017117725598079048e+01 3.590000000000000000e+02
6.582294321595624886e+00 -4.214287624807218080e+00 3.600000000000000000e+02
5.452769715779886894e+00 -5.065271857832013502e+00 3.600000000000000000e+02
4.323245109964148014e+00 -5.916256090856808925e+00 3.600000000000000000e+02
3.193720504148409134e+00 -6.767240323881605235e+00 3.600000000000000000e+02
2.064195898332670698e+00 -7.618224556906401546e+00 3.600000000000000000e+02
9.346712925169318176e-01 -8.469208789931197856e+00 3.600000000000000000e+02
-1.948533132988066185e-01 -9.320193022955994167e+00 3.600000000000000000e+02
-1.324377919114545499e+00 -1.017117725598079048e+01 3.600000000000000000e+02
6.582294321595624886e+00 -4.214287624807218080e+00 3.610000000000000000e+02
5.452769715779886894e+00 -5.065271857832013502e+00 3.610000000000000000e+02
4.323245109964148014e+00 -5.916256090856808925e+00 3.610000000000000000e+02
3.193720504148409134e+00 -6.767240323881605235e+00 3.610000000000000000e+02
2.064195898332670698e+00 -7.618224556906401546e+00 3.610000000000000000e+02
9.346712925169318176e-01 -8.469208789931197856e+00 3.610000000000000000e+02
-1.948533132988066185e-01 -9.320193022955994167e+00 3.610000000000000000e+02
-1.324377919114545499e+00 -1.017117725598079048e+01 3.610000000000000000e+02
6.582294321595624886e+00 -4.214287624807218080e+00 3.620000000000000000e+02
5.452769715779886894e+00 -5.065271857832013502e+00 3.620000000000000000e+02
4.323245109964148014e+00 -5.916256090856808925e+00 3.620000000000000000e+02
3.193720504148409134e+00 -6.767240323881605235e+00 3.620000000000000000e+02
2.064195898332670698e+00 -7.618224556906401546e+00 3.620000000000000000e+02
9.346712925169318176e-01 -8.469208789931197856e+00 3.620000000000000000e+02
-1.948533132988066185e-01 -9.320193022955994167e+00 3.620000000000000000e+02
-1.324377919114545499e+00 -1.017117725598079048e+01 3.620000000000000000e+02
7.572548741015892482e+00 -4.353557811202689365e+00 3.630000000000000000e+02
6.443024135200153601e+00 -5.204542044227484787e+00 3.630000000000000000e+02
5.313499529384415609e+00 -6.055526277252280209e+00 3.630000000000000000e+02
4.183974923568676729e+00 -6.906510510277076520e+00 3.630000000000000000e+02
3.054450317752937849e+00 -7.757494743301872830e+00 3.630000000000000000e+02
1.924925711937199413e+00 -8.608478976326669141e+00 3.630000000000000000e+02
7.954011061214609768e-01 -9.459463209351465451e+00 3.630000000000000000e+02
-3.341234996942779034e-01 -1.031044744237626176e+01 3.630000000000000000e+02
-1.463648105510016784e+00 -1.116143167540105630e+01 3.630000000000000000e+02
7.572548741015892482e+00 -4.353557811202689365e+00 3.640000000000000000e+02
6.443024135200153601e+00 -5.204542044227484787e+00 3.640000000000000000e+02
5.313499529384415609e+00 -6.055526277252280209e+00 3.640000000000000000e+02
4.183974923568676729e+00 -6.906510510277076520e+00 3.640000000000000000e+02
3.054450317752937849e+00 -7.757494743301872830e+00 3.640000000000000000e+02
1.924925711937199413e+00 -8.608478976326669141e+00 3.640000000000000000e+02
7.954011061214609768e-01 -9.459463209351465451e+00 3.640000000000000000e+02
-3.341234996942779034e-01 -1.031044744237626176e+01 3.640000000000000000e+02
-1.463648105510016784e+00 -1.116143167540105630e+01 3.640000000000000000e+02
6.582294321595624886e+00 -4.214287624807218080e+00 3.650000000000000000e+02
5.452769715779886894e+00 -5.065271857832013502e+00 3.650000000000000000e+02
4.323245109964148014e+00 -5.916256090856808925e+00 3.650000000000000000e+02
3.193720504148409134e+00 -6.767240323881605235e+00 3.650000000000000000e+02
2.064195898332670698e+00 -7.618224556906401546e+00 3.650000000000000000e+02
9.346712925169318176e-01 -8.469208789931197856e+00 3.650000000000000000e+02
-1.948533132988066185e-01 -9.320193022955994167e+00 3.650000000000000000e+02
-1.324377919114545499e+00 -1.017117725598079048e+01 3.650000000000000000e+02
6.582294321595624886e+00 -4.214287624807218080e+00 3.660000000000000000e+02
5.452769715779886894e+00 -5.065271857832013502e+00 3.660000000000000000e+02
4.323245109964148014e+00 -5.916256090856808925e+00 3.660000000000000000e+02
3.193720504148409134e+00 -6.767240323881605235e+00 3.660000000000000000e+02
2.064195898332670698e+00 -7.618224556906401546e+00 3.660000000000000000e+02
9.346712925169318176e-01 -8.469208789931197856e+00 3.660000000000000000e+02
-1.948533132988066185e-01 -9.320193022955994167e+00 3.660000000000000000e+02
-1.324377919114545499e+00 -1.017117725598079048e+01 3.660000000000000000e+02
6.582294321595624886e+00 -4.214287624807218080e+00 3.670000000000000000e+02
5.452769715779886894e+00 -5.065271857832013502e+00 3.670000000000000000e+02
4.323245109964148014e+00 -5.916256090856808925e+00 3.670000000000000000e+02
3.193720504148409134e+00 -6.767240323881605235e+00 3.670000000000000000e+02
2.064195898332670698e+00 -7.618224556906401546e+00 3.670000000000000000e+02
9.346712925169318176e-01 -8.469208789931197856e+00 3.670000000000000000e+02
-1.948533132988066185e-01 -9.320193022955994167e+00 3.670000000000000000e+02
-1.324377919114545499e+00 -1.017117725598079048e+01 3.670000000000000000e+02
7.572548741015892482e+00 -4.353557811202689365e+00 3.680000000000000000e+02
6.443024135200153601e+00 -5.204542044227484787e+00 3.680000000000000000e+02
5.313499529384415609e+00 -6.055526277252280209e+00 3.680000000000000000e+02
4.183974923568676729e+00 -6.906510510277076520e+00 3.680000000000000000e+02
3.054450317752937849e+00 -7.757494743301872830e+00 3.680000000000000000e+02
1.924925711937199413e+00 -8.608478976326669141e+00 3.680000000000000000e+02
7.954011061214609768e-01 -9.459463209351465451e+00 3.680000000000000000e+02
-3.341234996942779034e-01 -1.031044744237626176e+01 3.680000000000000000e+02
-1.463648105510016784e+00 -1.116143167540105630e+01 3.680000000000000000e+02
6.582294321595624886e+00 -4.214287624807218080e+00 3.690000000000000000e+02
5.452769715779886894e+00 -5.065271857832013502e+00 3.690000000000000000e+02
4.323245109964148014e+00 -5.916256090856808925e+00 3.690000000000000000e+02
3.193720504148409134e+00 -6.767240323881605235e+00 3.690000000000000000e+02
2.064195898332670698e+00 -7.618224556906401546e+00 3.690000000000000000e+02
9.346712925169318176e-01 -8.469208789931197856e+00 3.690000000000000000e+02
-1.948533132988066185e-01 -9.320193022955994167e+00 3.690000000000000000e+02
-1.324377919114545499e+00 -1.017117725598079048e+01 3.690000000000000000e+02
6.582294321595624886e+00 -4.214287624807218080e+00 3.700000000000000000e+02
5.452769715779886894e+00 -5.065271857832013502e+00 3.700000000000000000e+02
4.323245109964148014e+00 -5.916256090856808925e+00 3.700000000000000000e+02
3.193720504148409134e+00 -6.767240323881605235e+00 3.700000000000000000e+02
2.064195898332670698e+00 -7.618224556906401546e+00 3.700000000000000000e+02
9.346712925169318176e-01 -8.469208789931197856e+00 3.700000000000000000e+02
-1.948533132988066185e-01 -9.320193022955994167e+00 3.700000000000000000e+02
-1.324377919114545499e+00 -1.017117725598079048e+01 3.700000000000000000e+02
6.582294321595624886e+00 -4.214287624807218080e+00 3.710000000000000000e+02
5.452769715779886894e+00 -5.065271857832013502e+00 3.710000000000000000e+02
4.323245109964148014e+00 -5.916256090856808925e+00 3.710000000000000000e+02
3.193720504148409134e+00 -6.767240323881605235e+00 3.710000000000000000e+02
2.064195898332670698e+00 -7.618224556906401546e+00 3.710000000000000000e+02
9.346712925169318176e-01 -8.469208789931197856e+00 3.710000000000000000e+02
-1.948533132988066185e-01 -9.320193022955994167e+00 3.710000000000000000e+02
-1.324377919114545499e+00 -1.017117725598079048e+01 3.710000000000000000e+02
6.582294321595624886e+00 -4.214287624807218080e+00 3.720000000000000000e+02
5.452769715779886894e+00 -5.065271857832013502e+00 3.720000000000000000e+02
4.323245109964148014e+00 -5.916256090856808925e+00 3.720000000000000000e+02
3.193720504148409134e+00 -6.767240323881605235e+00 3.720000000000000000e+02
2.064195898332670698e+00 -7.618224556906401546e+00 3.720000000000000000e+02
9.346712925169318176e-01 -8.469208789931197856e+00 3.720000000000000000e+02
-1.948533132988066185e-01 -9.320193022955994167e+00 3.720000000000000000e+02
-1.324377919114545499e+00 -1.017117725598079048e+01 3.720000000000000000e+02
6.582294321595624886e+00 -4.214287624807218080e+00 3.730000000000000000e+02
5.452769715779886894e+00 -5.065271857832013502e+00 3.730000000000000000e+02
4.323245109964148014e+00 -5.916256090856808925e+00 3.730000000000000000e+02
3.193720504148409134e+00 -6.767240323881605235e+00 3.730000000000000000e+02
2.064195898332670698e+00 -7.618224556906401546e+00 3.730000000000000000e+02
9.346712925169318176e-01 -8.469208789931197856e+00 3.730000000000000000e+02
-1.948533132988066185e-01 -9.320193022955994167e+00 3.730000000000000000e+02
-1.324377919114545499e+00 -1.017117725598079048e+01 3.730000000000000000e+02
6.582294321595624886e+00 -4.214287624807218080e+00 3.740000000000000000e+02
5.452769715779886894e+00 -5.065271857832013502e+00 3.740000000000000000e+02
4.323245109964148014e+00 -5.916256090856808925e+00 3.740000000000000000e+02
3.193720504148409134e+00 -6.767240323881605235e+00 3.740000000000000000e+02
2.064195898332670698e+00 -7.618224556906401546e+00 3.740000000000000000e+02
9.346712925169318176e-01 -8.469208789931197856e+00 3.740000000000000000e+02
-1.948533132988066185e-01 -9.320193022955994167e+00 3.740000000000000000e+02
-1.324377919114545499e+00 -1.017117725598079048e+01 3.740000000000000000e+02
6.582294321595624886e+00 -4.214287624807218080e+00 3.750000000000000000e+02
5.452769715779886894e+00 -5.065271857832013502e+00 3.750000000000000000e+02
4.323245109964148014e+00 -5.916256090856808925e+00 3.750000000000000000e+02
3.193720504148409134e+00 -6.767240323881605235e+00 3.750000000000000000e+02
2.064195898332670698e+00 -7.618224556906401546e+00 3.750000000000000000e+02
9.346712925169318176e-01 -8.469208789931197856e+00 3.750000000000000000e+02
-1.948533132988066185e-01 -9.320193022955994167e+00 3.750000000000000000e+02
-1.324377919114545499e+00 -1.017117725598079048e+01 3.750000000000000000e+02
6.582294321595624886e+00 -4.214287624807218080e+00 3.760000000000000000e+02
5.452769715779886894e+00 -5.065271857832013502e+00 3.760000000000000000e+02
4.323245109964148014e+00 -5.916256090856808925e+00 3.760000000000000000e+02
3.193720504148409134e+00 -6.767240323881605235e+00 3.760000000000000000e+02
2.064195898332670698e+00 -7.618224556906401546e+00 3.760000000000000000e+02
9.346712925169318176e-01 -8.469208789931197856e+00 3.760000000000000000e+02
-1.948533132988066185e-01 -9.320193022955994167e+00 3.760000000000000000e+02
-1.324377919114545499e+00 -1.017117725598079048e+01 3.760000000000000000e+02
6.582294321595624886e+00 -4.214287624807218080e+00 3.770000000000000000e+02
5.452769715779886894e+00 -5.065271857832013502e+00 3.770000000000000000e+02
4.323245109964148014e+00 -5.916256090856808925e+00 3.770000000000000000e+02
3.193720504148409134e+00 -6.767240323881605235e+00 3.770000000000000000e+02
2.064195898332670698e+00 -7.618224556906401546e+00 3.770000000000000000e+02
9.346712925169318176e-01 -8.469208789931197856e+00 3.770000000000000000e+02
-1.948533132988066185e-01 -9.320193022955994167e+00 3.770000000000000000e+02
-1.324377919114545499e+00 -1.017117725598079048e+01 3.770000000000000000e+02
6.582294321595624886e+00 -4.214287624807218080e+00 3.780000000000000000e+02
5.452769715779886894e+00 -5.065271857832013502e+00 3.780000000000000000e+02
4.323245109964148014e+00 -5.916256090856808925e+00 3.780000000000000000e+02
3.193720504148409134e+00 -6.767240323881605235e+00 3.780000000000000000e+02
2.064195898332670698e+00 -7.618224556906401546e+00 3.780000000000000000e+02
9.346712925169318176e-01 -8.469208789931197856e+00 3.780000000000000000e+02
-1.948533132988066185e-01 -9.320193022955994167e+00 3.780000000000000000e+02
-1.324377919114545499e+00 -1.017117725598079048e+01 3.780000000000000000e+02
6.582294321595624886e+00 -4.214287624807218080e+00 3.790000000000000000e+02
5.452769715779886894e+00 -5.065271857832013502e+00 3.790000000000000000e+02
4.323245109964148014e+00 -5.916256090856808925e+00 3.790000000000000000e+02
3.193720504148409134e+00 -6.767240323881605235e+00 3.790000000000000000e+02
2.064195898332670698e+00 -7.618224556906401546e+00 3.790000000000000000e+02
9.346712925169318176e-01 -8.469208789931197856e+00 3.790000000000000000e+02
-1.948533132988066185e-01 -9.320193022955994167e+00 3.790000000000000000e+02
-1.324377919114545499e+00 -1.017117725598079048e+01 3.790000000000000000e+02
7.572548741015892482e+00 -4.353557811202689365e+00 3.800000000000000000e+02
6.443024135200153601e+00 -5.204542044227484787e+00 3.800000000000000000e+02
5.313499529384415609e+00 -6.055526277252280209e+00 3.800000000000000000e+02
4.183974923568676729e+00 -6.906510510277076520e+00 3.800000000000000000e+02
3.054450317752937849e+00 -7.757494743301872830e+00 3.800000000000000000e+02
1.924925711937199413e+00 -8.608478976326669141e+00 3.800000000000000000e+02
7.954011061214609768e-01 -9.459463209351465451e+00 3.800000000000000000e+02
-3.341234996942779034e-01 -1.031044744237626176e+01 3.800000000000000000e+02
-1.463648105510016784e+00 -1.116143167540105630e+01 3.800000000000000000e+02
6.582294321595624886e+00 -4.214287624807218080e+00 3.810000000000000000e+02
5.452769715779886894e+00 -5.065271857832013502e+00 3.810000000000000000e+02
4.323245109964148014e+00 -5.916256090856808925e+00 3.810000000000000000e+02
3.193720504148409134e+00 -6.767240323881605235e+00 3.810000000000000000e+02
2.064195898332670698e+00 -7.618224556906401546e+00 3.810000000000000000e+02
9.346712925169318176e-01 -8.469208789931197856e+00 3.810000000000000000e+02
-1.948533132988066185e-01 -9.320193022955994167e+00 3.810000000000000000e+02
-1.324377919114545499e+00 -1.017117725598079048e+01 3.810000000000000000e+02
6.582294321595624886e+00 -4.214287624807218080e+00 3.820000000000000000e+02
5.452769715779886894e+00 -5.065271857832013502e+00 3.820000000000000000e+02
4.323245109964148014e+00 -5.916256090856808925e+00 3.820000000000000000e+02
3.193720504148409134e+00 -6.767240323881605235e+00 3.820000000000000000e+02
2.064195898332670698e+00 -7.618224556906401546e+00 3.820000000000000000e+02
9.346712925169318176e-01 -8.469208789931197856e+00 3.820000000000000000e+02
-1.948533132988066185e-01 -9.320193022955994167e+00 3.820000000000000000e+02
6.582294321595624886e+00 -4.214287624807218080e+00 3.830000000000000000e+02
5.452769715779886894e+00 -5.065271857832013502e+00 3.830000000000000000e+02
4.323245109964148014e+00 -5.916256090856808925e+00 3.830000000000000000e+02
3.193720504148409134e+00 -6.767240323881605235e+00 3.830000000000000000e+02
2.064195898332670698e+00 -7.618224556906401546e+00 3.830000000000000000e+02
9.346712925169318176e-01 -8.469208789931197856e+00 3.830000000000000000e+02
-1.948533132988066185e-01 -9.320193022955994167e+00 3.830000000000000000e+02
6.582294321595624886e+00 -4.214287624807218080e+00 3.840000000000000000e+02
5.452769715779886894e+00 -5.065271857832013502e+00 3.840000000000000000e+02
4.323245109964148014e+00 -5.916256090856808925e+00 3.840000000000000000e+02
3.193720504148409134e+00 -6.767240323881605235e+00 3.840000000000000000e+02
2.064195898332670698e+00 -7.618224556906401546e+00 3.840000000000000000e+02
9.346712925169318176e-01 -8.469208789931197856e+00 3.840000000000000000e+02
-1.948533132988066185e-01 -9.320193022955994167e+00 3.840000000000000000e+02
-1.324377919114545499e+00 -1.017117725598079048e+01 3.840000000000000000e+02
6.582294321595624886e+00 -4.214287624807218080e+00 3.850000000000000000e+02
5.452769715779886894e+00 -5.065271857832013502e+00 3.850000000000000000e+02
4.323245109964148014e+00 -5.916256090856808925e+00 3.850000000000000000e+02
3.193720504148409134e+00 -6.767240323881605235e+00 3.850000000000000000e+02
2.064195898332670698e+00 -7.618224556906401546e+00 3.850000000000000000e+02
9.346712925169318176e-01 -8.469208789931197856e+00 3.850000000000000000e+02
-1.948533132988066185e-01 -9.320193022955994167e+00 3.850000000000000000e+02
-1.324377919114545499e+00 -1.017117725598079048e+01 3.850000000000000000e+02
7.572548741015892482e+00 -4.353557811202689365e+00 3.860000000000000000e+02
6.443024135200153601e+00 -5.204542044227484787e+00 3.860000000000000000e+02
5.313499529384415609e+00 -6.055526277252280209e+00 3.860000000000000000e+02
4.183974923568676729e+00 -6.906510510277076520e+00 3.860000000000000000e+02
3.054450317752937849e+00 -7.757494743301872830e+00 3.860000000000000000e+02
1.924925711937199413e+00 -8.608478976326669141e+00 3.860000000000000000e+02
7.954011061214609768e-01 -9.459463209351465451e+00 3.860000000000000000e+02
-3.341234996942779034e-01 -1.031044744237626176e+01 3.860000000000000000e+02
-1.463648105510016784e+00 -1.116143167540105630e+01 3.860000000000000000e+02
7.572548741015892482e+00 -4.353557811202689365e+00 3.870000000000000000e+02
6.443024135200153601e+00 -5.204542044227484787e+00 3.870000000000000000e+02
5.313499529384415609e+00 -6.055526277252280209e+00 3.870000000000000000e+02
4.183974923568676729e+00 -6.906510510277076520e+00 3.870000000000000000e+02
3.054450317752937849e+00 -7.757494743301872830e+00 3.870000000000000000e+02
1.924925711937199413e+00 -8.608478976326669141e+00 3.870000000000000000e+02
7.954011061214609768e-01 -9.459463209351465451e+00 3.870000000000000000e+02
-3.341234996942779034e-01 -1.031044744237626176e+01 3.870000000000000000e+02
-1.463648105510016784e+00 -1.116143167540105630e+01 3.870000000000000000e+02
6.582294321595624886e+00 -4.214287624807218080e+00 3.880000000000000000e+02
5.452769715779886894e+00 -5.065271857832013502e+00 3.880000000000000000e+02
4.323245109964148014e+00 -5.916256090856808925e+00 3.880000000000000000e+02
3.193720504148409134e+00 -6.767240323881605235e+00 3.880000000000000000e+02
2.064195898332670698e+00 -7.618224556906401546e+00 3.880000000000000000e+02
9.346712925169318176e-01 -8.469208789931197856e+00 3.880000000000000000e+02
-1.948533132988066185e-01 -9.320193022955994167e+00 3.880000000000000000e+02
-1.324377919114545499e+00 -1.017117725598079048e+01 3.880000000000000000e+02
7.572548741015892482e+00 -4.353557811202689365e+00 3.890000000000000000e+02
6.443024135200153601e+00 -5.204542044227484787e+00 3.890000000000000000e+02
5.313499529384415609e+00 -6.055526277252280209e+00 3.890000000000000000e+02
4.183974923568676729e+00 -6.906510510277076520e+00 3.890000000000000000e+02
3.054450317752937849e+00 -7.757494743301872830e+00 3.890000000000000000e+02
1.924925711937199413e+00 -8.608478976326669141e+00 3.890000000000000000e+02
7.954011061214609768e-01 -9.459463209351465451e+00 3.890000000000000000e+02
-3.341234996942779034e-01 -1.031044744237626176e+01 3.890000000000000000e+02
7.572548741015892482e+00 -4.353557811202689365e+00 3.900000000000000000e+02
6.443024135200153601e+00 -5.204542044227484787e+00 3.900000000000000000e+02
5.313499529384415609e+00 -6.055526277252280209e+00 3.900000000000000000e+02
4.183974923568676729e+00 -6.906510510277076520e+00 3.900000000000000000e+02
3.054450317752937849e+00 -7.757494743301872830e+00 3.900000000000000000e+02
1.924925711937199413e+00 -8.608478976326669141e+00 3.900000000000000000e+02
7.954011061214609768e-01 -9.459463209351465451e+00 3.900000000000000000e+02
-3.341234996942779034e-01 -1.031044744237626176e+01 3.900000000000000000e+02
7.572548741015892482e+00 -4.353557811202689365e+00 3.910000000000000000e+02
6.443024135200153601e+00 -5.204542044227484787e+00 3.910000000000000000e+02
5.313499529384415609e+00 -6.055526277252280209e+00 3.910000000000000000e+02
4.183974923568676729e+00 -6.906510510277076520e+00 3.910000000000000000e+02
3.054450317752937849e+00 -7.757494743301872830e+00 3.910000000000000000e+02
1.924925711937199413e+00 -8.608478976326669141e+00 3.910000000000000000e+02
7.954011061214609768e-01 -9.459463209351465451e+00 3.910000000000000000e+02
-3.341234996942779034e-01 -1.031044744237626176e+01 3.910000000000000000e+02
7.572548741015892482e+00 -4.353557811202689365e+00 3.920000000000000000e+02
6.443024135200153601e+00 -5.204542044227484787e+00 3.920000000000000000e+02
5.313499529384415609e+00 -6.055526277252280209e+00 3.920000000000000000e+02
4.183974923568676729e+00 -6.906510510277076520e+00 3.920000000000000000e+02
3.054450317752937849e+00 -7.757494743301872830e+00 3.920000000000000000e+02
1.924925711937199413e+00 -8.608478976326669141e+00 3.920000000000000000e+02
7.954011061214609768e-01 -9.459463209351465451e+00 3.920000000000000000e+02
-3.341234996942779034e-01 -1.031044744237626176e+01 3.920000000000000000e+02
7.572548741015892482e+00 -4.353557811202689365e+00 3.930000000000000000e+02
6.443024135200153601e+00 -5.204542044227484787e+00 3.930000000000000000e+02
5.313499529384415609e+00 -6.055526277252280209e+00 3.930000000000000000e+02
4.183974923568676729e+00 -6.906510510277076520e+00 3.930000000000000000e+02
3.054450317752937849e+00 -7.757494743301872830e+00 3.930000000000000000e+02
1.924925711937199413e+00 -8.608478976326669141e+00 3.930000000000000000e+02
7.954011061214609768e-01 -9.459463209351465451e+00 3.930000000000000000e+02
-3.341234996942779034e-01 -1.031044744237626176e+01 3.930000000000000000e+02
6.582294321595624886e+00 -4.214287624807218080e+00 3.940000000000000000e+02
5.452769715779886894e+00 -5.065271857832013502e+00 3.940000000000000000e+02
4.323245109964148014e+00 -5.916256090856808925e+00 3.940000000000000000e+02
3.193720504148409134e+00 -6.767240323881605235e+00 3.940000000000000000e+02
2.064195898332670698e+00 -7.618224556906401546e+00 3.940000000000000000e+02
9.346712925169318176e-01 -8.469208789931197856e+00 3.940000000000000000e+02
-1.948533132988066185e-01 -9.320193022955994167e+00 3.940000000000000000e+02
6.582294321595624886e+00 -4.214287624807218080e+00 3.950000000000000000e+02
5.452769715779886894e+00 -5.065271857832013502e+00 3.950000000000000000e+02
4.323245109964148014e+00 -5.916256090856808925e+00 3.950000000000000000e+02
3.193720504148409134e+00 -6.767240323881605235e+00 3.950000000000000000e+02
2.064195898332670698e+00 -7.618224556906401546e+00 3.950000000000000000e+02
9.346712925169318176e-01 -8.469208789931197856e+00 3.950000000000000000e+02
-1.948533132988066185e-01 -9.320193022955994167e+00 3.950000000000000000e+02
6.582294321595624886e+00 -4.214287624807218080e+00 3.960000000000000000e+02
5.452769715779886894e+00 -5.065271857832013502e+00 3.960000000000000000e+02
4.323245109964148014e+00 -5.916256090856808925e+00 3.960000000000000000e+02
3.193720504148409134e+00 -6.767240323881605235e+00 3.960000000000000000e+02
2.064195898332670698e+00 -7.618224556906401546e+00 3.960000000000000000e+02
9.346712925169318176e-01 -8.469208789931197856e+00 3.960000000000000000e+02
-1.948533132988066185e-01 -9.320193022955994167e+00 3.960000000000000000e+02
6.582294321595624886e+00 -4.214287624807218080e+00 3.970000000000000000e+02
5.452769715779886894e+00 -5.065271857832013502e+00 3.970000000000000000e+02
4.323245109964148014e+00 -5.916256090856808925e+00 3.970000000000000000e+02
3.193720504148409134e+00 -6.767240323881605235e+00 3.970000000000000000e+02
2.064195898332670698e+00 -7.618224556906401546e+00 3.970000000000000000e+02
9.346712925169318176e-01 -8.469208789931197856e+00 3.970000000000000000e+02
-1.948533132988066185e-01 -9.320193022955994167e+00 3.970000000000000000e+02
7.572548741015892482e+00 -4.353557811202689365e+00 3.980000000000000000e+02
6.443024135200153601e+00 -5.204542044227484787e+00 3.980000000000000000e+02
5.313499529384415609e+00 -6.055526277252280209e+00 3.980000000000000000e+02
4.183974923568676729e+00 -6.906510510277076520e+00 3.980000000000000000e+02
3.054450317752937849e+00 -7.757494743301872830e+00 3.980000000000000000e+02
1.924925711937199413e+00 -8.608478976326669141e+00 3.980000000000000000e+02
7.954011061214609768e-01 -9.459463209351465451e+00 3.980000000000000000e+02
-3.341234996942779034e-01 -1.031044744237626176e+01 3.980000000000000000e+02
7.572548741015892482e+00 -4.353557811202689365e+00 3.990000000000000000e+02
6.443024135200153601e+00 -5.204542044227484787e+00 3.990000000000000000e+02
5.313499529384415609e+00 -6.055526277252280209e+00 3.990000000000000000e+02
4.183974923568676729e+00 -6.906510510277076520e+00 3.990000000000000000e+02
3.054450317752937849e+00 -7.757494743301872830e+00 3.990000000000000000e+02
1.924925711937199413e+00 -8.608478976326669141e+00 3.990000000000000000e+02
7.954011061214609768e-01 -9.459463209351465451e+00 3.990000000000000000e+02
-3.341234996942779034e-01 -1.031044744237626176e+01 3.990000000000000000e+02
-1.463648105510016784e+00 -1.116143167540105630e+01 3.990000000000000000e+02
7.572548741015892482e+00 -4.353557811202689365e+00 4.000000000000000000e+02
6.443024135200153601e+00 -5.204542044227484787e+00 4.000000000000000000e+02
5.313499529384415609e+00 -6.055526277252280209e+00 4.000000000000000000e+02
4.183974923568676729e+00 -6.906510510277076520e+00 4.000000000000000000e+02
3.054450317752937849e+00 -7.757494743301872830e+00 4.000000000000000000e+02
1.924925711937199413e+00 -8.608478976326669141e+00 4.000000000000000000e+02
7.954011061214609768e-01 -9.459463209351465451e+00 4.000000000000000000e+02
-3.341234996942779034e-01 -1.031044744237626176e+01 4.000000000000000000e+02
-1.463648105510016784e+00 -1.116143167540105630e+01 4.000000000000000000e+02
7.572548741015892482e+00 -4.353557811202689365e+00 4.010000000000000000e+02
6.443024135200153601e+00 -5.204542044227484787e+00 4.010000000000000000e+02
5.313499529384415609e+00 -6.055526277252280209e+00 4.010000000000000000e+02
4.183974923568676729e+00 -6.906510510277076520e+00 4.010000000000000000e+02
3.054450317752937849e+00 -7.757494743301872830e+00 4.010000000000000000e+02
1.924925711937199413e+00 -8.608478976326669141e+00 4.010000000000000000e+02
7.954011061214609768e-01 -9.459463209351465451e+00 4.010000000000000000e+02
-3.341234996942779034e-01 -1.031044744237626176e+01 4.010000000000000000e+02
-1.463648105510016784e+00 -1.116143167540105630e+01 4.010000000000000000e+02
7.572548741015892482e+00 -4.353557811202689365e+00 4.020000000000000000e+02
6.443024135200153601e+00 -5.204542044227484787e+00 4.020000000000000000e+02
5.313499529384415609e+00 -6.055526277252280209e+00 4.020000000000000000e+02
4.183974923568676729e+00 -6.906510510277076520e+00 4.020000000000000000e+02
3.054450317752937849e+00 -7.757494743301872830e+00 4.020000000000000000e+02
1.924925711937199413e+00 -8.608478976326669141e+00 4.020000000000000000e+02
7.954011061214609768e-01 -9.459463209351465451e+00 4.020000000000000000e+02
-3.341234996942779034e-01 -1.031044744237626176e+01 4.020000000000000000e+02
-1.463648105510016784e+00 -1.116143167540105630e+01 4.020000000000000000e+02
7.572548741015892482e+00 -4.353557811202689365e+00 4.030000000000000000e+02
6.443024135200153601e+00 -5.204542044227484787e+00 4.030000000000000000e+02
5.313499529384415609e+00 -6.055526277252280209e+00 4.030000000000000000e+02
4.183974923568676729e+00 -6.906510510277076520e+00 4.030000000000000000e+02
3.054450317752937849e+00 -7.757494743301872830e+00 4.030000000000000000e+02
1.924925711937199413e+00 -8.608478976326669141e+00 4.030000000000000000e+02
7.954011061214609768e-01 -9.459463209351465451e+00 4.030000000000000000e+02
-3.341234996942779034e-01 -1.031044744237626176e+01 4.030000000000000000e+02
7.572548741015892482e+00 -4.353557811202689365e+00 4.040000000000000000e+02
6.443024135200153601e+00 -5.204542044227484787e+00 4.040000000000000000e+02
5.313499529384415609e+00 -6.055526277252280209e+00 4.040000000000000000e+02
4.183974923568676729e+00 -6.906510510277076520e+00 4.040000000000000000e+02
3.054450317752937849e+00 -7.757494743301872830e+00 4.040000000000000000e+02
1.924925711937199413e+00 -8.608478976326669141e+00 4.040000000000000000e+02
7.954011061214609768e-01 -9.459463209351465451e+00 4.040000000000000000e+02
-3.341234996942779034e-01 -1.031044744237626176e+01 4.040000000000000000e+02
7.572548741015892482e+00 -4.353557811202689365e+00 4.050000000000000000e+02
6.443024135200153601e+00 -5.204542044227484787e+00 4.050000000000000000e+02
5.313499529384415609e+00 -6.055526277252280209e+00 4.050000000000000000e+02
4.183974923568676729e+00 -6.906510510277076520e+00 4.050000000000000000e+02
3.054450317752937849e+00 -7.757494743301872830e+00 4.050000000000000000e+02
1.924925711937199413e+00 -8.608478976326669141e+00 4.050000000000000000e+02
7.954011061214609768e-01 -9.459463209351465451e+00 4.050000000000000000e+02
-3.341234996942779034e-01 -1.031044744237626176e+01 4.050000000000000000e+02
7.572548741015892482e+00 -4.353557811202689365e+00 4.060000000000000000e+02
6.443024135200153601e+00 -5.204542044227484787e+00 4.060000000000000000e+02
5.313499529384415609e+00 -6.055526277252280209e+00 4.060000000000000000e+02
4.183974923568676729e+00 -6.906510510277076520e+00 4.060000000000000000e+02
3.054450317752937849e+00 -7.757494743301872830e+00 4.060000000000000000e+02
1.924925711937199413e+00 -8.608478976326669141e+00 4.060000000000000000e+02
7.954011061214609768e-01 -9.459463209351465451e+00 4.060000000000000000e+02
-3.341234996942779034e-01 -1.031044744237626176e+01 4.060000000000000000e+02
7.572548741015892482e+00 -4.353557811202689365e+00 4.070000000000000000e+02
6.443024135200153601e+00 -5.204542044227484787e+00 4.070000000000000000e+02
5.313499529384415609e+00 -6.055526277252280209e+00 4.070000000000000000e+02
4.183974923568676729e+00 -6.906510510277076520e+00 4.070000000000000000e+02
3.054450317752937849e+00 -7.757494743301872830e+00 4.070000000000000000e+02
1.924925711937199413e+00 -8.608478976326669141e+00 4.070000000000000000e+02
7.954011061214609768e-01 -9.459463209351465451e+00 4.070000000000000000e+02
-3.341234996942779034e-01 -1.031044744237626176e+01 4.070000000000000000e+02
7.572548741015892482e+00 -4.353557811202689365e+00 4.080000000000000000e+02
6.443024135200153601e+00 -5.204542044227484787e+00 4.080000000000000000e+02
5.313499529384415609e+00 -6.055526277252280209e+00 4.080000000000000000e+02
4.183974923568676729e+00 -6.906510510277076520e+00 4.080000000000000000e+02
3.054450317752937849e+00 -7.757494743301872830e+00 4.080000000000000000e+02
1.924925711937199413e+00 -8.608478976326669141e+00 4.080000000000000000e+02
7.954011061214609768e-01 -9.459463209351465451e+00 4.080000000000000000e+02
-3.341234996942779034e-01 -1.031044744237626176e+01 4.080000000000000000e+02
7.572548741015892482e+00 -4.353557811202689365e+00 4.090000000000000000e+02
6.443024135200153601e+00 -5.204542044227484787e+00 4.090000000000000000e+02
5.313499529384415609e+00 -6.055526277252280209e+00 4.090000000000000000e+02
4.183974923568676729e+00 -6.906510510277076520e+00 4.090000000000000000e+02
3.054450317752937849e+00 -7.757494743301872830e+00 4.090000000000000000e+02
1.924925711937199413e+00 -8.608478976326669141e+00 4.090000000000000000e+02
7.954011061214609768e-01 -9.459463209351465451e+00 4.090000000000000000e+02
-3.341234996942779034e-01 -1.031044744237626176e+01 4.090000000000000000e+02
7.572548741015892482e+00 -4.353557811202689365e+00 4.100000000000000000e+02
6.443024135200153601e+00 -5.204542044227484787e+00 4.100000000000000000e+02
5.313499529384415609e+00 -6.055526277252280209e+00 4.100000000000000000e+02
4.183974923568676729e+00 -6.906510510277076520e+00 4.100000000000000000e+02
3.054450317752937849e+00 -7.757494743301872830e+00 4.100000000000000000e+02
1.924925711937199413e+00 -8.608478976326669141e+00 4.100000000000000000e+02
7.954011061214609768e-01 -9.459463209351465451e+00 4.100000000000000000e+02
-3.341234996942779034e-01 -1.031044744237626176e+01 4.100000000000000000e+02
7.572548741015892482e+00 -4.353557811202689365e+00 4.110000000000000000e+02
6.443024135200153601e+00 -5.204542044227484787e+00 4.110000000000000000e+02
5.313499529384415609e+00 -6.055526277252280209e+00 4.110000000000000000e+02
4.183974923568676729e+00 -6.906510510277076520e+00 4.110000000000000000e+02
3.054450317752937849e+00 -7.757494743301872830e+00 4.110000000000000000e+02
1.924925711937199413e+00 -8.608478976326669141e+00 4.110000000000000000e+02
7.954011061214609768e-01 -9.459463209351465451e+00 4.110000000000000000e+02
-3.341234996942779034e-01 -1.031044744237626176e+01 4.110000000000000000e+02
8.562803160436159189e+00 -4.492827997598160650e+00 4.120000000000000000e+02
7.433278554620421197e+00 -5.343812230622956072e+00 4.120000000000000000e+02
6.303753948804682317e+00 -6.194796463647751494e+00 4.120000000000000000e+02
5.174229342988944325e+00 -7.045780696672547805e+00 4.120000000000000000e+02
4.044704737173205444e+00 -7.896764929697344115e+00 4.120000000000000000e+02
2.915180131357466564e+00 -8.747749162722140426e+00 4.120000000000000000e+02
1.785655525541728128e+00 -9.598733395746936736e+00 4.120000000000000000e+02
6.561309197259896919e-01 -1.044971762877173305e+01 4.120000000000000000e+02
-4.733936860897491883e-01 -1.130070186179652758e+01 4.120000000000000000e+02
8.562803160436159189e+00 -4.492827997598160650e+00 4.130000000000000000e+02
7.433278554620421197e+00 -5.343812230622956072e+00 4.130000000000000000e+02
6.303753948804682317e+00 -6.194796463647751494e+00 4.130000000000000000e+02
5.174229342988944325e+00 -7.045780696672547805e+00 4.130000000000000000e+02
4.044704737173205444e+00 -7.896764929697344115e+00 4.130000000000000000e+02
2.915180131357466564e+00 -8.747749162722140426e+00 4.130000000000000000e+02
1.785655525541728128e+00 -9.598733395746936736e+00 4.130000000000000000e+02
6.561309197259896919e-01 -1.044971762877173305e+01 4.130000000000000000e+02
-4.733936860897491883e-01 -1.130070186179652758e+01 4.130000000000000000e+02
8.562803160436159189e+00 -4.492827997598160650e+00 4.140000000000000000e+02
7.433278554620421197e+00 -5.343812230622956072e+00 4.140000000000000000e+02
6.303753948804682317e+00 -6.194796463647751494e+00 4.140000000000000000e+02
5.174229342988944325e+00 -7.045780696672547805e+00 4.140000000000000000e+02
4.044704737173205444e+00 -7.896764929697344115e+00 4.140000000000000000e+02
2.915180131357466564e+00 -8.747749162722140426e+00 4.140000000000000000e+02
1.785655525541728128e+00 -9.598733395746936736e+00 4.140000000000000000e+02
6.561309197259896919e-01 -1.044971762877173305e+01 4.140000000000000000e+02
-4.733936860897491883e-01 -1.130070186179652758e+01 4.140000000000000000e+02
8.562803160436159189e+00 -4.492827997598160650e+00 4.150000000000000000e+02
7.433278554620421197e+00 -5.343812230622956072e+00 4.150000000000000000e+02
6.303753948804682317e+00 -6.194796463647751494e+00 4.150000000000000000e+02
5.174229342988944325e+00 -7.045780696672547805e+00 4.150000000000000000e+02
4.044704737173205444e+00 -7.896764929697344115e+00 4.150000000000000000e+02
2.915180131357466564e+00 -8.747749162722140426e+00 4.150000000000000000e+02
1.785655525541728128e+00 -9.598733395746936736e+00 4.150000000000000000e+02
6.561309197259896919e-01 -1.044971762877173305e+01 4.150000000000000000e+02
-4.733936860897491883e-01 -1.130070186179652758e+01 4.150000000000000000e+02
8.562803160436159189e+00 -4.492827997598160650e+00 4.160000000000000000e+02
7.433278554620421197e+00 -5.343812230622956072e+00 4.160000000000000000e+02
6.303753948804682317e+00 -6.194796463647751494e+00 4.160000000000000000e+02
5.174229342988944325e+00 -7.045780696672547805e+00 4.160000000000000000e+02
4.044704737173205444e+00 -7.896764929697344115e+00 4.160000000000000000e+02
2.915180131357466564e+00 -8.747749162722140426e+00 4.160000000000000000e+02
1.785655525541728128e+00 -9.598733395746936736e+00 4.160000000000000000e+02
6.561309197259896919e-01 -1.044971762877173305e+01 4.160000000000000000e+02
8.562803160436159189e+00 -4.492827997598160650e+00 4.170000000000000000e+02
7.433278554620421197e+00 -5.343812230622956072e+00 4.170000000000000000e+02
6.303753948804682317e+00 -6.194796463647751494e+00 4.170000000000000000e+02
5.174229342988944325e+00 -7.045780696672547805e+00 4.170000000000000000e+02
4.044704737173205444e+00 -7.896764929697344115e+00 4.170000000000000000e+02
2.915180131357466564e+00 -8.747749162722140426e+00 4.170000000000000000e+02
1.785655525541728128e+00 -9.598733395746936736e+00 4.170000000000000000e+02
6.561309197259896919e-01 -1.044971762877173305e+01 4.170000000000000000e+02
8.562803160436159189e+00 -4.492827997598160650e+00 4.180000000000000000e+02
7.433278554620421197e+00 -5.343812230622956072e+00 4.180000000000000000e+02
6.303753948804682317e+00 -6.194796463647751494e+00 4.180000000000000000e+02
5.174229342988944325e+00 -7.045780696672547805e+00 4.180000000000000000e+02
4.044704737173205444e+00 -7.896764929697344115e+00 4.180000000000000000e+02
2.915180131357466564e+00 -8.747749162722140426e+00 4.180000000000000000e+02
1.785655525541728128e+00 -9.598733395746936736e+00 4.180000000000000000e+02
6.561309197259896919e-01 -1.044971762877173305e+01 4.180000000000000000e+02
8.562803160436159189e+00 -4.492827997598160650e+00 4.190000000000000000e+02
7.433278554620421197e+00 -5.343812230622956072e+00 4.190000000000000000e+02
6.303753948804682317e+00 -6.194796463647751494e+00 4.190000000000000000e+02
5.174229342988944325e+00 -7.045780696672547805e+00 4.190000000000000000e+02
4.044704737173205444e+00 -7.896764929697344115e+00 4.190000000000000000e+02
2.915180131357466564e+00 -8.747749162722140426e+00 4.190000000000000000e+02
1.785655525541728128e+00 -9.598733395746936736e+00 4.190000000000000000e+02
6.561309197259896919e-01 -1.044971762877173305e+01 4.190000000000000000e+02
8.562803160436159189e+00 -4.492827997598160650e+00 4.200000000000000000e+02
7.433278554620421197e+00 -5.343812230622956072e+00 4.200000000000000000e+02
6.303753948804682317e+00 -6.194796463647751494e+00 4.200000000000000000e+02
5.174229342988944325e+00 -7.045780696672547805e+00 4.200000000000000000e+02
4.044704737173205444e+00 -7.896764929697344115e+00 4.200000000000000000e+02
2.915180131357466564e+00 -8.747749162722140426e+00 4.200000000000000000e+02
1.785655525541728128e+00 -9.598733395746936736e+00 4.200000000000000000e+02
6.561309197259896919e-01 -1.044971762877173305e+01 4.200000000000000000e+02
8.562803160436159189e+00 -4.492827997598160650e+00 4.210000000000000000e+02
7.433278554620421197e+00 -5.343812230622956072e+00 4.210000000000000000e+02
6.303753948804682317e+00 -6.194796463647751494e+00 4.210000000000000000e+02
5.174229342988944325e+00 -7.045780696672547805e+00 4.210000000000000000e+02
4.044704737173205444e+00 -7.896764929697344115e+00 4.210000000000000000e+02
2.915180131357466564e+00 -8.747749162722140426e+00 4.210000000000000000e+02
1.785655525541728128e+00 -9.598733395746936736e+00 4.210000000000000000e+02
6.561309197259896919e-01 -1.044971762877173305e+01 4.210000000000000000e+02
8.562803160436159189e+00 -4.492827997598160650e+00 4.220000000000000000e+02
7.433278554620421197e+00 -5.343812230622956072e+00 4.220000000000000000e+02
6.303753948804682317e+00 -6.194796463647751494e+00 4.220000000000000000e+02
5.174229342988944325e+00 -7.045780696672547805e+00 4.220000000000000000e+02
4.044704737173205444e+00 -7.896764929697344115e+00 4.220000000000000000e+02
2.915180131357466564e+00 -8.747749162722140426e+00 4.220000000000000000e+02
1.785655525541728128e+00 -9.598733395746936736e+00 4.220000000000000000e+02
6.561309197259896919e-01 -1.044971762877173305e+01 4.220000000000000000e+02
8.562803160436159189e+00 -4.492827997598160650e+00 4.230000000000000000e+02
7.433278554620421197e+00 -5.343812230622956072e+00 4.230000000000000000e+02
6.303753948804682317e+00 -6.194796463647751494e+00 4.230000000000000000e+02
5.174229342988944325e+00 -7.045780696672547805e+00 4.230000000000000000e+02
4.044704737173205444e+00 -7.896764929697344115e+00 4.230000000000000000e+02
2.915180131357466564e+00 -8.747749162722140426e+00 4.230000000000000000e+02
1.785655525541728128e+00 -9.598733395746936736e+00 4.230000000000000000e+02
6.561309197259896919e-01 -1.044971762877173305e+01 4.230000000000000000e+02
8.562803160436159189e+00 -4.492827997598160650e+00 4.240000000000000000e+02
7.433278554620421197e+00 -5.343812230622956072e+00 4.240000000000000000e+02
6.303753948804682317e+00 -6.194796463647751494e+00 4.240000000000000000e+02
5.174229342988944325e+00 -7.045780696672547805e+00 4.240000000000000000e+02
4.044704737173205444e+00 -7.896764929697344115e+00 4.240000000000000000e+02
2.915180131357466564e+00 -8.747749162722140426e+00 4.240000000000000000e+02
1.785655525541728128e+00 -9.598733395746936736e+00 4.240000000000000000e+02
6.561309197259896919e-01 -1.044971762877173305e+01 4.240000000000000000e+02
9.553057579856426784e+00 -4.632098183993631935e+00 4.250000000000000000e+02
8.423532974040687904e+00 -5.483082417018427357e+00 4.250000000000000000e+02
7.294008368224949024e+00 -6.334066650043222779e+00 4.250000000000000000e+02
6.164483762409211032e+00 -7.185050883068019090e+00 4.250000000000000000e+02
5.034959156593473040e+00 -8.036035116092815400e+00 4.250000000000000000e+02
3.905434550777734160e+00 -8.887019349117611711e+00 4.250000000000000000e+02
2.775909944961995279e+00 -9.738003582142408021e+00 4.250000000000000000e+02
1.646385339146256843e+00 -1.058898781516720433e+01 4.250000000000000000e+02
5.168607333305184071e-01 -1.143997204819199887e+01 4.250000000000000000e+02
9.553057579856426784e+00 -4.632098183993631935e+00 4.260000000000000000e+02
8.423532974040687904e+00 -5.483082417018427357e+00 4.260000000000000000e+02
7.294008368224949024e+00 -6.334066650043222779e+00 4.260000000000000000e+02
6.164483762409211032e+00 -7.185050883068019090e+00 4.260000000000000000e+02
5.034959156593473040e+00 -8.036035116092815400e+00 4.260000000000000000e+02
3.905434550777734160e+00 -8.887019349117611711e+00 4.260000000000000000e+02
2.775909944961995279e+00 -9.738003582142408021e+00 4.260000000000000000e+02
1.646385339146256843e+00 -1.058898781516720433e+01 4.260000000000000000e+02
5.168607333305184071e-01 -1.143997204819199887e+01 4.260000000000000000e+02
9.553057579856426784e+00 -4.632098183993631935e+00 4.270000000000000000e+02
