6.735524705257240008e+00 6.874296931393230636e+01 2.370000000000000000e+02
6.661513698969137032e+00 7.015524491414220165e+01 2.370000000000000000e+02
6.587502692681034944e+00 7.156752051435209694e+01 2.370000000000000000e+02
6.513491686392931967e+00 7.297979611456199223e+01 2.370000000000000000e+02
6.439480680104828991e+00 7.439207171477188751e+01 2.370000000000000000e+02
7.031568730409651025e+00 6.309386691309271811e+01 2.380000000000000000e+02
6.957557724121548048e+00 6.450614251330260629e+01 2.380000000000000000e+02
6.883546717833445072e+00 6.591841811351250158e+01 2.380000000000000000e+02
6.809535711545342096e+00 6.733069371372241108e+01 2.380000000000000000e+02
6.735524705257240008e+00 6.874296931393230636e+01 2.380000000000000000e+02
6.661513698969137032e+00 7.015524491414220165e+01 2.380000000000000000e+02
6.587502692681034944e+00 7.156752051435209694e+01 2.380000000000000000e+02
6.513491686392931967e+00 7.297979611456199223e+01 2.380000000000000000e+02
6.439480680104828991e+00 7.439207171477188751e+01 2.380000000000000000e+02
7.031568730409651025e+00 6.309386691309271811e+01 2.390000000000000000e+02
6.957557724121548048e+00 6.450614251330260629e+01 2.390000000000000000e+02
6.883546717833445072e+00 6.591841811351250158e+01 2.390000000000000000e+02
6.809535711545342096e+00 6.733069371372241108e+01 2.390000000000000000e+02
6.735524705257240008e+00 6.874296931393230636e+01 2.390000000000000000e+02
6.661513698969137032e+00 7.015524491414220165e+01 2.390000000000000000e+02
6.587502692681034944e+00 7.156752051435209694e+01 2.390000000000000000e+02
6.513491686392931967e+00 7.297979611456199223e+01 2.390000000000000000e+02
6.439480680104828991e+00 7.439207171477188751e+01 2.390000000000000000e+02
6.365469673816726015e+00 7.580434731498178280e+01 2.390000000000000000e+02
7.700701027370547180e+00 6.383701021634171724e+01 2.400000000000000000e+02
7.626690021082445092e+00 6.524928581655160542e+01 2.400000000000000000e+02
7.552679014794342116e+00 6.666156141676151492e+01 2.400000000000000000e+02
7.478668008506239140e+00 6.807383701697141021e+01 2.400000000000000000e+02
7.404657002218137052e+00 6.948611261718130550e+01 2.400000000000000000e+02
7.330645995930034076e+00 7.089838821739120078e+01 2.400000000000000000e+02
7.256634989641931099e+00 7.231066381760109607e+01 2.400000000000000000e+02
7.182623983353828123e+00 7.372293941781099136e+01 2.400000000000000000e+02
7.108612977065725147e+00 7.513521501802088665e+01 2.400000000000000000e+02
7.700701027370547180e+00 6.383701021634171724e+01 2.410000000000000000e+02
7.626690021082445092e+00 6.524928581655160542e+01 2.410000000000000000e+02
7.552679014794342116e+00 6.666156141676151492e+01 2.410000000000000000e+02
7.478668008506239140e+00 6.807383701697141021e+01 2.410000000000000000e+02
7.404657002218137052e+00 6.948611261718130550e+01 2.410000000000000000e+02
7.330645995930034076e+00 7.089838821739120078e+01 2.410000000000000000e+02
7.256634989641931099e+00 7.231066381760109607e+01 2.410000000000000000e+02
7.182623983353828123e+00 7.372293941781099136e+01 2.410000000000000000e+02
7.108612977065725147e+00 7.513521501802088665e+01 2.410000000000000000e+02
7.700701027370547180e+00 6.383701021634171724e+01 2.420000000000000000e+02
7.626690021082445092e+00 6.524928581655160542e+01 2.420000000000000000e+02
7.552679014794342116e+00 6.666156141676151492e+01 2.420000000000000000e+02
7.478668008506239140e+00 6.807383701697141021e+01 2.420000000000000000e+02
7.404657002218137052e+00 6.948611261718130550e+01 2.420000000000000000e+02
7.330645995930034076e+00 7.089838821739120078e+01 2.420000000000000000e+02
7.256634989641931099e+00 7.231066381760109607e+01 2.420000000000000000e+02
7.182623983353828123e+00 7.372293941781099136e+01 2.420000000000000000e+02
7.108612977065725147e+00 7.513521501802088665e+01 2.420000000000000000e+02
7.700701027370547180e+00 6.383701021634171724e+01 2.430000000000000000e+02
7.626690021082445092e+00 6.524928581655160542e+01 2.430000000000000000e+02
7.552679014794342116e+00 6.666156141676151492e+01 2.430000000000000000e+02
7.478668008506239140e+00 6.807383701697141021e+01 2.430000000000000000e+02
7.404657002218137052e+00 6.948611261718130550e+01 2.430000000000000000e+02
7.330645995930034076e+00 7.089838821739120078e+01 2.430000000000000000e+02
7.256634989641931099e+00 7.231066381760109607e+01 2.430000000000000000e+02
7.182623983353828123e+00 7.372293941781099136e+01 2.430000000000000000e+02
7.700701027370547180e+00 6.383701021634171724e+01 2.440000000000000000e+02
7.626690021082445092e+00 6.524928581655160542e+01 2.440000000000000000e+02
7.552679014794342116e+00 6.666156141676151492e+01 2.440000000000000000e+02
7.478668008506239140e+00 6.807383701697141021e+01 2.440000000000000000e+02
7.404657002218137052e+00 6.948611261718130550e+01 2.440000000000000000e+02
7.330645995930034076e+00 7.089838821739120078e+01 2.440000000000000000e+02
7.256634989641931099e+00 7.231066381760109607e+01 2.440000000000000000e+02
7.182623983353828123e+00 7.372293941781099136e+01 2.440000000000000000e+02
7.700701027370547180e+00 6.383701021634171724e+01 2.450000000000000000e+02
7.626690021082445092e+00 6.524928581655160542e+01 2.450000000000000000e+02
7.552679014794342116e+00 6.666156141676151492e+01 2.450000000000000000e+02
7.478668008506239140e+00 6.807383701697141021e+01 2.450000000000000000e+02
7.404657002218137052e+00 6.948611261718130550e+01 2.450000000000000000e+02
7.330645995930034076e+00 7.089838821739120078e+01 2.450000000000000000e+02
7.256634989641931099e+00 7.231066381760109607e+01 2.450000000000000000e+02
7.182623983353828123e+00 7.372293941781099136e+01 2.450000000000000000e+02
7.700701027370547180e+00 6.383701021634171724e+01 2.460000000000000000e+02
7.626690021082445092e+00 6.524928581655160542e+01 2.460000000000000000e+02
7.552679014794342116e+00 6.666156141676151492e+01 2.460000000000000000e+02
7.478668008506239140e+00 6.807383701697141021e+01 2.460000000000000000e+02
7.404657002218137052e+00 6.948611261718130550e+01 2.460000000000000000e+02
7.330645995930034076e+00 7.089838821739120078e+01 2.460000000000000000e+02
7.256634989641931099e+00 7.231066381760109607e+01 2.460000000000000000e+02
7.182623983353828123e+00 7.372293941781099136e+01 2.460000000000000000e+02
7.108612977065725147e+00 7.513521501802088665e+01 2.460000000000000000e+02
7.700701027370547180e+00 6.383701021634171724e+01 2.470000000000000000e+02
7.626690021082445092e+00 6.524928581655160542e+01 2.470000000000000000e+02
7.552679014794342116e+00 6.666156141676151492e+01 2.470000000000000000e+02
7.478668008506239140e+00 6.807383701697141021e+01 2.470000000000000000e+02
7.404657002218137052e+00 6.948611261718130550e+01 2.470000000000000000e+02
7.330645995930034076e+00 7.089838821739120078e+01 2.470000000000000000e+02
7.256634989641931099e+00 7.231066381760109607e+01 2.470000000000000000e+02
7.182623983353828123e+00 7.372293941781099136e+01 2.470000000000000000e+02
7.108612977065725147e+00 7.513521501802088665e+01 2.470000000000000000e+02
8.369833324331445112e+00 6.458015351959070927e+01 2.480000000000000000e+02
8.295822318043342136e+00 6.599242911980061876e+01 2.480000000000000000e+02
8.221811311755239160e+00 6.740470472001051405e+01 2.480000000000000000e+02
8.147800305467136184e+00 6.881698032022040934e+01 2.480000000000000000e+02
8.073789299179033208e+00 7.022925592043030463e+01 2.480000000000000000e+02
7.999778292890930231e+00 7.164153152064019991e+01 2.480000000000000000e+02
7.925767286602827255e+00 7.305380712085009520e+01 2.480000000000000000e+02
7.851756280314724279e+00 7.446608272105999049e+01 2.480000000000000000e+02
7.700701027370547180e+00 6.383701021634171724e+01 2.490000000000000000e+02
7.626690021082445092e+00 6.524928581655160542e+01 2.490000000000000000e+02
7.552679014794342116e+00 6.666156141676151492e+01 2.490000000000000000e+02
7.478668008506239140e+00 6.807383701697141021e+01 2.490000000000000000e+02
7.404657002218137052e+00 6.948611261718130550e+01 2.490000000000000000e+02
7.330645995930034076e+00 7.089838821739120078e+01 2.490000000000000000e+02
7.256634989641931099e+00 7.231066381760109607e+01 2.490000000000000000e+02
7.182623983353828123e+00 7.372293941781099136e+01 2.490000000000000000e+02
7.700701027370547180e+00 6.383701021634171724e+01 2.500000000000000000e+02
7.626690021082445092e+00 6.524928581655160542e+01 2.500000000000000000e+02
7.552679014794342116e+00 6.666156141676151492e+01 2.500000000000000000e+02
7.478668008506239140e+00 6.807383701697141021e+01 2.500000000000000000e+02
7.404657002218137052e+00 6.948611261718130550e+01 2.500000000000000000e+02
7.330645995930034076e+00 7.089838821739120078e+01 2.500000000000000000e+02
7.256634989641931099e+00 7.231066381760109607e+01 2.500000000000000000e+02
7.182623983353828123e+00 7.372293941781099136e+01 2.500000000000000000e+02
7.700701027370547180e+00 6.383701021634171724e+01 2.510000000000000000e+02
7.626690021082445092e+00 6.524928581655160542e+01 2.510000000000000000e+02
7.552679014794342116e+00 6.666156141676151492e+01 2.510000000000000000e+02
7.478668008506239140e+00 6.807383701697141021e+01 2.510000000000000000e+02
7.404657002218137052e+00 6.948611261718130550e+01 2.510000000000000000e+02
7.330645995930034076e+00 7.089838821739120078e+01 2.510000000000000000e+02
7.256634989641931099e+00 7.231066381760109607e+01 2.510000000000000000e+02
7.182623983353828123e+00 7.372293941781099136e+01 2.510000000000000000e+02
7.700701027370547180e+00 6.383701021634171724e+01 2.520000000000000000e+02
7.626690021082445092e+00 6.524928581655160542e+01 2.520000000000000000e+02
7.552679014794342116e+00 6.666156141676151492e+01 2.520000000000000000e+02
7.478668008506239140e+00 6.807383701697141021e+01 2.520000000000000000e+02
7.404657002218137052e+00 6.948611261718130550e+01 2.520000000000000000e+02
7.330645995930034076e+00 7.089838821739120078e+01 2.520000000000000000e+02
7.256634989641931099e+00 7.231066381760109607e+01 2.520000000000000000e+02
7.182623983353828123e+00 7.372293941781099136e+01 2.520000000000000000e+02
7.700701027370547180e+00 6.383701021634171724e+01 2.530000000000000000e+02
7.626690021082445092e+00 6.524928581655160542e+01 2.530000000000000000e+02
7.552679014794342116e+00 6.666156141676151492e+01 2.530000000000000000e+02
7.478668008506239140e+00 6.807383701697141021e+01 2.530000000000000000e+02
7.404657002218137052e+00 6.948611261718130550e+01 2.530000000000000000e+02
7.330645995930034076e+00 7.089838821739120078e+01 2.530000000000000000e+02
7.256634989641931099e+00 7.231066381760109607e+01 2.530000000000000000e+02
7.182623983353828123e+00 7.372293941781099136e+01 2.530000000000000000e+02
7.108612977065725147e+00 7.513521501802088665e+01 2.530000000000000000e+02
7.700701027370547180e+00 6.383701021634171724e+01 2.540000000000000000e+02
7.626690021082445092e+00 6.524928581655160542e+01 2.540000000000000000e+02
7.552679014794342116e+00 6.666156141676151492e+01 2.540000000000000000e+02
7.478668008506239140e+00 6.807383701697141021e+01 2.540000000000000000e+02
7.404657002218137052e+00 6.948611261718130550e+01 2.540000000000000000e+02
7.330645995930034076e+00 7.089838821739120078e+01 2.540000000000000000e+02
7.256634989641931099e+00 7.231066381760109607e+01 2.540000000000000000e+02
7.182623983353828123e+00 7.372293941781099136e+01 2.540000000000000000e+02
7.700701027370547180e+00 6.383701021634171724e+01 2.550000000000000000e+02
7.626690021082445092e+00 6.524928581655160542e+01 2.550000000000000000e+02
7.552679014794342116e+00 6.666156141676151492e+01 2.550000000000000000e+02
7.478668008506239140e+00 6.807383701697141021e+01 2.550000000000000000e+02
7.404657002218137052e+00 6.948611261718130550e+01 2.550000000000000000e+02
7.330645995930034076e+00 7.089838821739120078e+01 2.550000000000000000e+02
7.256634989641931099e+00 7.231066381760109607e+01 2.550000000000000000e+02
7.182623983353828123e+00 7.372293941781099136e+01 2.550000000000000000e+02
7.700701027370547180e+00 6.383701021634171724e+01 2.560000000000000000e+02
7.626690021082445092e+00 6.524928581655160542e+01 2.560000000000000000e+02
7.552679014794342116e+00 6.666156141676151492e+01 2.560000000000000000e+02
7.478668008506239140e+00 6.807383701697141021e+01 2.560000000000000000e+02
7.404657002218137052e+00 6.948611261718130550e+01 2.560000000000000000e+02
7.330645995930034076e+00 7.089838821739120078e+01 2.560000000000000000e+02
7.256634989641931099e+00 7.231066381760109607e+01 2.560000000000000000e+02
7.182623983353828123e+00 7.372293941781099136e+01 2.560000000000000000e+02
7.108612977065725147e+00 7.513521501802088665e+01 2.560000000000000000e+02
7.700701027370547180e+00 6.383701021634171724e+01 2.570000000000000000e+02
7.626690021082445092e+00 6.524928581655160542e+01 2.570000000000000000e+02
7.552679014794342116e+00 6.666156141676151492e+01 2.570000000000000000e+02
7.478668008506239140e+00 6.807383701697141021e+01 2.570000000000000000e+02
7.404657002218137052e+00 6.948611261718130550e+01 2.570000000000000000e+02
7.330645995930034076e+00 7.089838821739120078e+01 2.570000000000000000e+02
7.256634989641931099e+00 7.231066381760109607e+01 2.570000000000000000e+02
7.182623983353828123e+00 7.372293941781099136e+01 2.570000000000000000e+02
7.108612977065725147e+00 7.513521501802088665e+01 2.570000000000000000e+02
7.700701027370547180e+00 6.383701021634171724e+01 2.580000000000000000e+02
7.626690021082445092e+00 6.524928581655160542e+01 2.580000000000000000e+02
7.552679014794342116e+00 6.666156141676151492e+01 2.580000000000000000e+02
7.478668008506239140e+00 6.807383701697141021e+01 2.580000000000000000e+02
7.404657002218137052e+00 6.948611261718130550e+01 2.580000000000000000e+02
7.330645995930034076e+00 7.089838821739120078e+01 2.580000000000000000e+02
7.256634989641931099e+00 7.231066381760109607e+01 2.580000000000000000e+02
7.182623983353828123e+00 7.372293941781099136e+01 2.580000000000000000e+02
7.700701027370547180e+00 6.383701021634171724e+01 2.590000000000000000e+02
7.626690021082445092e+00 6.524928581655160542e+01 2.590000000000000000e+02
7.552679014794342116e+00 6.666156141676151492e+01 2.590000000000000000e+02
7.478668008506239140e+00 6.807383701697141021e+01 2.590000000000000000e+02
7.404657002218137052e+00 6.948611261718130550e+01 2.590000000000000000e+02
7.330645995930034076e+00 7.089838821739120078e+01 2.590000000000000000e+02
7.256634989641931099e+00 7.231066381760109607e+01 2.590000000000000000e+02
7.182623983353828123e+00 7.372293941781099136e+01 2.590000000000000000e+02
7.700701027370547180e+00 6.383701021634171724e+01 2.600000000000000000e+02
7.626690021082445092e+00 6.524928581655160542e+01 2.600000000000000000e+02
7.552679014794342116e+00 6.666156141676151492e+01 2.600000000000000000e+02
7.478668008506239140e+00 6.807383701697141021e+01 2.600000000000000000e+02
7.404657002218137052e+00 6.948611261718130550e+01 2.600000000000000000e+02
7.330645995930034076e+00 7.089838821739120078e+01 2.600000000000000000e+02
7.256634989641931099e+00 7.231066381760109607e+01 2.600000000000000000e+02
7.182623983353828123e+00 7.372293941781099136e+01 2.600000000000000000e+02
7.700701027370547180e+00 6.383701021634171724e+01 2.610000000000000000e+02
7.626690021082445092e+00 6.524928581655160542e+01 2.610000000000000000e+02
7.552679014794342116e+00 6.666156141676151492e+01 2.610000000000000000e+02
7.478668008506239140e+00 6.807383701697141021e+01 2.610000000000000000e+02
7.404657002218137052e+00 6.948611261718130550e+01 2.610000000000000000e+02
7.330645995930034076e+00 7.089838821739120078e+01 2.610000000000000000e+02
7.256634989641931099e+00 7.231066381760109607e+01 2.610000000000000000e+02
7.182623983353828123e+00 7.372293941781099136e+01 2.610000000000000000e+02
7.700701027370547180e+00 6.383701021634171724e+01 2.620000000000000000e+02
7.626690021082445092e+00 6.524928581655160542e+01 2.620000000000000000e+02
7.552679014794342116e+00 6.666156141676151492e+01 2.620000000000000000e+02
7.478668008506239140e+00 6.807383701697141021e+01 2.620000000000000000e+02
7.404657002218137052e+00 6.948611261718130550e+01 2.620000000000000000e+02
7.330645995930034076e+00 7.089838821739120078e+01 2.620000000000000000e+02
7.256634989641931099e+00 7.231066381760109607e+01 2.620000000000000000e+02
7.182623983353828123e+00 7.372293941781099136e+01 2.620000000000000000e+02
7.108612977065725147e+00 7.513521501802088665e+01 2.620000000000000000e+02
7.700701027370547180e+00 6.383701021634171724e+01 2.630000000000000000e+02
7.626690021082445092e+00 6.524928581655160542e+01 2.630000000000000000e+02
7.552679014794342116e+00 6.666156141676151492e+01 2.630000000000000000e+02
7.478668008506239140e+00 6.807383701697141021e+01 2.630000000000000000e+02
7.404657002218137052e+00 6.948611261718130550e+01 2.630000000000000000e+02
7.330645995930034076e+00 7.089838821739120078e+01 2.630000000000000000e+02
7.256634989641931099e+00 7.231066381760109607e+01 2.630000000000000000e+02
7.182623983353828123e+00 7.372293941781099136e+01 2.630000000000000000e+02
7.108612977065725147e+00 7.513521501802088665e+01 2.630000000000000000e+02
7.700701027370547180e+00 6.383701021634171724e+01 2.640000000000000000e+02
7.626690021082445092e+00 6.524928581655160542e+01 2.640000000000000000e+02
7.552679014794342116e+00 6.666156141676151492e+01 2.640000000000000000e+02
7.478668008506239140e+00 6.807383701697141021e+01 2.640000000000000000e+02
7.404657002218137052e+00 6.948611261718130550e+01 2.640000000000000000e+02
7.330645995930034076e+00 7.089838821739120078e+01 2.640000000000000000e+02
7.256634989641931099e+00 7.231066381760109607e+01 2.640000000000000000e+02
7.182623983353828123e+00 7.372293941781099136e+01 2.640000000000000000e+02
7.700701027370547180e+00 6.383701021634171724e+01 2.650000000000000000e+02
7.626690021082445092e+00 6.524928581655160542e+01 2.650000000000000000e+02
7.552679014794342116e+00 6.666156141676151492e+01 2.650000000000000000e+02
7.478668008506239140e+00 6.807383701697141021e+01 2.650000000000000000e+02
7.404657002218137052e+00 6.948611261718130550e+01 2.650000000000000000e+02
7.330645995930034076e+00 7.089838821739120078e+01 2.650000000000000000e+02
7.256634989641931099e+00 7.231066381760109607e+01 2.650000000000000000e+02
7.182623983353828123e+00 7.372293941781099136e+01 2.650000000000000000e+02
7.700701027370547180e+00 6.383701021634171724e+01 2.660000000000000000e+02
7.626690021082445092e+00 6.524928581655160542e+01 2.660000000000000000e+02
7.552679014794342116e+00 6.666156141676151492e+01 2.660000000000000000e+02
7.478668008506239140e+00 6.807383701697141021e+01 2.660000000000000000e+02
7.404657002218137052e+00 6.948611261718130550e+01 2.660000000000000000e+02
7.330645995930034076e+00 7.089838821739120078e+01 2.660000000000000000e+02
7.256634989641931099e+00 7.231066381760109607e+01 2.660000000000000000e+02
7.182623983353828123e+00 7.372293941781099136e+01 2.660000000000000000e+02
7.108612977065725147e+00 7.513521501802088665e+01 2.660000000000000000e+02
7.700701027370547180e+00 6.383701021634171724e+01 2.670000000000000000e+02
7.626690021082445092e+00 6.524928581655160542e+01 2.670000000000000000e+02
7.552679014794342116e+00 6.666156141676151492e+01 2.670000000000000000e+02
7.478668008506239140e+00 6.807383701697141021e+01 2.670000000000000000e+02
7.404657002218137052e+00 6.948611261718130550e+01 2.670000000000000000e+02
7.330645995930034076e+00 7.089838821739120078e+01 2.670000000000000000e+02
7.256634989641931099e+00 7.231066381760109607e+01 2.670000000000000000e+02
7.182623983353828123e+00 7.372293941781099136e+01 2.670000000000000000e+02
7.108612977065725147e+00 7.513521501802088665e+01 2.670000000000000000e+02
7.700701027370547180e+00 6.383701021634171724e+01 2.680000000000000000e+02
7.626690021082445092e+00 6.524928581655160542e+01 2.680000000000000000e+02
7.552679014794342116e+00 6.666156141676151492e+01 2.680000000000000000e+02
7.478668008506239140e+00 6.807383701697141021e+01 2.680000000000000000e+02
7.404657002218137052e+00 6.948611261718130550e+01 2.680000000000000000e+02
7.330645995930034076e+00 7.089838821739120078e+01 2.680000000000000000e+02
7.256634989641931099e+00 7.231066381760109607e+01 2.680000000000000000e+02
7.182623983353828123e+00 7.372293941781099136e+01 2.680000000000000000e+02
7.108612977065725147e+00 7.513521501802088665e+01 2.680000000000000000e+02
7.700701027370547180e+00 6.383701021634171724e+01 2.690000000000000000e+02
7.626690021082445092e+00 6.524928581655160542e+01 2.690000000000000000e+02
7.552679014794342116e+00 6.666156141676151492e+01 2.690000000000000000e+02
7.478668008506239140e+00 6.807383701697141021e+01 2.690000000000000000e+02
7.404657002218137052e+00 6.948611261718130550e+01 2.690000000000000000e+02
7.330645995930034076e+00 7.089838821739120078e+01 2.690000000000000000e+02
7.256634989641931099e+00 7.231066381760109607e+01 2.690000000000000000e+02
7.182623983353828123e+00 7.372293941781099136e+01 2.690000000000000000e+02
7.108612977065725147e+00 7.513521501802088665e+01 2.690000000000000000e+02
7.700701027370547180e+00 6.383701021634171724e+01 2.700000000000000000e+02
7.626690021082445092e+00 6.524928581655160542e+01 2.700000000000000000e+02
7.552679014794342116e+00 6.666156141676151492e+01 2.700000000000000000e+02
7.478668008506239140e+00 6.807383701697141021e+01 2.700000000000000000e+02
7.404657002218137052e+00 6.948611261718130550e+01 2.700000000000000000e+02
7.330645995930034076e+00 7.089838821739120078e+01 2.700000000000000000e+02
7.256634989641931099e+00 7.231066381760109607e+01 2.700000000000000000e+02
7.182623983353828123e+00 7.372293941781099136e+01 2.700000000000000000e+02
7.108612977065725147e+00 7.513521501802088665e+01 2.700000000000000000e+02
7.700701027370547180e+00 6.383701021634171724e+01 2.710000000000000000e+02
7.626690021082445092e+00 6.524928581655160542e+01 2.710000000000000000e+02
7.552679014794342116e+00 6.666156141676151492e+01 2.710000000000000000e+02
7.478668008506239140e+00 6.807383701697141021e+01 2.710000000000000000e+02
7.404657002218137052e+00 6.948611261718130550e+01 2.710000000000000000e+02
7.330645995930034076e+00 7.089838821739120078e+01 2.710000000000000000e+02
7.256634989641931099e+00 7.231066381760109607e+01 2.710000000000000000e+02
7.182623983353828123e+00 7.372293941781099136e+01 2.710000000000000000e+02
7.108612977065725147e+00 7.513521501802088665e+01 2.710000000000000000e+02
7.700701027370547180e+00 6.383701021634171724e+01 2.720000000000000000e+02
7.626690021082445092e+00 6.524928581655160542e+01 2.720000000000000000e+02
7.552679014794342116e+00 6.666156141676151492e+01 2.720000000000000000e+02
7.478668008506239140e+00 6.807383701697141021e+01 2.720000000000000000e+02
7.404657002218137052e+00 6.948611261718130550e+01 2.720000000000000000e+02
7.330645995930034076e+00 7.089838821739120078e+01 2.720000000000000000e+02
7.256634989641931099e+00 7.231066381760109607e+01 2.720000000000000000e+02
7.182623983353828123e+00 7.372293941781099136e+01 2.720000000000000000e+02
7.108612977065725147e+00 7.513521501802088665e+01 2.720000000000000000e+02
7.700701027370547180e+00 6.383701021634171724e+01 2.730000000000000000e+02
7.626690021082445092e+00 6.524928581655160542e+01 2.730000000000000000e+02
7.552679014794342116e+00 6.666156141676151492e+01 2.730000000000000000e+02
7.478668008506239140e+00 6.807383701697141021e+01 2.730000000000000000e+02
7.404657002218137052e+00 6.948611261718130550e+01 2.730000000000000000e+02
7.330645995930034076e+00 7.089838821739120078e+01 2.730000000000000000e+02
7.256634989641931099e+00 7.231066381760109607e+01 2.730000000000000000e+02
7.182623983353828123e+00 7.372293941781099136e+01 2.730000000000000000e+02
7.108612977065725147e+00 7.513521501802088665e+01 2.730000000000000000e+02
7.700701027370547180e+00 6.383701021634171724e+01 2.740000000000000000e+02
7.626690021082445092e+00 6.524928581655160542e+01 2.740000000000000000e+02
7.552679014794342116e+00 6.666156141676151492e+01 2.740000000000000000e+02
7.478668008506239140e+00 6.807383701697141021e+01 2.740000000000000000e+02
7.404657002218137052e+00 6.948611261718130550e+01 2.740000000000000000e+02
7.330645995930034076e+00 7.089838821739120078e+01 2.740000000000000000e+02
7.256634989641931099e+00 7.231066381760109607e+01 2.740000000000000000e+02
7.182623983353828123e+00 7.372293941781099136e+01 2.740000000000000000e+02
7.108612977065725147e+00 7.513521501802088665e+01 2.740000000000000000e+02
7.700701027370547180e+00 6.383701021634171724e+01 2.750000000000000000e+02
7.626690021082445092e+00 6.524928581655160542e+01 2.750000000000000000e+02
7.552679014794342116e+00 6.666156141676151492e+01 2.750000000000000000e+02
7.478668008506239140e+00 6.807383701697141021e+01 2.750000000000000000e+02
7.404657002218137052e+00 6.948611261718130550e+01 2.750000000000000000e+02
7.330645995930034076e+00 7.089838821739120078e+01 2.750000000000000000e+02
7.256634989641931099e+00 7.231066381760109607e+01 2.750000000000000000e+02
7.182623983353828123e+00 7.372293941781099136e+01 2.750000000000000000e+02
7.108612977065725147e+00 7.513521501802088665e+01 2.750000000000000000e+02
7.031568730409651025e+00 6.309386691309271811e+01 2.760000000000000000e+02
6.957557724121548048e+00 6.450614251330260629e+01 2.760000000000000000e+02
6.883546717833445072e+00 6.591841811351250158e+01 2.760000000000000000e+02
6.809535711545342096e+00 6.733069371372241108e+01 2.760000000000000000e+02
6.735524705257240008e+00 6.874296931393230636e+01 2.760000000000000000e+02
6.661513698969137032e+00 7.015524491414220165e+01 2.760000000000000000e+02
6.587502692681034944e+00 7.156752051435209694e+01 2.760000000000000000e+02
6.513491686392931967e+00 7.297979611456199223e+01 2.760000000000000000e+02
6.439480680104828991e+00 7.439207171477188751e+01 2.760000000000000000e+02
6.365469673816726015e+00 7.580434731498178280e+01 2.760000000000000000e+02
7.031568730409651025e+00 6.309386691309271811e+01 2.770000000000000000e+02
6.957557724121548048e+00 6.450614251330260629e+01 2.770000000000000000e+02
6.883546717833445072e+00 6.591841811351250158e+01 2.770000000000000000e+02
6.809535711545342096e+00 6.733069371372241108e+01 2.770000000000000000e+02
6.735524705257240008e+00 6.874296931393230636e+01 2.770000000000000000e+02
6.661513698969137032e+00 7.015524491414220165e+01 2.770000000000000000e+02
6.587502692681034944e+00 7.156752051435209694e+01 2.770000000000000000e+02
6.513491686392931967e+00 7.297979611456199223e+01 2.770000000000000000e+02
6.439480680104828991e+00 7.439207171477188751e+01 2.770000000000000000e+02
6.365469673816726015e+00 7.580434731498178280e+01 2.770000000000000000e+02
7.031568730409651025e+00 6.309386691309271811e+01 2.780000000000000000e+02
6.957557724121548048e+00 6.450614251330260629e+01 2.780000000000000000e+02
6.883546717833445072e+00 6.591841811351250158e+01 2.780000000000000000e+02
6.809535711545342096e+00 6.733069371372241108e+01 2.780000000000000000e+02
6.735524705257240008e+00 6.874296931393230636e+01 2.780000000000000000e+02
6.661513698969137032e+00 7.015524491414220165e+01 2.780000000000000000e+02
6.587502692681034944e+00 7.156752051435209694e+01 2.780000000000000000e+02
6.513491686392931967e+00 7.297979611456199223e+01 2.780000000000000000e+02
6.439480680104828991e+00 7.439207171477188751e+01 2.780000000000000000e+02
6.365469673816726015e+00 7.580434731498178280e+01 2.780000000000000000e+02
7.700701027370547180e+00 6.383701021634171724e+01 2.790000000000000000e+02
7.626690021082445092e+00 6.524928581655160542e+01 2.790000000000000000e+02
7.552679014794342116e+00 6.666156141676151492e+01 2.790000000000000000e+02
7.478668008506239140e+00 6.807383701697141021e+01 2.790000000000000000e+02
7.404657002218137052e+00 6.948611261718130550e+01 2.790000000000000000e+02
7.330645995930034076e+00 7.089838821739120078e+01 2.790000000000000000e+02
7.256634989641931099e+00 7.231066381760109607e+01 2.790000000000000000e+02
7.182623983353828123e+00 7.372293941781099136e+01 2.790000000000000000e+02
7.108612977065725147e+00 7.513521501802088665e+01 2.790000000000000000e+02
7.700701027370547180e+00 6.383701021634171724e+01 2.800000000000000000e+02
7.626690021082445092e+00 6.524928581655160542e+01 2.800000000000000000e+02
7.552679014794342116e+00 6.666156141676151492e+01 2.800000000000000000e+02
7.478668008506239140e+00 6.807383701697141021e+01 2.800000000000000000e+02
7.404657002218137052e+00 6.948611261718130550e+01 2.800000000000000000e+02
7.330645995930034076e+00 7.089838821739120078e+01 2.800000000000000000e+02
7.256634989641931099e+00 7.231066381760109607e+01 2.800000000000000000e+02
7.182623983353828123e+00 7.372293941781099136e+01 2.800000000000000000e+02
7.108612977065725147e+00 7.513521501802088665e+01 2.800000000000000000e+02
7.700701027370547180e+00 6.383701021634171724e+01 2.810000000000000000e+02
7.626690021082445092e+00 6.524928581655160542e+01 2.810000000000000000e+02
7.552679014794342116e+00 6.666156141676151492e+01 2.810000000000000000e+02
7.478668008506239140e+00 6.807383701697141021e+01 2.810000000000000000e+02
7.404657002218137052e+00 6.948611261718130550e+01 2.810000000000000000e+02
7.330645995930034076e+00 7.089838821739120078e+01 2.810000000000000000e+02
7.256634989641931099e+00 7.231066381760109607e+01 2.810000000000000000e+02
7.182623983353828123e+00 7.372293941781099136e+01 2.810000000000000000e+02
7.108612977065725147e+00 7.513521501802088665e+01 2.810000000000000000e+02
7.031568730409651025e+00 6.309386691309271811e+01 2.820000000000000000e+02
6.957557724121548048e+00 6.450614251330260629e+01 2.820000000000000000e+02
6.883546717833445072e+00 6.591841811351250158e+01 2.820000000000000000e+02
6.809535711545342096e+00 6.733069371372241108e+01 2.820000000000000000e+02
6.735524705257240008e+00 6.874296931393230636e+01 2.820000000000000000e+02
6.661513698969137032e+00 7.015524491414220165e+01 2.820000000000000000e+02
6.587502692681034944e+00 7.156752051435209694e+01 2.820000000000000000e+02
6.513491686392931967e+00 7.297979611456199223e+01 2.820000000000000000e+02
6.439480680104828991e+00 7.439207171477188751e+01 2.820000000000000000e+02
6.365469673816726015e+00 7.580434731498178280e+01 2.820000000000000000e+02
7.700701027370547180e+00 6.383701021634171724e+01 2.830000000000000000e+02
7.626690021082445092e+00 6.524928581655160542e+01 2.830000000000000000e+02
7.552679014794342116e+00 6.666156141676151492e+01 2.830000000000000000e+02
7.478668008506239140e+00 6.807383701697141021e+01 2.830000000000000000e+02
7.404657002218137052e+00 6.948611261718130550e+01 2.830000000000000000e+02
7.330645995930034076e+00 7.089838821739120078e+01 2.830000000000000000e+02
7.256634989641931099e+00 7.231066381760109607e+01 2.830000000000000000e+02
7.182623983353828123e+00 7.372293941781099136e+01 2.830000000000000000e+02
7.108612977065725147e+00 7.513521501802088665e+01 2.830000000000000000e+02
7.700701027370547180e+00 6.383701021634171724e+01 2.840000000000000000e+02
7.626690021082445092e+00 6.524928581655160542e+01 2.840000000000000000e+02
7.552679014794342116e+00 6.666156141676151492e+01 2.840000000000000000e+02
7.478668008506239140e+00 6.807383701697141021e+01 2.840000000000000000e+02
7.404657002218137052e+00 6.948611261718130550e+01 2.840000000000000000e+02
7.330645995930034076e+00 7.089838821739120078e+01 2.840000000000000000e+02
7.256634989641931099e+00 7.231066381760109607e+01 2.840000000000000000e+02
7.182623983353828123e+00 7.372293941781099136e+01 2.840000000000000000e+02
7.108612977065725147e+00 7.513521501802088665e+01 2.840000000000000000e+02
7.700701027370547180e+00 6.383701021634171724e+01 2.850000000000000000e+02
7.626690021082445092e+00 6.524928581655160542e+01 2.850000000000000000e+02
7.552679014794342116e+00 6.666156141676151492e+01 2.850000000000000000e+02
7.478668008506239140e+00 6.807383701697141021e+01 2.850000000000000000e+02
7.404657002218137052e+00 6.948611261718130550e+01 2.850000000000000000e+02
7.330645995930034076e+00 7.089838821739120078e+01 2.850000000000000000e+02
7.256634989641931099e+00 7.231066381760109607e+01 2.850000000000000000e+02
7.182623983353828123e+00 7.372293941781099136e+01 2.850000000000000000e+02
7.108612977065725147e+00 7.513521501802088665e+01 2.850000000000000000e+02
7.700701027370547180e+00 6.383701021634171724e+01 2.860000000000000000e+02
7.626690021082445092e+00 6.524928581655160542e+01 2.860000000000000000e+02
7.552679014794342116e+00 6.666156141676151492e+01 2.860000000000000000e+02
7.478668008506239140e+00 6.807383701697141021e+01 2.860000000000000000e+02
7.404657002218137052e+00 6.948611261718130550e+01 2.860000000000000000e+02
7.330645995930034076e+00 7.089838821739120078e+01 2.860000000000000000e+02
7.256634989641931099e+00 7.231066381760109607e+01 2.860000000000000000e+02
7.182623983353828123e+00 7.372293941781099136e+01 2.860000000000000000e+02
7.108612977065725147e+00 7.513521501802088665e+01 2.860000000000000000e+02
7.700701027370547180e+00 6.383701021634171724e+01 2.870000000000000000e+02
7.626690021082445092e+00 6.524928581655160542e+01 2.870000000000000000e+02
7.552679014794342116e+00 6.666156141676151492e+01 2.870000000000000000e+02
7.478668008506239140e+00 6.807383701697141021e+01 2.870000000000000000e+02
7.404657002218137052e+00 6.948611261718130550e+01 2.870000000000000000e+02
7.330645995930034076e+00 7.089838821739120078e+01 2.870000000000000000e+02
7.256634989641931099e+00 7.231066381760109607e+01 2.870000000000000000e+02
7.182623983353828123e+00 7.372293941781099136e+01 2.870000000000000000e+02
7.108612977065725147e+00 7.513521501802088665e+01 2.870000000000000000e+02
7.700701027370547180e+00 6.383701021634171724e+01 2.880000000000000000e+02
7.626690021082445092e+00 6.524928581655160542e+01 2.880000000000000000e+02
7.552679014794342116e+00 6.666156141676151492e+01 2.880000000000000000e+02
7.478668008506239140e+00 6.807383701697141021e+01 2.880000000000000000e+02
7.404657002218137052e+00 6.948611261718130550e+01 2.880000000000000000e+02
7.330645995930034076e+00 7.089838821739120078e+01 2.880000000000000000e+02
7.256634989641931099e+00 7.231066381760109607e+01 2.880000000000000000e+02
7.182623983353828123e+00 7.372293941781099136e+01 2.880000000000000000e+02
7.700701027370547180e+00 6.383701021634171724e+01 2.890000000000000000e+02
7.626690021082445092e+00 6.524928581655160542e+01 2.890000000000000000e+02
7.552679014794342116e+00 6.666156141676151492e+01 2.890000000000000000e+02
7.478668008506239140e+00 6.807383701697141021e+01 2.890000000000000000e+02
7.404657002218137052e+00 6.948611261718130550e+01 2.890000000000000000e+02
7.330645995930034076e+00 7.089838821739120078e+01 2.890000000000000000e+02
7.256634989641931099e+00 7.231066381760109607e+01 2.890000000000000000e+02
7.182623983353828123e+00 7.372293941781099136e+01 2.890000000000000000e+02
7.108612977065725147e+00 7.513521501802088665e+01 2.890000000000000000e+02
7.700701027370547180e+00 6.383701021634171724e+01 2.900000000000000000e+02
7.626690021082445092e+00 6.524928581655160542e+01 2.900000000000000000e+02
7.552679014794342116e+00 6.666156141676151492e+01 2.900000000000000000e+02
7.478668008506239140e+00 6.807383701697141021e+01 2.900000000000000000e+02
7.404657002218137052e+00 6.948611261718130550e+01 2.900000000000000000e+02
7.330645995930034076e+00 7.089838821739120078e+01 2.900000000000000000e+02
7.256634989641931099e+00 7.231066381760109607e+01 2.900000000000000000e+02
7.182623983353828123e+00 7.372293941781099136e+01 2.900000000000000000e+02
7.108612977065725147e+00 7.513521501802088665e+01 2.900000000000000000e+02
7.700701027370547180e+00 6.383701021634171724e+01 2.910000000000000000e+02
7.626690021082445092e+00 6.524928581655160542e+01 2.910000000000000000e+02
7.552679014794342116e+00 6.666156141676151492e+01 2.910000000000000000e+02
7.478668008506239140e+00 6.807383701697141021e+01 2.910000000000000000e+02
7.404657002218137052e+00 6.948611261718130550e+01 2.910000000000000000e+02
7.330645995930034076e+00 7.089838821739120078e+01 2.910000000000000000e+02
7.256634989641931099e+00 7.231066381760109607e+01 2.910000000000000000e+02
7.182623983353828123e+00 7.372293941781099136e+01 2.910000000000000000e+02
7.108612977065725147e+00 7.513521501802088665e+01 2.910000000000000000e+02
7.700701027370547180e+00 6.383701021634171724e+01 2.920000000000000000e+02
7.626690021082445092e+00 6.524928581655160542e+01 2.920000000000000000e+02
7.552679014794342116e+00 6.666156141676151492e+01 2.920000000000000000e+02
7.478668008506239140e+00 6.807383701697141021e+01 2.920000000000000000e+02
7.404657002218137052e+00 6.948611261718130550e+01 2.920000000000000000e+02
7.330645995930034076e+00 7.089838821739120078e+01 2.920000000000000000e+02
7.256634989641931099e+00 7.231066381760109607e+01 2.920000000000000000e+02
7.182623983353828123e+00 7.372293941781099136e+01 2.920000000000000000e+02
7.108612977065725147e+00 7.513521501802088665e+01 2.920000000000000000e+02
7.700701027370547180e+00 6.383701021634171724e+01 2.930000000000000000e+02
7.626690021082445092e+00 6.524928581655160542e+01 2.930000000000000000e+02
7.552679014794342116e+00 6.666156141676151492e+01 2.930000000000000000e+02
7.478668008506239140e+00 6.807383701697141021e+01 2.930000000000000000e+02
7.404657002218137052e+00 6.948611261718130550e+01 2.930000000000000000e+02
7.330645995930034076e+00 7.089838821739120078e+01 2.930000000000000000e+02
7.256634989641931099e+00 7.231066381760109607e+01 2.930000000000000000e+02
7.182623983353828123e+00 7.372293941781099136e+01 2.930000000000000000e+02
7.108612977065725147e+00 7.513521501802088665e+01 2.930000000000000000e+02
7.700701027370547180e+00 6.383701021634171724e+01 2.940000000000000000e+02
7.626690021082445092e+00 6.524928581655160542e+01 2.940000000000000000e+02
7.552679014794342116e+00 6.666156141676151492e+01 2.940000000000000000e+02
7.478668008506239140e+00 6.807383701697141021e+01 2.940000000000000000e+02
7.404657002218137052e+00 6.948611261718130550e+01 2.940000000000000000e+02
7.330645995930034076e+00 7.089838821739120078e+01 2.940000000000000000e+02
7.256634989641931099e+00 7.231066381760109607e+01 2.940000000000000000e+02
7.182623983353828123e+00 7.372293941781099136e+01 2.940000000000000000e+02
7.108612977065725147e+00 7.513521501802088665e+01 2.940000000000000000e+02
7.700701027370547180e+00 6.383701021634171724e+01 2.950000000000000000e+02
7.626690021082445092e+00 6.524928581655160542e+01 2.950000000000000000e+02
7.552679014794342116e+00 6.666156141676151492e+01 2.950000000000000000e+02
7.478668008506239140e+00 6.807383701697141021e+01 2.950000000000000000e+02
7.404657002218137052e+00 6.948611261718130550e+01 2.950000000000000000e+02
7.330645995930034076e+00 7.089838821739120078e+01 2.950000000000000000e+02
7.256634989641931099e+00 7.231066381760109607e+01 2.950000000000000000e+02
7.182623983353828123e+00 7.372293941781099136e+01 2.950000000000000000e+02
7.108612977065725147e+00 7.513521501802088665e+01 2.950000000000000000e+02
7.700701027370547180e+00 6.383701021634171724e+01 2.960000000000000000e+02
7.626690021082445092e+00 6.524928581655160542e+01 2.960000000000000000e+02
7.552679014794342116e+00 6.666156141676151492e+01 2.960000000000000000e+02
7.478668008506239140e+00 6.807383701697141021e+01 2.960000000000000000e+02
7.404657002218137052e+00 6.948611261718130550e+01 2.960000000000000000e+02
7.330645995930034076e+00 7.089838821739120078e+01 2.960000000000000000e+02
7.256634989641931099e+00 7.231066381760109607e+01 2.960000000000000000e+02
7.182623983353828123e+00 7.372293941781099136e+01 2.960000000000000000e+02
7.700701027370547180e+00 6.383701021634171724e+01 2.970000000000000000e+02
7.626690021082445092e+00 6.524928581655160542e+01 2.970000000000000000e+02
7.552679014794342116e+00 6.666156141676151492e+01 2.970000000000000000e+02
7.478668008506239140e+00 6.807383701697141021e+01 2.970000000000000000e+02
7.404657002218137052e+00 6.948611261718130550e+01 2.970000000000000000e+02
7.330645995930034076e+00 7.089838821739120078e+01 2.970000000000000000e+02
7.256634989641931099e+00 7.231066381760109607e+01 2.970000000000000000e+02
7.182623983353828123e+00 7.372293941781099136e+01 2.970000000000000000e+02
7.700701027370547180e+00 6.383701021634171724e+01 2.980000000000000000e+02
7.626690021082445092e+00 6.524928581655160542e+01 2.980000000000000000e+02
7.552679014794342116e+00 6.666156141676151492e+01 2.980000000000000000e+02
7.478668008506239140e+00 6.807383701697141021e+01 2.980000000000000000e+02
7.404657002218137052e+00 6.948611261718130550e+01 2.980000000000000000e+02
7.330645995930034076e+00 7.089838821739120078e+01 2.980000000000000000e+02
7.256634989641931099e+00 7.231066381760109607e+01 2.980000000000000000e+02
7.182623983353828123e+00 7.372293941781099136e+01 2.980000000000000000e+02
7.700701027370547180e+00 6.383701021634171724e+01 2.990000000000000000e+02
7.626690021082445092e+00 6.524928581655160542e+01 2.990000000000000000e+02
7.552679014794342116e+00 6.666156141676151492e+01 2.990000000000000000e+02
7.478668008506239140e+00 6.807383701697141021e+01 2.990000000000000000e+02
7.404657002218137052e+00 6.948611261718130550e+01 2.990000000000000000e+02
7.330645995930034076e+00 7.089838821739120078e+01 2.990000000000000000e+02
7.256634989641931099e+00 7.231066381760109607e+01 2.990000000000000000e+02
7.182623983353828123e+00 7.372293941781099136e+01 2.990000000000000000e+02
7.108612977065725147e+00 7.513521501802088665e+01 2.990000000000000000e+02
7.700701027370547180e+00 6.383701021634171724e+01 3.000000000000000000e+02
7.626690021082445092e+00 6.524928581655160542e+01 3.000000000000000000e+02
7.552679014794342116e+00 6.666156141676151492e+01 3.000000000000000000e+02
7.478668008506239140e+00 6.807383701697141021e+01 3.000000000000000000e+02
7.404657002218137052e+00 6.948611261718130550e+01 3.000000000000000000e+02
7.330645995930034076e+00 7.089838821739120078e+01 3.000000000000000000e+02
7.256634989641931099e+00 7.231066381760109607e+01 3.000000000000000000e+02
7.182623983353828123e+00 7.372293941781099136e+01 3.000000000000000000e+02
7.108612977065725147e+00 7.513521501802088665e+01 3.000000000000000000e+02
7.700701027370547180e+00 6.383701021634171724e+01 3.010000000000000000e+02
7.626690021082445092e+00 6.524928581655160542e+01 3.010000000000000000e+02
7.552679014794342116e+00 6.666156141676151492e+01 3.010000000000000000e+02
7.478668008506239140e+00 6.807383701697141021e+01 3.010000000000000000e+02
7.404657002218137052e+00 6.948611261718130550e+01 3.010000000000000000e+02
7.330645995930034076e+00 7.089838821739120078e+01 3.010000000000000000e+02
7.256634989641931099e+00 7.231066381760109607e+01 3.010000000000000000e+02
7.182623983353828123e+00 7.372293941781099136e+01 3.010000000000000000e+02
7.700701027370547180e+00 6.383701021634171724e+01 3.020000000000000000e+02
7.626690021082445092e+00 6.524928581655160542e+01 3.020000000000000000e+02
7.552679014794342116e+00 6.666156141676151492e+01 3.020000000000000000e+02
7.478668008506239140e+00 6.807383701697141021e+01 3.020000000000000000e+02
7.404657002218137052e+00 6.948611261718130550e+01 3.020000000000000000e+02
7.330645995930034076e+00 7.089838821739120078e+01 3.020000000000000000e+02
7.256634989641931099e+00 7.231066381760109607e+01 3.020000000000000000e+02
7.182623983353828123e+00 7.372293941781099136e+01 3.020000000000000000e+02
7.700701027370547180e+00 6.383701021634171724e+01 3.030000000000000000e+02
7.626690021082445092e+00 6.524928581655160542e+01 3.030000000000000000e+02
7.552679014794342116e+00 6.666156141676151492e+01 3.030000000000000000e+02
7.478668008506239140e+00 6.807383701697141021e+01 3.030000000000000000e+02
7.404657002218137052e+00 6.948611261718130550e+01 3.030000000000000000e+02
7.330645995930034076e+00 7.089838821739120078e+01 3.030000000000000000e+02
7.256634989641931099e+00 7.231066381760109607e+01 3.030000000000000000e+02
7.182623983353828123e+00 7.372293941781099136e+01 3.030000000000000000e+02
7.700701027370547180e+00 6.383701021634171724e+01 3.040000000000000000e+02
7.626690021082445092e+00 6.524928581655160542e+01 3.040000000000000000e+02
7.552679014794342116e+00 6.666156141676151492e+01 3.040000000000000000e+02
7.478668008506239140e+00 6.807383701697141021e+01 3.040000000000000000e+02
7.404657002218137052e+00 6.948611261718130550e+01 3.040000000000000000e+02
7.330645995930034076e+00 7.089838821739120078e+01 3.040000000000000000e+02
7.256634989641931099e+00 7.231066381760109607e+01 3.040000000000000000e+02
7.182623983353828123e+00 7.372293941781099136e+01 3.040000000000000000e+02
7.700701027370547180e+00 6.383701021634171724e+01 3.050000000000000000e+02
7.626690021082445092e+00 6.524928581655160542e+01 3.050000000000000000e+02
7.552679014794342116e+00 6.666156141676151492e+01 3.050000000000000000e+02
7.478668008506239140e+00 6.807383701697141021e+01 3.050000000000000000e+02
7.404657002218137052e+00 6.948611261718130550e+01 3.050000000000000000e+02
7.330645995930034076e+00 7.089838821739120078e+01 3.050000000000000000e+02
7.256634989641931099e+00 7.231066381760109607e+01 3.050000000000000000e+02
7.182623983353828123e+00 7.372293941781099136e+01 3.050000000000000000e+02
7.700701027370547180e+00 6.383701021634171724e+01 3.060000000000000000e+02
7.626690021082445092e+00 6.524928581655160542e+01 3.060000000000000000e+02
7.552679014794342116e+00 6.666156141676151492e+01 3.060000000000000000e+02
7.478668008506239140e+00 6.807383701697141021e+01 3.060000000000000000e+02
7.404657002218137052e+00 6.948611261718130550e+01 3.060000000000000000e+02
7.330645995930034076e+00 7.089838821739120078e+01 3.060000000000000000e+02
7.256634989641931099e+00 7.231066381760109607e+01 3.060000000000000000e+02
7.182623983353828123e+00 7.372293941781099136e+01 3.060000000000000000e+02
7.108612977065725147e+00 7.513521501802088665e+01 3.060000000000000000e+02
7.700701027370547180e+00 6.383701021634171724e+01 3.070000000000000000e+02
7.626690021082445092e+00 6.524928581655160542e+01 3.070000000000000000e+02
7.552679014794342116e+00 6.666156141676151492e+01 3.070000000000000000e+02
7.478668008506239140e+00 6.807383701697141021e+01 3.070000000000000000e+02
7.404657002218137052e+00 6.948611261718130550e+01 3.070000000000000000e+02
7.330645995930034076e+00 7.089838821739120078e+01 3.070000000000000000e+02
7.256634989641931099e+00 7.231066381760109607e+01 3.070000000000000000e+02
7.182623983353828123e+00 7.372293941781099136e+01 3.070000000000000000e+02
7.108612977065725147e+00 7.513521501802088665e+01 3.070000000000000000e+02
7.700701027370547180e+00 6.383701021634171724e+01 3.080000000000000000e+02
7.626690021082445092e+00 6.524928581655160542e+01 3.080000000000000000e+02
7.552679014794342116e+00 6.666156141676151492e+01 3.080000000000000000e+02
7.478668008506239140e+00 6.807383701697141021e+01 3.080000000000000000e+02
7.404657002218137052e+00 6.948611261718130550e+01 3.080000000000000000e+02
7.330645995930034076e+00 7.089838821739120078e+01 3.080000000000000000e+02
7.256634989641931099e+00 7.231066381760109607e+01 3.080000000000000000e+02
7.182623983353828123e+00 7.372293941781099136e+01 3.080000000000000000e+02
7.108612977065725147e+00 7.513521501802088665e+01 3.080000000000000000e+02
7.700701027370547180e+00 6.383701021634171724e+01 3.090000000000000000e+02
7.626690021082445092e+00 6.524928581655160542e+01 3.090000000000000000e+02
7.552679014794342116e+00 6.666156141676151492e+01 3.090000000000000000e+02
7.478668008506239140e+00 6.807383701697141021e+01 3.090000000000000000e+02
7.404657002218137052e+00 6.948611261718130550e+01 3.090000000000000000e+02
7.330645995930034076e+00 7.089838821739120078e+01 3.090000000000000000e+02
7.256634989641931099e+00 7.231066381760109607e+01 3.090000000000000000e+02
7.182623983353828123e+00 7.372293941781099136e+01 3.090000000000000000e+02
7.108612977065725147e+00 7.513521501802088665e+01 3.090000000000000000e+02
7.700701027370547180e+00 6.383701021634171724e+01 3.100000000000000000e+02
7.626690021082445092e+00 6.524928581655160542e+01 3.100000000000000000e+02
7.552679014794342116e+00 6.666156141676151492e+01 3.100000000000000000e+02
7.478668008506239140e+00 6.807383701697141021e+01 3.100000000000000000e+02
7.404657002218137052e+00 6.948611261718130550e+01 3.100000000000000000e+02
7.330645995930034076e+00 7.089838821739120078e+01 3.100000000000000000e+02
7.256634989641931099e+00 7.231066381760109607e+01 3.100000000000000000e+02
