-2.564092962833560030e+00 -2.078167695766796719e+00 3.370000000000000000e+02
-1.240667765100453845e+00 -1.579624070789914736e+00 3.370000000000000000e+02
8.275743263265186722e-02 -1.081080445813032975e+00 3.370000000000000000e+02
1.406182630365757857e+00 -5.825368208361512146e-01 3.370000000000000000e+02
2.729607828098863820e+00 -8.399319585926934284e-02 3.370000000000000000e+02
4.053033025831969560e+00 4.145504291176128620e-01 3.370000000000000000e+02
5.376458223565075301e+00 9.130940540944944006e-01 3.370000000000000000e+02
6.699883421298181929e+00 1.411637679071376272e+00 3.370000000000000000e+02
-4.299958946944777871e+00 -3.487695732098672341e+00 3.380000000000000000e+02
-2.976533749211671687e+00 -2.989152107121790358e+00 3.380000000000000000e+02
-1.653108551478565946e+00 -2.490608482144908820e+00 3.380000000000000000e+02
-3.296833537454601504e-01 -1.992064857168026837e+00 3.380000000000000000e+02
9.937418439876458676e-01 -1.493521232191144854e+00 3.380000000000000000e+02
2.317167041720751719e+00 -9.949776072142632044e-01 3.380000000000000000e+02
3.640592239453857459e+00 -4.964339822373812217e-01 3.380000000000000000e+02
4.964017437186964088e+00 2.109642739500761088e-03 3.380000000000000000e+02
6.287442634920069828e+00 5.006532677163825218e-01 3.380000000000000000e+02
-4.299958946944777871e+00 -3.487695732098672341e+00 3.390000000000000000e+02
-2.976533749211671687e+00 -2.989152107121790358e+00 3.390000000000000000e+02
-1.653108551478565946e+00 -2.490608482144908820e+00 3.390000000000000000e+02
-3.296833537454601504e-01 -1.992064857168026837e+00 3.390000000000000000e+02
9.937418439876458676e-01 -1.493521232191144854e+00 3.390000000000000000e+02
2.317167041720751719e+00 -9.949776072142632044e-01 3.390000000000000000e+02
3.640592239453857459e+00 -4.964339822373812217e-01 3.390000000000000000e+02
4.964017437186964088e+00 2.109642739500761088e-03 3.390000000000000000e+02
6.287442634920069828e+00 5.006532677163825218e-01 3.390000000000000000e+02
-4.299958946944777871e+00 -3.487695732098672341e+00 3.400000000000000000e+02
-2.976533749211671687e+00 -2.989152107121790358e+00 3.400000000000000000e+02
-1.653108551478565946e+00 -2.490608482144908820e+00 3.400000000000000000e+02
-3.296833537454601504e-01 -1.992064857168026837e+00 3.400000000000000000e+02
9.937418439876458676e-01 -1.493521232191144854e+00 3.400000000000000000e+02
2.317167041720751719e+00 -9.949776072142632044e-01 3.400000000000000000e+02
3.640592239453857459e+00 -4.964339822373812217e-01 3.400000000000000000e+02
4.964017437186964088e+00 2.109642739500761088e-03 3.400000000000000000e+02
6.287442634920069828e+00 5.006532677163825218e-01 3.400000000000000000e+02
-4.299958946944777871e+00 -3.487695732098672341e+00 3.410000000000000000e+02
-2.976533749211671687e+00 -2.989152107121790358e+00 3.410000000000000000e+02
-1.653108551478565946e+00 -2.490608482144908820e+00 3.410000000000000000e+02
-3.296833537454601504e-01 -1.992064857168026837e+00 3.410000000000000000e+02
9.937418439876458676e-01 -1.493521232191144854e+00 3.410000000000000000e+02
2.317167041720751719e+00 -9.949776072142632044e-01 3.410000000000000000e+02
3.640592239453857459e+00 -4.964339822373812217e-01 3.410000000000000000e+02
4.964017437186964088e+00 2.109642739500761088e-03 3.410000000000000000e+02
6.287442634920069828e+00 5.006532677163825218e-01 3.410000000000000000e+02
-4.299958946944777871e+00 -3.487695732098672341e+00 3.420000000000000000e+02
-2.976533749211671687e+00 -2.989152107121790358e+00 3.420000000000000000e+02
-1.653108551478565946e+00 -2.490608482144908820e+00 3.420000000000000000e+02
-3.296833537454601504e-01 -1.992064857168026837e+00 3.420000000000000000e+02
9.937418439876458676e-01 -1.493521232191144854e+00 3.420000000000000000e+02
2.317167041720751719e+00 -9.949776072142632044e-01 3.420000000000000000e+02
3.640592239453857459e+00 -4.964339822373812217e-01 3.420000000000000000e+02
4.964017437186964088e+00 2.109642739500761088e-03 3.420000000000000000e+02
6.287442634920069828e+00 5.006532677163825218e-01 3.420000000000000000e+02
-4.299958946944777871e+00 -3.487695732098672341e+00 3.430000000000000000e+02
-2.976533749211671687e+00 -2.989152107121790358e+00 3.430000000000000000e+02
-1.653108551478565946e+00 -2.490608482144908820e+00 3.430000000000000000e+02
-3.296833537454601504e-01 -1.992064857168026837e+00 3.430000000000000000e+02
9.937418439876458676e-01 -1.493521232191144854e+00 3.430000000000000000e+02
2.317167041720751719e+00 -9.949776072142632044e-01 3.430000000000000000e+02
3.640592239453857459e+00 -4.964339822373812217e-01 3.430000000000000000e+02
4.964017437186964088e+00 2.109642739500761088e-03 3.430000000000000000e+02
6.287442634920069828e+00 5.006532677163825218e-01 3.430000000000000000e+02
-4.299958946944777871e+00 -3.487695732098672341e+00 3.440000000000000000e+02
-2.976533749211671687e+00 -2.989152107121790358e+00 3.440000000000000000e+02
-1.653108551478565946e+00 -2.490608482144908820e+00 3.440000000000000000e+02
-3.296833537454601504e-01 -1.992064857168026837e+00 3.440000000000000000e+02
9.937418439876458676e-01 -1.493521232191144854e+00 3.440000000000000000e+02
2.317167041720751719e+00 -9.949776072142632044e-01 3.440000000000000000e+02
3.640592239453857459e+00 -4.964339822373812217e-01 3.440000000000000000e+02
4.964017437186964088e+00 2.109642739500761088e-03 3.440000000000000000e+02
6.287442634920069828e+00 5.006532677163825218e-01 3.440000000000000000e+02
-4.299958946944777871e+00 -3.487695732098672341e+00 3.450000000000000000e+02
-2.976533749211671687e+00 -2.989152107121790358e+00 3.450000000000000000e+02
-1.653108551478565946e+00 -2.490608482144908820e+00 3.450000000000000000e+02
-3.296833537454601504e-01 -1.992064857168026837e+00 3.450000000000000000e+02
9.937418439876458676e-01 -1.493521232191144854e+00 3.450000000000000000e+02
2.317167041720751719e+00 -9.949776072142632044e-01 3.450000000000000000e+02
3.640592239453857459e+00 -4.964339822373812217e-01 3.450000000000000000e+02
4.964017437186964088e+00 2.109642739500761088e-03 3.450000000000000000e+02
6.287442634920069828e+00 5.006532677163825218e-01 3.450000000000000000e+02
-5.210943358299771511e+00 -3.075254945720560684e+00 3.460000000000000000e+02
-3.887518160566665770e+00 -2.576711320743678257e+00 3.460000000000000000e+02
-2.564092962833560030e+00 -2.078167695766796719e+00 3.460000000000000000e+02
-1.240667765100453845e+00 -1.579624070789914736e+00 3.460000000000000000e+02
8.275743263265186722e-02 -1.081080445813032975e+00 3.460000000000000000e+02
1.406182630365757857e+00 -5.825368208361512146e-01 3.460000000000000000e+02
2.729607828098863820e+00 -8.399319585926934284e-02 3.460000000000000000e+02
4.053033025831969560e+00 4.145504291176128620e-01 3.460000000000000000e+02
5.376458223565075301e+00 9.130940540944944006e-01 3.460000000000000000e+02
6.699883421298181929e+00 1.411637679071376272e+00 3.460000000000000000e+02
-5.210943358299771511e+00 -3.075254945720560684e+00 3.470000000000000000e+02
-3.887518160566665770e+00 -2.576711320743678257e+00 3.470000000000000000e+02
-2.564092962833560030e+00 -2.078167695766796719e+00 3.470000000000000000e+02
-1.240667765100453845e+00 -1.579624070789914736e+00 3.470000000000000000e+02
8.275743263265186722e-02 -1.081080445813032975e+00 3.470000000000000000e+02
1.406182630365757857e+00 -5.825368208361512146e-01 3.470000000000000000e+02
2.729607828098863820e+00 -8.399319585926934284e-02 3.470000000000000000e+02
4.053033025831969560e+00 4.145504291176128620e-01 3.470000000000000000e+02
5.376458223565075301e+00 9.130940540944944006e-01 3.470000000000000000e+02
6.699883421298181929e+00 1.411637679071376272e+00 3.470000000000000000e+02
-5.210943358299771511e+00 -3.075254945720560684e+00 3.480000000000000000e+02
-3.887518160566665770e+00 -2.576711320743678257e+00 3.480000000000000000e+02
-2.564092962833560030e+00 -2.078167695766796719e+00 3.480000000000000000e+02
-1.240667765100453845e+00 -1.579624070789914736e+00 3.480000000000000000e+02
8.275743263265186722e-02 -1.081080445813032975e+00 3.480000000000000000e+02
1.406182630365757857e+00 -5.825368208361512146e-01 3.480000000000000000e+02
2.729607828098863820e+00 -8.399319585926934284e-02 3.480000000000000000e+02
4.053033025831969560e+00 4.145504291176128620e-01 3.480000000000000000e+02
5.376458223565075301e+00 9.130940540944944006e-01 3.480000000000000000e+02
6.699883421298181929e+00 1.411637679071376272e+00 3.480000000000000000e+02
-5.210943358299771511e+00 -3.075254945720560684e+00 3.490000000000000000e+02
-3.887518160566665770e+00 -2.576711320743678257e+00 3.490000000000000000e+02
-2.564092962833560030e+00 -2.078167695766796719e+00 3.490000000000000000e+02
-1.240667765100453845e+00 -1.579624070789914736e+00 3.490000000000000000e+02
8.275743263265186722e-02 -1.081080445813032975e+00 3.490000000000000000e+02
1.406182630365757857e+00 -5.825368208361512146e-01 3.490000000000000000e+02
2.729607828098863820e+00 -8.399319585926934284e-02 3.490000000000000000e+02
4.053033025831969560e+00 4.145504291176128620e-01 3.490000000000000000e+02
5.376458223565075301e+00 9.130940540944944006e-01 3.490000000000000000e+02
6.699883421298181929e+00 1.411637679071376272e+00 3.490000000000000000e+02
-5.210943358299771511e+00 -3.075254945720560684e+00 3.500000000000000000e+02
-3.887518160566665770e+00 -2.576711320743678257e+00 3.500000000000000000e+02
-2.564092962833560030e+00 -2.078167695766796719e+00 3.500000000000000000e+02
-1.240667765100453845e+00 -1.579624070789914736e+00 3.500000000000000000e+02
8.275743263265186722e-02 -1.081080445813032975e+00 3.500000000000000000e+02
1.406182630365757857e+00 -5.825368208361512146e-01 3.500000000000000000e+02
2.729607828098863820e+00 -8.399319585926934284e-02 3.500000000000000000e+02
4.053033025831969560e+00 4.145504291176128620e-01 3.500000000000000000e+02
5.376458223565075301e+00 9.130940540944944006e-01 3.500000000000000000e+02
6.699883421298181929e+00 1.411637679071376272e+00 3.500000000000000000e+02
-5.210943358299771511e+00 -3.075254945720560684e+00 3.510000000000000000e+02
-3.887518160566665770e+00 -2.576711320743678257e+00 3.510000000000000000e+02
-2.564092962833560030e+00 -2.078167695766796719e+00 3.510000000000000000e+02
-1.240667765100453845e+00 -1.579624070789914736e+00 3.510000000000000000e+02
8.275743263265186722e-02 -1.081080445813032975e+00 3.510000000000000000e+02
1.406182630365757857e+00 -5.825368208361512146e-01 3.510000000000000000e+02
2.729607828098863820e+00 -8.399319585926934284e-02 3.510000000000000000e+02
4.053033025831969560e+00 4.145504291176128620e-01 3.510000000000000000e+02
5.376458223565075301e+00 9.130940540944944006e-01 3.510000000000000000e+02
6.699883421298181929e+00 1.411637679071376272e+00 3.510000000000000000e+02
-5.210943358299771511e+00 -3.075254945720560684e+00 3.520000000000000000e+02
-3.887518160566665770e+00 -2.576711320743678257e+00 3.520000000000000000e+02
-2.564092962833560030e+00 -2.078167695766796719e+00 3.520000000000000000e+02
-1.240667765100453845e+00 -1.579624070789914736e+00 3.520000000000000000e+02
8.275743263265186722e-02 -1.081080445813032975e+00 3.520000000000000000e+02
1.406182630365757857e+00 -5.825368208361512146e-01 3.520000000000000000e+02
2.729607828098863820e+00 -8.399319585926934284e-02 3.520000000000000000e+02
4.053033025831969560e+00 4.145504291176128620e-01 3.520000000000000000e+02
5.376458223565075301e+00 9.130940540944944006e-01 3.520000000000000000e+02
6.699883421298181929e+00 1.411637679071376272e+00 3.520000000000000000e+02
-4.299958946944777871e+00 -3.487695732098672341e+00 3.530000000000000000e+02
-2.976533749211671687e+00 -2.989152107121790358e+00 3.530000000000000000e+02
-1.653108551478565946e+00 -2.490608482144908820e+00 3.530000000000000000e+02
-3.296833537454601504e-01 -1.992064857168026837e+00 3.530000000000000000e+02
9.937418439876458676e-01 -1.493521232191144854e+00 3.530000000000000000e+02
2.317167041720751719e+00 -9.949776072142632044e-01 3.530000000000000000e+02
3.640592239453857459e+00 -4.964339822373812217e-01 3.530000000000000000e+02
4.964017437186964088e+00 2.109642739500761088e-03 3.530000000000000000e+02
6.287442634920069828e+00 5.006532677163825218e-01 3.530000000000000000e+02
-4.299958946944777871e+00 -3.487695732098672341e+00 3.540000000000000000e+02
-2.976533749211671687e+00 -2.989152107121790358e+00 3.540000000000000000e+02
-1.653108551478565946e+00 -2.490608482144908820e+00 3.540000000000000000e+02
-3.296833537454601504e-01 -1.992064857168026837e+00 3.540000000000000000e+02
9.937418439876458676e-01 -1.493521232191144854e+00 3.540000000000000000e+02
2.317167041720751719e+00 -9.949776072142632044e-01 3.540000000000000000e+02
3.640592239453857459e+00 -4.964339822373812217e-01 3.540000000000000000e+02
4.964017437186964088e+00 2.109642739500761088e-03 3.540000000000000000e+02
6.287442634920069828e+00 5.006532677163825218e-01 3.540000000000000000e+02
-4.299958946944777871e+00 -3.487695732098672341e+00 3.550000000000000000e+02
-2.976533749211671687e+00 -2.989152107121790358e+00 3.550000000000000000e+02
-1.653108551478565946e+00 -2.490608482144908820e+00 3.550000000000000000e+02
-3.296833537454601504e-01 -1.992064857168026837e+00 3.550000000000000000e+02
9.937418439876458676e-01 -1.493521232191144854e+00 3.550000000000000000e+02
2.317167041720751719e+00 -9.949776072142632044e-01 3.550000000000000000e+02
3.640592239453857459e+00 -4.964339822373812217e-01 3.550000000000000000e+02
4.964017437186964088e+00 2.109642739500761088e-03 3.550000000000000000e+02
6.287442634920069828e+00 5.006532677163825218e-01 3.550000000000000000e+02
-4.299958946944777871e+00 -3.487695732098672341e+00 3.560000000000000000e+02
-2.976533749211671687e+00 -2.989152107121790358e+00 3.560000000000000000e+02
-1.653108551478565946e+00 -2.490608482144908820e+00 3.560000000000000000e+02
-3.296833537454601504e-01 -1.992064857168026837e+00 3.560000000000000000e+02
9.937418439876458676e-01 -1.493521232191144854e+00 3.560000000000000000e+02
2.317167041720751719e+00 -9.949776072142632044e-01 3.560000000000000000e+02
3.640592239453857459e+00 -4.964339822373812217e-01 3.560000000000000000e+02
4.964017437186964088e+00 2.109642739500761088e-03 3.560000000000000000e+02
6.287442634920069828e+00 5.006532677163825218e-01 3.560000000000000000e+02
-4.299958946944777871e+00 -3.487695732098672341e+00 3.570000000000000000e+02
-2.976533749211671687e+00 -2.989152107121790358e+00 3.570000000000000000e+02
-1.653108551478565946e+00 -2.490608482144908820e+00 3.570000000000000000e+02
-3.296833537454601504e-01 -1.992064857168026837e+00 3.570000000000000000e+02
9.937418439876458676e-01 -1.493521232191144854e+00 3.570000000000000000e+02
2.317167041720751719e+00 -9.949776072142632044e-01 3.570000000000000000e+02
3.640592239453857459e+00 -4.964339822373812217e-01 3.570000000000000000e+02
4.964017437186964088e+00 2.109642739500761088e-03 3.570000000000000000e+02
6.287442634920069828e+00 5.006532677163825218e-01 3.570000000000000000e+02
-4.299958946944777871e+00 -3.487695732098672341e+00 3.580000000000000000e+02
-2.976533749211671687e+00 -2.989152107121790358e+00 3.580000000000000000e+02
-1.653108551478565946e+00 -2.490608482144908820e+00 3.580000000000000000e+02
-3.296833537454601504e-01 -1.992064857168026837e+00 3.580000000000000000e+02
9.937418439876458676e-01 -1.493521232191144854e+00 3.580000000000000000e+02
2.317167041720751719e+00 -9.949776072142632044e-01 3.580000000000000000e+02
3.640592239453857459e+00 -4.964339822373812217e-01 3.580000000000000000e+02
4.964017437186964088e+00 2.109642739500761088e-03 3.580000000000000000e+02
6.287442634920069828e+00 5.006532677163825218e-01 3.580000000000000000e+02
-4.299958946944777871e+00 -3.487695732098672341e+00 3.590000000000000000e+02
-2.976533749211671687e+00 -2.989152107121790358e+00 3.590000000000000000e+02
-1.653108551478565946e+00 -2.490608482144908820e+00 3.590000000000000000e+02
-3.296833537454601504e-01 -1.992064857168026837e+00 3.590000000000000000e+02
9.937418439876458676e-01 -1.493521232191144854e+00 3.590000000000000000e+02
2.317167041720751719e+00 -9.949776072142632044e-01 3.590000000000000000e+02
3.640592239453857459e+00 -4.964339822373812217e-01 3.590000000000000000e+02
4.964017437186964088e+00 2.109642739500761088e-03 3.590000000000000000e+02
6.287442634920069828e+00 5.006532677163825218e-01 3.590000000000000000e+02
-5.210943358299771511e+00 -3.075254945720560684e+00 3.600000000000000000e+02
-3.887518160566665770e+00 -2.576711320743678257e+00 3.600000000000000000e+02
-2.564092962833560030e+00 -2.078167695766796719e+00 3.600000000000000000e+02
-1.240667765100453845e+00 -1.579624070789914736e+00 3.600000000000000000e+02
8.275743263265186722e-02 -1.081080445813032975e+00 3.600000000000000000e+02
1.406182630365757857e+00 -5.825368208361512146e-01 3.600000000000000000e+02
2.729607828098863820e+00 -8.399319585926934284e-02 3.600000000000000000e+02
4.053033025831969560e+00 4.145504291176128620e-01 3.600000000000000000e+02
5.376458223565075301e+00 9.130940540944944006e-01 3.600000000000000000e+02
6.699883421298181929e+00 1.411637679071376272e+00 3.600000000000000000e+02
-5.210943358299771511e+00 -3.075254945720560684e+00 3.610000000000000000e+02
-3.887518160566665770e+00 -2.576711320743678257e+00 3.610000000000000000e+02
-2.564092962833560030e+00 -2.078167695766796719e+00 3.610000000000000000e+02
-1.240667765100453845e+00 -1.579624070789914736e+00 3.610000000000000000e+02
8.275743263265186722e-02 -1.081080445813032975e+00 3.610000000000000000e+02
1.406182630365757857e+00 -5.825368208361512146e-01 3.610000000000000000e+02
2.729607828098863820e+00 -8.399319585926934284e-02 3.610000000000000000e+02
4.053033025831969560e+00 4.145504291176128620e-01 3.610000000000000000e+02
5.376458223565075301e+00 9.130940540944944006e-01 3.610000000000000000e+02
6.699883421298181929e+00 1.411637679071376272e+00 3.610000000000000000e+02
-5.210943358299771511e+00 -3.075254945720560684e+00 3.620000000000000000e+02
-3.887518160566665770e+00 -2.576711320743678257e+00 3.620000000000000000e+02
-2.564092962833560030e+00 -2.078167695766796719e+00 3.620000000000000000e+02
-1.240667765100453845e+00 -1.579624070789914736e+00 3.620000000000000000e+02
8.275743263265186722e-02 -1.081080445813032975e+00 3.620000000000000000e+02
1.406182630365757857e+00 -5.825368208361512146e-01 3.620000000000000000e+02
2.729607828098863820e+00 -8.399319585926934284e-02 3.620000000000000000e+02
4.053033025831969560e+00 4.145504291176128620e-01 3.620000000000000000e+02
5.376458223565075301e+00 9.130940540944944006e-01 3.620000000000000000e+02
6.699883421298181929e+00 1.411637679071376272e+00 3.620000000000000000e+02
-4.299958946944777871e+00 -3.487695732098672341e+00 3.630000000000000000e+02
-2.976533749211671687e+00 -2.989152107121790358e+00 3.630000000000000000e+02
-1.653108551478565946e+00 -2.490608482144908820e+00 3.630000000000000000e+02
-3.296833537454601504e-01 -1.992064857168026837e+00 3.630000000000000000e+02
9.937418439876458676e-01 -1.493521232191144854e+00 3.630000000000000000e+02
2.317167041720751719e+00 -9.949776072142632044e-01 3.630000000000000000e+02
3.640592239453857459e+00 -4.964339822373812217e-01 3.630000000000000000e+02
4.964017437186964088e+00 2.109642739500761088e-03 3.630000000000000000e+02
6.287442634920069828e+00 5.006532677163825218e-01 3.630000000000000000e+02
-4.299958946944777871e+00 -3.487695732098672341e+00 3.640000000000000000e+02
-2.976533749211671687e+00 -2.989152107121790358e+00 3.640000000000000000e+02
-1.653108551478565946e+00 -2.490608482144908820e+00 3.640000000000000000e+02
-3.296833537454601504e-01 -1.992064857168026837e+00 3.640000000000000000e+02
9.937418439876458676e-01 -1.493521232191144854e+00 3.640000000000000000e+02
2.317167041720751719e+00 -9.949776072142632044e-01 3.640000000000000000e+02
3.640592239453857459e+00 -4.964339822373812217e-01 3.640000000000000000e+02
4.964017437186964088e+00 2.109642739500761088e-03 3.640000000000000000e+02
6.287442634920069828e+00 5.006532677163825218e-01 3.640000000000000000e+02
-4.299958946944777871e+00 -3.487695732098672341e+00 3.650000000000000000e+02
-2.976533749211671687e+00 -2.989152107121790358e+00 3.650000000000000000e+02
-1.653108551478565946e+00 -2.490608482144908820e+00 3.650000000000000000e+02
-3.296833537454601504e-01 -1.992064857168026837e+00 3.650000000000000000e+02
9.937418439876458676e-01 -1.493521232191144854e+00 3.650000000000000000e+02
2.317167041720751719e+00 -9.949776072142632044e-01 3.650000000000000000e+02
3.640592239453857459e+00 -4.964339822373812217e-01 3.650000000000000000e+02
4.964017437186964088e+00 2.109642739500761088e-03 3.650000000000000000e+02
6.287442634920069828e+00 5.006532677163825218e-01 3.650000000000000000e+02
-4.299958946944777871e+00 -3.487695732098672341e+00 3.660000000000000000e+02
-2.976533749211671687e+00 -2.989152107121790358e+00 3.660000000000000000e+02
-1.653108551478565946e+00 -2.490608482144908820e+00 3.660000000000000000e+02
-3.296833537454601504e-01 -1.992064857168026837e+00 3.660000000000000000e+02
9.937418439876458676e-01 -1.493521232191144854e+00 3.660000000000000000e+02
2.317167041720751719e+00 -9.949776072142632044e-01 3.660000000000000000e+02
3.640592239453857459e+00 -4.964339822373812217e-01 3.660000000000000000e+02
4.964017437186964088e+00 2.109642739500761088e-03 3.660000000000000000e+02
6.287442634920069828e+00 5.006532677163825218e-01 3.660000000000000000e+02
-4.299958946944777871e+00 -3.487695732098672341e+00 3.670000000000000000e+02
-2.976533749211671687e+00 -2.989152107121790358e+00 3.670000000000000000e+02
-1.653108551478565946e+00 -2.490608482144908820e+00 3.670000000000000000e+02
-3.296833537454601504e-01 -1.992064857168026837e+00 3.670000000000000000e+02
9.937418439876458676e-01 -1.493521232191144854e+00 3.670000000000000000e+02
2.317167041720751719e+00 -9.949776072142632044e-01 3.670000000000000000e+02
3.640592239453857459e+00 -4.964339822373812217e-01 3.670000000000000000e+02
4.964017437186964088e+00 2.109642739500761088e-03 3.670000000000000000e+02
6.287442634920069828e+00 5.006532677163825218e-01 3.670000000000000000e+02
-4.299958946944777871e+00 -3.487695732098672341e+00 3.680000000000000000e+02
-2.976533749211671687e+00 -2.989152107121790358e+00 3.680000000000000000e+02
-1.653108551478565946e+00 -2.490608482144908820e+00 3.680000000000000000e+02
-3.296833537454601504e-01 -1.992064857168026837e+00 3.680000000000000000e+02
9.937418439876458676e-01 -1.493521232191144854e+00 3.680000000000000000e+02
2.317167041720751719e+00 -9.949776072142632044e-01 3.680000000000000000e+02
3.640592239453857459e+00 -4.964339822373812217e-01 3.680000000000000000e+02
4.964017437186964088e+00 2.109642739500761088e-03 3.680000000000000000e+02
6.287442634920069828e+00 5.006532677163825218e-01 3.680000000000000000e+02
-4.299958946944777871e+00 -3.487695732098672341e+00 3.690000000000000000e+02
-2.976533749211671687e+00 -2.989152107121790358e+00 3.690000000000000000e+02
-1.653108551478565946e+00 -2.490608482144908820e+00 3.690000000000000000e+02
-3.296833537454601504e-01 -1.992064857168026837e+00 3.690000000000000000e+02
9.937418439876458676e-01 -1.493521232191144854e+00 3.690000000000000000e+02
2.317167041720751719e+00 -9.949776072142632044e-01 3.690000000000000000e+02
3.640592239453857459e+00 -4.964339822373812217e-01 3.690000000000000000e+02
4.964017437186964088e+00 2.109642739500761088e-03 3.690000000000000000e+02
6.287442634920069828e+00 5.006532677163825218e-01 3.690000000000000000e+02
-4.299958946944777871e+00 -3.487695732098672341e+00 3.700000000000000000e+02
-2.976533749211671687e+00 -2.989152107121790358e+00 3.700000000000000000e+02
-1.653108551478565946e+00 -2.490608482144908820e+00 3.700000000000000000e+02
-3.296833537454601504e-01 -1.992064857168026837e+00 3.700000000000000000e+02
9.937418439876458676e-01 -1.493521232191144854e+00 3.700000000000000000e+02
2.317167041720751719e+00 -9.949776072142632044e-01 3.700000000000000000e+02
3.640592239453857459e+00 -4.964339822373812217e-01 3.700000000000000000e+02
4.964017437186964088e+00 2.109642739500761088e-03 3.700000000000000000e+02
6.287442634920069828e+00 5.006532677163825218e-01 3.700000000000000000e+02
-4.299958946944777871e+00 -3.487695732098672341e+00 3.710000000000000000e+02
-2.976533749211671687e+00 -2.989152107121790358e+00 3.710000000000000000e+02
-1.653108551478565946e+00 -2.490608482144908820e+00 3.710000000000000000e+02
-3.296833537454601504e-01 -1.992064857168026837e+00 3.710000000000000000e+02
9.937418439876458676e-01 -1.493521232191144854e+00 3.710000000000000000e+02
2.317167041720751719e+00 -9.949776072142632044e-01 3.710000000000000000e+02
3.640592239453857459e+00 -4.964339822373812217e-01 3.710000000000000000e+02
4.964017437186964088e+00 2.109642739500761088e-03 3.710000000000000000e+02
6.287442634920069828e+00 5.006532677163825218e-01 3.710000000000000000e+02
-4.299958946944777871e+00 -3.487695732098672341e+00 3.720000000000000000e+02
-2.976533749211671687e+00 -2.989152107121790358e+00 3.720000000000000000e+02
-1.653108551478565946e+00 -2.490608482144908820e+00 3.720000000000000000e+02
-3.296833537454601504e-01 -1.992064857168026837e+00 3.720000000000000000e+02
9.937418439876458676e-01 -1.493521232191144854e+00 3.720000000000000000e+02
2.317167041720751719e+00 -9.949776072142632044e-01 3.720000000000000000e+02
3.640592239453857459e+00 -4.964339822373812217e-01 3.720000000000000000e+02
4.964017437186964088e+00 2.109642739500761088e-03 3.720000000000000000e+02
6.287442634920069828e+00 5.006532677163825218e-01 3.720000000000000000e+02
-4.299958946944777871e+00 -3.487695732098672341e+00 3.730000000000000000e+02
-2.976533749211671687e+00 -2.989152107121790358e+00 3.730000000000000000e+02
-1.653108551478565946e+00 -2.490608482144908820e+00 3.730000000000000000e+02
-3.296833537454601504e-01 -1.992064857168026837e+00 3.730000000000000000e+02
9.937418439876458676e-01 -1.493521232191144854e+00 3.730000000000000000e+02
2.317167041720751719e+00 -9.949776072142632044e-01 3.730000000000000000e+02
3.640592239453857459e+00 -4.964339822373812217e-01 3.730000000000000000e+02
4.964017437186964088e+00 2.109642739500761088e-03 3.730000000000000000e+02
6.287442634920069828e+00 5.006532677163825218e-01 3.730000000000000000e+02
-4.299958946944777871e+00 -3.487695732098672341e+00 3.740000000000000000e+02
-2.976533749211671687e+00 -2.989152107121790358e+00 3.740000000000000000e+02
-1.653108551478565946e+00 -2.490608482144908820e+00 3.740000000000000000e+02
-3.296833537454601504e-01 -1.992064857168026837e+00 3.740000000000000000e+02
9.937418439876458676e-01 -1.493521232191144854e+00 3.740000000000000000e+02
2.317167041720751719e+00 -9.949776072142632044e-01 3.740000000000000000e+02
3.640592239453857459e+00 -4.964339822373812217e-01 3.740000000000000000e+02
4.964017437186964088e+00 2.109642739500761088e-03 3.740000000000000000e+02
6.287442634920069828e+00 5.006532677163825218e-01 3.740000000000000000e+02
-4.299958946944777871e+00 -3.487695732098672341e+00 3.750000000000000000e+02
-2.976533749211671687e+00 -2.989152107121790358e+00 3.750000000000000000e+02
-1.653108551478565946e+00 -2.490608482144908820e+00 3.750000000000000000e+02
-3.296833537454601504e-01 -1.992064857168026837e+00 3.750000000000000000e+02
9.937418439876458676e-01 -1.493521232191144854e+00 3.750000000000000000e+02
2.317167041720751719e+00 -9.949776072142632044e-01 3.750000000000000000e+02
3.640592239453857459e+00 -4.964339822373812217e-01 3.750000000000000000e+02
4.964017437186964088e+00 2.109642739500761088e-03 3.750000000000000000e+02
6.287442634920069828e+00 5.006532677163825218e-01 3.750000000000000000e+02
-4.299958946944777871e+00 -3.487695732098672341e+00 3.760000000000000000e+02
-2.976533749211671687e+00 -2.989152107121790358e+00 3.760000000000000000e+02
-1.653108551478565946e+00 -2.490608482144908820e+00 3.760000000000000000e+02
-3.296833537454601504e-01 -1.992064857168026837e+00 3.760000000000000000e+02
9.937418439876458676e-01 -1.493521232191144854e+00 3.760000000000000000e+02
2.317167041720751719e+00 -9.949776072142632044e-01 3.760000000000000000e+02
3.640592239453857459e+00 -4.964339822373812217e-01 3.760000000000000000e+02
4.964017437186964088e+00 2.109642739500761088e-03 3.760000000000000000e+02
6.287442634920069828e+00 5.006532677163825218e-01 3.760000000000000000e+02
-5.210943358299771511e+00 -3.075254945720560684e+00 3.770000000000000000e+02
-3.887518160566665770e+00 -2.576711320743678257e+00 3.770000000000000000e+02
-2.564092962833560030e+00 -2.078167695766796719e+00 3.770000000000000000e+02
-1.240667765100453845e+00 -1.579624070789914736e+00 3.770000000000000000e+02
8.275743263265186722e-02 -1.081080445813032975e+00 3.770000000000000000e+02
1.406182630365757857e+00 -5.825368208361512146e-01 3.770000000000000000e+02
2.729607828098863820e+00 -8.399319585926934284e-02 3.770000000000000000e+02
4.053033025831969560e+00 4.145504291176128620e-01 3.770000000000000000e+02
5.376458223565075301e+00 9.130940540944944006e-01 3.770000000000000000e+02
6.699883421298181929e+00 1.411637679071376272e+00 3.770000000000000000e+02
-4.299958946944777871e+00 -3.487695732098672341e+00 3.780000000000000000e+02
-2.976533749211671687e+00 -2.989152107121790358e+00 3.780000000000000000e+02
-1.653108551478565946e+00 -2.490608482144908820e+00 3.780000000000000000e+02
-3.296833537454601504e-01 -1.992064857168026837e+00 3.780000000000000000e+02
9.937418439876458676e-01 -1.493521232191144854e+00 3.780000000000000000e+02
2.317167041720751719e+00 -9.949776072142632044e-01 3.780000000000000000e+02
3.640592239453857459e+00 -4.964339822373812217e-01 3.780000000000000000e+02
4.964017437186964088e+00 2.109642739500761088e-03 3.780000000000000000e+02
6.287442634920069828e+00 5.006532677163825218e-01 3.780000000000000000e+02
-4.299958946944777871e+00 -3.487695732098672341e+00 3.790000000000000000e+02
-2.976533749211671687e+00 -2.989152107121790358e+00 3.790000000000000000e+02
-1.653108551478565946e+00 -2.490608482144908820e+00 3.790000000000000000e+02
-3.296833537454601504e-01 -1.992064857168026837e+00 3.790000000000000000e+02
9.937418439876458676e-01 -1.493521232191144854e+00 3.790000000000000000e+02
2.317167041720751719e+00 -9.949776072142632044e-01 3.790000000000000000e+02
3.640592239453857459e+00 -4.964339822373812217e-01 3.790000000000000000e+02
4.964017437186964088e+00 2.109642739500761088e-03 3.790000000000000000e+02
6.287442634920069828e+00 5.006532677163825218e-01 3.790000000000000000e+02
-5.210943358299771511e+00 -3.075254945720560684e+00 3.800000000000000000e+02
-3.887518160566665770e+00 -2.576711320743678257e+00 3.800000000000000000e+02
-2.564092962833560030e+00 -2.078167695766796719e+00 3.800000000000000000e+02
-1.240667765100453845e+00 -1.579624070789914736e+00 3.800000000000000000e+02
8.275743263265186722e-02 -1.081080445813032975e+00 3.800000000000000000e+02
1.406182630365757857e+00 -5.825368208361512146e-01 3.800000000000000000e+02
2.729607828098863820e+00 -8.399319585926934284e-02 3.800000000000000000e+02
4.053033025831969560e+00 4.145504291176128620e-01 3.800000000000000000e+02
5.376458223565075301e+00 9.130940540944944006e-01 3.800000000000000000e+02
6.699883421298181929e+00 1.411637679071376272e+00 3.800000000000000000e+02
-5.210943358299771511e+00 -3.075254945720560684e+00 3.810000000000000000e+02
-3.887518160566665770e+00 -2.576711320743678257e+00 3.810000000000000000e+02
-2.564092962833560030e+00 -2.078167695766796719e+00 3.810000000000000000e+02
-1.240667765100453845e+00 -1.579624070789914736e+00 3.810000000000000000e+02
8.275743263265186722e-02 -1.081080445813032975e+00 3.810000000000000000e+02
1.406182630365757857e+00 -5.825368208361512146e-01 3.810000000000000000e+02
2.729607828098863820e+00 -8.399319585926934284e-02 3.810000000000000000e+02
4.053033025831969560e+00 4.145504291176128620e-01 3.810000000000000000e+02
5.376458223565075301e+00 9.130940540944944006e-01 3.810000000000000000e+02
6.699883421298181929e+00 1.411637679071376272e+00 3.810000000000000000e+02
-5.210943358299771511e+00 -3.075254945720560684e+00 3.820000000000000000e+02
-3.887518160566665770e+00 -2.576711320743678257e+00 3.820000000000000000e+02
-2.564092962833560030e+00 -2.078167695766796719e+00 3.820000000000000000e+02
-1.240667765100453845e+00 -1.579624070789914736e+00 3.820000000000000000e+02
8.275743263265186722e-02 -1.081080445813032975e+00 3.820000000000000000e+02
1.406182630365757857e+00 -5.825368208361512146e-01 3.820000000000000000e+02
2.729607828098863820e+00 -8.399319585926934284e-02 3.820000000000000000e+02
4.053033025831969560e+00 4.145504291176128620e-01 3.820000000000000000e+02
5.376458223565075301e+00 9.130940540944944006e-01 3.820000000000000000e+02
6.699883421298181929e+00 1.411637679071376272e+00 3.820000000000000000e+02
-4.299958946944777871e+00 -3.487695732098672341e+00 3.830000000000000000e+02
-2.976533749211671687e+00 -2.989152107121790358e+00 3.830000000000000000e+02
-1.653108551478565946e+00 -2.490608482144908820e+00 3.830000000000000000e+02
-3.296833537454601504e-01 -1.992064857168026837e+00 3.830000000000000000e+02
9.937418439876458676e-01 -1.493521232191144854e+00 3.830000000000000000e+02
2.317167041720751719e+00 -9.949776072142632044e-01 3.830000000000000000e+02
3.640592239453857459e+00 -4.964339822373812217e-01 3.830000000000000000e+02
4.964017437186964088e+00 2.109642739500761088e-03 3.830000000000000000e+02
6.287442634920069828e+00 5.006532677163825218e-01 3.830000000000000000e+02
-4.299958946944777871e+00 -3.487695732098672341e+00 3.840000000000000000e+02
-2.976533749211671687e+00 -2.989152107121790358e+00 3.840000000000000000e+02
-1.653108551478565946e+00 -2.490608482144908820e+00 3.840000000000000000e+02
-3.296833537454601504e-01 -1.992064857168026837e+00 3.840000000000000000e+02
9.937418439876458676e-01 -1.493521232191144854e+00 3.840000000000000000e+02
2.317167041720751719e+00 -9.949776072142632044e-01 3.840000000000000000e+02
3.640592239453857459e+00 -4.964339822373812217e-01 3.840000000000000000e+02
4.964017437186964088e+00 2.109642739500761088e-03 3.840000000000000000e+02
6.287442634920069828e+00 5.006532677163825218e-01 3.840000000000000000e+02
-4.299958946944777871e+00 -3.487695732098672341e+00 3.850000000000000000e+02
-2.976533749211671687e+00 -2.989152107121790358e+00 3.850000000000000000e+02
-1.653108551478565946e+00 -2.490608482144908820e+00 3.850000000000000000e+02
-3.296833537454601504e-01 -1.992064857168026837e+00 3.850000000000000000e+02
9.937418439876458676e-01 -1.493521232191144854e+00 3.850000000000000000e+02
2.317167041720751719e+00 -9.949776072142632044e-01 3.850000000000000000e+02
3.640592239453857459e+00 -4.964339822373812217e-01 3.850000000000000000e+02
4.964017437186964088e+00 2.109642739500761088e-03 3.850000000000000000e+02
6.287442634920069828e+00 5.006532677163825218e-01 3.850000000000000000e+02
-4.299958946944777871e+00 -3.487695732098672341e+00 3.860000000000000000e+02
-2.976533749211671687e+00 -2.989152107121790358e+00 3.860000000000000000e+02
-1.653108551478565946e+00 -2.490608482144908820e+00 3.860000000000000000e+02
-3.296833537454601504e-01 -1.992064857168026837e+00 3.860000000000000000e+02
9.937418439876458676e-01 -1.493521232191144854e+00 3.860000000000000000e+02
2.317167041720751719e+00 -9.949776072142632044e-01 3.860000000000000000e+02
3.640592239453857459e+00 -4.964339822373812217e-01 3.860000000000000000e+02
4.964017437186964088e+00 2.109642739500761088e-03 3.860000000000000000e+02
6.287442634920069828e+00 5.006532677163825218e-01 3.860000000000000000e+02
-4.299958946944777871e+00 -3.487695732098672341e+00 3.870000000000000000e+02
-2.976533749211671687e+00 -2.989152107121790358e+00 3.870000000000000000e+02
-1.653108551478565946e+00 -2.490608482144908820e+00 3.870000000000000000e+02
-3.296833537454601504e-01 -1.992064857168026837e+00 3.870000000000000000e+02
9.937418439876458676e-01 -1.493521232191144854e+00 3.870000000000000000e+02
2.317167041720751719e+00 -9.949776072142632044e-01 3.870000000000000000e+02
3.640592239453857459e+00 -4.964339822373812217e-01 3.870000000000000000e+02
4.964017437186964088e+00 2.109642739500761088e-03 3.870000000000000000e+02
6.287442634920069828e+00 5.006532677163825218e-01 3.870000000000000000e+02
-4.299958946944777871e+00 -3.487695732098672341e+00 3.880000000000000000e+02
-2.976533749211671687e+00 -2.989152107121790358e+00 3.880000000000000000e+02
-1.653108551478565946e+00 -2.490608482144908820e+00 3.880000000000000000e+02
-3.296833537454601504e-01 -1.992064857168026837e+00 3.880000000000000000e+02
9.937418439876458676e-01 -1.493521232191144854e+00 3.880000000000000000e+02
2.317167041720751719e+00 -9.949776072142632044e-01 3.880000000000000000e+02
3.640592239453857459e+00 -4.964339822373812217e-01 3.880000000000000000e+02
4.964017437186964088e+00 2.109642739500761088e-03 3.880000000000000000e+02
6.287442634920069828e+00 5.006532677163825218e-01 3.880000000000000000e+02
-4.299958946944777871e+00 -3.487695732098672341e+00 3.890000000000000000e+02
-2.976533749211671687e+00 -2.989152107121790358e+00 3.890000000000000000e+02
-1.653108551478565946e+00 -2.490608482144908820e+00 3.890000000000000000e+02
-3.296833537454601504e-01 -1.992064857168026837e+00 3.890000000000000000e+02
9.937418439876458676e-01 -1.493521232191144854e+00 3.890000000000000000e+02
2.317167041720751719e+00 -9.949776072142632044e-01 3.890000000000000000e+02
3.640592239453857459e+00 -4.964339822373812217e-01 3.890000000000000000e+02
4.964017437186964088e+00 2.109642739500761088e-03 3.890000000000000000e+02
6.287442634920069828e+00 5.006532677163825218e-01 3.890000000000000000e+02
-5.210943358299771511e+00 -3.075254945720560684e+00 3.900000000000000000e+02
-3.887518160566665770e+00 -2.576711320743678257e+00 3.900000000000000000e+02
-2.564092962833560030e+00 -2.078167695766796719e+00 3.900000000000000000e+02
-1.240667765100453845e+00 -1.579624070789914736e+00 3.900000000000000000e+02
8.275743263265186722e-02 -1.081080445813032975e+00 3.900000000000000000e+02
1.406182630365757857e+00 -5.825368208361512146e-01 3.900000000000000000e+02
2.729607828098863820e+00 -8.399319585926934284e-02 3.900000000000000000e+02
4.053033025831969560e+00 4.145504291176128620e-01 3.900000000000000000e+02
5.376458223565075301e+00 9.130940540944944006e-01 3.900000000000000000e+02
6.699883421298181929e+00 1.411637679071376272e+00 3.900000000000000000e+02
-5.210943358299771511e+00 -3.075254945720560684e+00 3.910000000000000000e+02
-3.887518160566665770e+00 -2.576711320743678257e+00 3.910000000000000000e+02
-2.564092962833560030e+00 -2.078167695766796719e+00 3.910000000000000000e+02
-1.240667765100453845e+00 -1.579624070789914736e+00 3.910000000000000000e+02
8.275743263265186722e-02 -1.081080445813032975e+00 3.910000000000000000e+02
1.406182630365757857e+00 -5.825368208361512146e-01 3.910000000000000000e+02
2.729607828098863820e+00 -8.399319585926934284e-02 3.910000000000000000e+02
4.053033025831969560e+00 4.145504291176128620e-01 3.910000000000000000e+02
5.376458223565075301e+00 9.130940540944944006e-01 3.910000000000000000e+02
6.699883421298181929e+00 1.411637679071376272e+00 3.910000000000000000e+02
-5.210943358299771511e+00 -3.075254945720560684e+00 3.920000000000000000e+02
-3.887518160566665770e+00 -2.576711320743678257e+00 3.920000000000000000e+02
-2.564092962833560030e+00 -2.078167695766796719e+00 3.920000000000000000e+02
-1.240667765100453845e+00 -1.579624070789914736e+00 3.920000000000000000e+02
8.275743263265186722e-02 -1.081080445813032975e+00 3.920000000000000000e+02
1.406182630365757857e+00 -5.825368208361512146e-01 3.920000000000000000e+02
2.729607828098863820e+00 -8.399319585926934284e-02 3.920000000000000000e+02
4.053033025831969560e+00 4.145504291176128620e-01 3.920000000000000000e+02
5.376458223565075301e+00 9.130940540944944006e-01 3.920000000000000000e+02
6.699883421298181929e+00 1.411637679071376272e+00 3.920000000000000000e+02
-5.210943358299771511e+00 -3.075254945720560684e+00 3.930000000000000000e+02
-3.887518160566665770e+00 -2.576711320743678257e+00 3.930000000000000000e+02
-2.564092962833560030e+00 -2.078167695766796719e+00 3.930000000000000000e+02
-1.240667765100453845e+00 -1.579624070789914736e+00 3.930000000000000000e+02
8.275743263265186722e-02 -1.081080445813032975e+00 3.930000000000000000e+02
1.406182630365757857e+00 -5.825368208361512146e-01 3.930000000000000000e+02
2.729607828098863820e+00 -8.399319585926934284e-02 3.930000000000000000e+02
4.053033025831969560e+00 4.145504291176128620e-01 3.930000000000000000e+02
5.376458223565075301e+00 9.130940540944944006e-01 3.930000000000000000e+02
6.699883421298181929e+00 1.411637679071376272e+00 3.930000000000000000e+02
-5.210943358299771511e+00 -3.075254945720560684e+00 3.940000000000000000e+02
-3.887518160566665770e+00 -2.576711320743678257e+00 3.940000000000000000e+02
-2.564092962833560030e+00 -2.078167695766796719e+00 3.940000000000000000e+02
-1.240667765100453845e+00 -1.579624070789914736e+00 3.940000000000000000e+02
8.275743263265186722e-02 -1.081080445813032975e+00 3.940000000000000000e+02
1.406182630365757857e+00 -5.825368208361512146e-01 3.940000000000000000e+02
2.729607828098863820e+00 -8.399319585926934284e-02 3.940000000000000000e+02
4.053033025831969560e+00 4.145504291176128620e-01 3.940000000000000000e+02
5.376458223565075301e+00 9.130940540944944006e-01 3.940000000000000000e+02
6.699883421298181929e+00 1.411637679071376272e+00 3.940000000000000000e+02
-5.210943358299771511e+00 -3.075254945720560684e+00 3.950000000000000000e+02
-3.887518160566665770e+00 -2.576711320743678257e+00 3.950000000000000000e+02
-2.564092962833560030e+00 -2.078167695766796719e+00 3.950000000000000000e+02
-1.240667765100453845e+00 -1.579624070789914736e+00 3.950000000000000000e+02
8.275743263265186722e-02 -1.081080445813032975e+00 3.950000000000000000e+02
1.406182630365757857e+00 -5.825368208361512146e-01 3.950000000000000000e+02
2.729607828098863820e+00 -8.399319585926934284e-02 3.950000000000000000e+02
4.053033025831969560e+00 4.145504291176128620e-01 3.950000000000000000e+02
5.376458223565075301e+00 9.130940540944944006e-01 3.950000000000000000e+02
6.699883421298181929e+00 1.411637679071376272e+00 3.950000000000000000e+02
-5.210943358299771511e+00 -3.075254945720560684e+00 3.960000000000000000e+02
-3.887518160566665770e+00 -2.576711320743678257e+00 3.960000000000000000e+02
-2.564092962833560030e+00 -2.078167695766796719e+00 3.960000000000000000e+02
-1.240667765100453845e+00 -1.579624070789914736e+00 3.960000000000000000e+02
8.275743263265186722e-02 -1.081080445813032975e+00 3.960000000000000000e+02
1.406182630365757857e+00 -5.825368208361512146e-01 3.960000000000000000e+02
2.729607828098863820e+00 -8.399319585926934284e-02 3.960000000000000000e+02
4.053033025831969560e+00 4.145504291176128620e-01 3.960000000000000000e+02
5.376458223565075301e+00 9.130940540944944006e-01 3.960000000000000000e+02
-5.210943358299771511e+00 -3.075254945720560684e+00 3.970000000000000000e+02
-3.887518160566665770e+00 -2.576711320743678257e+00 3.970000000000000000e+02
-2.564092962833560030e+00 -2.078167695766796719e+00 3.970000000000000000e+02
-1.240667765100453845e+00 -1.579624070789914736e+00 3.970000000000000000e+02
8.275743263265186722e-02 -1.081080445813032975e+00 3.970000000000000000e+02
1.406182630365757857e+00 -5.825368208361512146e-01 3.970000000000000000e+02
2.729607828098863820e+00 -8.399319585926934284e-02 3.970000000000000000e+02
4.053033025831969560e+00 4.145504291176128620e-01 3.970000000000000000e+02
5.376458223565075301e+00 9.130940540944944006e-01 3.970000000000000000e+02
-5.210943358299771511e+00 -3.075254945720560684e+00 3.980000000000000000e+02
-3.887518160566665770e+00 -2.576711320743678257e+00 3.980000000000000000e+02
-2.564092962833560030e+00 -2.078167695766796719e+00 3.980000000000000000e+02
-1.240667765100453845e+00 -1.579624070789914736e+00 3.980000000000000000e+02
8.275743263265186722e-02 -1.081080445813032975e+00 3.980000000000000000e+02
1.406182630365757857e+00 -5.825368208361512146e-01 3.980000000000000000e+02
2.729607828098863820e+00 -8.399319585926934284e-02 3.980000000000000000e+02
4.053033025831969560e+00 4.145504291176128620e-01 3.980000000000000000e+02
5.376458223565075301e+00 9.130940540944944006e-01 3.980000000000000000e+02
-5.210943358299771511e+00 -3.075254945720560684e+00 3.990000000000000000e+02
-3.887518160566665770e+00 -2.576711320743678257e+00 3.990000000000000000e+02
-2.564092962833560030e+00 -2.078167695766796719e+00 3.990000000000000000e+02
-1.240667765100453845e+00 -1.579624070789914736e+00 3.990000000000000000e+02
8.275743263265186722e-02 -1.081080445813032975e+00 3.990000000000000000e+02
1.406182630365757857e+00 -5.825368208361512146e-01 3.990000000000000000e+02
2.729607828098863820e+00 -8.399319585926934284e-02 3.990000000000000000e+02
4.053033025831969560e+00 4.145504291176128620e-01 3.990000000000000000e+02
5.376458223565075301e+00 9.130940540944944006e-01 3.990000000000000000e+02
-5.210943358299771511e+00 -3.075254945720560684e+00 4.000000000000000000e+02
-3.887518160566665770e+00 -2.576711320743678257e+00 4.000000000000000000e+02
-2.564092962833560030e+00 -2.078167695766796719e+00 4.000000000000000000e+02
-1.240667765100453845e+00 -1.579624070789914736e+00 4.000000000000000000e+02
8.275743263265186722e-02 -1.081080445813032975e+00 4.000000000000000000e+02
1.406182630365757857e+00 -5.825368208361512146e-01 4.000000000000000000e+02
2.729607828098863820e+00 -8.399319585926934284e-02 4.000000000000000000e+02
4.053033025831969560e+00 4.145504291176128620e-01 4.000000000000000000e+02
5.376458223565075301e+00 9.130940540944944006e-01 4.000000000000000000e+02
6.699883421298181929e+00 1.411637679071376272e+00 4.000000000000000000e+02
-5.210943358299771511e+00 -3.075254945720560684e+00 4.010000000000000000e+02
-3.887518160566665770e+00 -2.576711320743678257e+00 4.010000000000000000e+02
-2.564092962833560030e+00 -2.078167695766796719e+00 4.010000000000000000e+02
-1.240667765100453845e+00 -1.579624070789914736e+00 4.010000000000000000e+02
8.275743263265186722e-02 -1.081080445813032975e+00 4.010000000000000000e+02
1.406182630365757857e+00 -5.825368208361512146e-01 4.010000000000000000e+02
2.729607828098863820e+00 -8.399319585926934284e-02 4.010000000000000000e+02
4.053033025831969560e+00 4.145504291176128620e-01 4.010000000000000000e+02
5.376458223565075301e+00 9.130940540944944006e-01 4.010000000000000000e+02
6.699883421298181929e+00 1.411637679071376272e+00 4.010000000000000000e+02
-5.210943358299771511e+00 -3.075254945720560684e+00 4.020000000000000000e+02
-3.887518160566665770e+00 -2.576711320743678257e+00 4.020000000000000000e+02
-2.564092962833560030e+00 -2.078167695766796719e+00 4.020000000000000000e+02
-1.240667765100453845e+00 -1.579624070789914736e+00 4.020000000000000000e+02
8.275743263265186722e-02 -1.081080445813032975e+00 4.020000000000000000e+02
1.406182630365757857e+00 -5.825368208361512146e-01 4.020000000000000000e+02
2.729607828098863820e+00 -8.399319585926934284e-02 4.020000000000000000e+02
4.053033025831969560e+00 4.145504291176128620e-01 4.020000000000000000e+02
5.376458223565075301e+00 9.130940540944944006e-01 4.020000000000000000e+02
-5.210943358299771511e+00 -3.075254945720560684e+00 4.030000000000000000e+02
-3.887518160566665770e+00 -2.576711320743678257e+00 4.030000000000000000e+02
-2.564092962833560030e+00 -2.078167695766796719e+00 4.030000000000000000e+02
-1.240667765100453845e+00 -1.579624070789914736e+00 4.030000000000000000e+02
8.275743263265186722e-02 -1.081080445813032975e+00 4.030000000000000000e+02
1.406182630365757857e+00 -5.825368208361512146e-01 4.030000000000000000e+02
2.729607828098863820e+00 -8.399319585926934284e-02 4.030000000000000000e+02
4.053033025831969560e+00 4.145504291176128620e-01 4.030000000000000000e+02
5.376458223565075301e+00 9.130940540944944006e-01 4.030000000000000000e+02
-5.210943358299771511e+00 -3.075254945720560684e+00 4.040000000000000000e+02
-3.887518160566665770e+00 -2.576711320743678257e+00 4.040000000000000000e+02
-2.564092962833560030e+00 -2.078167695766796719e+00 4.040000000000000000e+02
-1.240667765100453845e+00 -1.579624070789914736e+00 4.040000000000000000e+02
8.275743263265186722e-02 -1.081080445813032975e+00 4.040000000000000000e+02
1.406182630365757857e+00 -5.825368208361512146e-01 4.040000000000000000e+02
