1.040919420146706242e+00 4.373518658167091511e-02 3.150000000000000000e+02
-2.148283020402762533e-01 -6.067243880439969761e-01 3.150000000000000000e+02
-1.470576024227258749e+00 -1.257183962669664812e+00 3.150000000000000000e+02
-2.726323746414241356e+00 -1.907643537295332870e+00 3.150000000000000000e+02
-3.982071468601223962e+00 -2.558103111921000483e+00 3.150000000000000000e+02
3.855058938301328730e+00 2.297757984239332529e+00 3.160000000000000000e+02
2.599311216114346124e+00 1.647298409613664472e+00 3.160000000000000000e+02
1.343563493927363295e+00 9.968388349879961918e-01 3.160000000000000000e+02
8.781577174038102118e-02 3.463792603623281896e-01 3.160000000000000000e+02
-1.167931950446601475e+00 -3.040803142633397016e-01 3.160000000000000000e+02
-2.423679672633584303e+00 -9.545398888890076483e-01 3.160000000000000000e+02
-3.679427394820566022e+00 -1.604999463514675373e+00 3.160000000000000000e+02
3.855058938301328730e+00 2.297757984239332529e+00 3.170000000000000000e+02
2.599311216114346124e+00 1.647298409613664472e+00 3.170000000000000000e+02
1.343563493927363295e+00 9.968388349879961918e-01 3.170000000000000000e+02
8.781577174038102118e-02 3.463792603623281896e-01 3.170000000000000000e+02
-1.167931950446601475e+00 -3.040803142633397016e-01 3.170000000000000000e+02
-2.423679672633584303e+00 -9.545398888890076483e-01 3.170000000000000000e+02
-3.679427394820566022e+00 -1.604999463514675373e+00 3.170000000000000000e+02
3.855058938301328730e+00 2.297757984239332529e+00 3.180000000000000000e+02
2.599311216114346124e+00 1.647298409613664472e+00 3.180000000000000000e+02
1.343563493927363295e+00 9.968388349879961918e-01 3.180000000000000000e+02
8.781577174038102118e-02 3.463792603623281896e-01 3.180000000000000000e+02
-1.167931950446601475e+00 -3.040803142633397016e-01 3.180000000000000000e+02
-2.423679672633584303e+00 -9.545398888890076483e-01 3.180000000000000000e+02
-3.679427394820566022e+00 -1.604999463514675373e+00 3.180000000000000000e+02
3.855058938301328730e+00 2.297757984239332529e+00 3.190000000000000000e+02
2.599311216114346124e+00 1.647298409613664472e+00 3.190000000000000000e+02
1.343563493927363295e+00 9.968388349879961918e-01 3.190000000000000000e+02
8.781577174038102118e-02 3.463792603623281896e-01 3.190000000000000000e+02
-1.167931950446601475e+00 -3.040803142633397016e-01 3.190000000000000000e+02
-2.423679672633584303e+00 -9.545398888890076483e-01 3.190000000000000000e+02
-3.679427394820566022e+00 -1.604999463514675373e+00 3.190000000000000000e+02
-4.935175117007548629e+00 -2.255459038140343431e+00 3.190000000000000000e+02
3.855058938301328730e+00 2.297757984239332529e+00 3.200000000000000000e+02
2.599311216114346124e+00 1.647298409613664472e+00 3.200000000000000000e+02
1.343563493927363295e+00 9.968388349879961918e-01 3.200000000000000000e+02
8.781577174038102118e-02 3.463792603623281896e-01 3.200000000000000000e+02
-1.167931950446601475e+00 -3.040803142633397016e-01 3.200000000000000000e+02
-2.423679672633584303e+00 -9.545398888890076483e-01 3.200000000000000000e+02
-3.679427394820566022e+00 -1.604999463514675373e+00 3.200000000000000000e+02
-4.935175117007548629e+00 -2.255459038140343431e+00 3.200000000000000000e+02
3.855058938301328730e+00 2.297757984239332529e+00 3.210000000000000000e+02
2.599311216114346124e+00 1.647298409613664472e+00 3.210000000000000000e+02
1.343563493927363295e+00 9.968388349879961918e-01 3.210000000000000000e+02
8.781577174038102118e-02 3.463792603623281896e-01 3.210000000000000000e+02
-1.167931950446601475e+00 -3.040803142633397016e-01 3.210000000000000000e+02
-2.423679672633584303e+00 -9.545398888890076483e-01 3.210000000000000000e+02
-3.679427394820566022e+00 -1.604999463514675373e+00 3.210000000000000000e+02
-4.935175117007548629e+00 -2.255459038140343431e+00 3.210000000000000000e+02
3.855058938301328730e+00 2.297757984239332529e+00 3.220000000000000000e+02
2.599311216114346124e+00 1.647298409613664472e+00 3.220000000000000000e+02
1.343563493927363295e+00 9.968388349879961918e-01 3.220000000000000000e+02
8.781577174038102118e-02 3.463792603623281896e-01 3.220000000000000000e+02
-1.167931950446601475e+00 -3.040803142633397016e-01 3.220000000000000000e+02
-2.423679672633584303e+00 -9.545398888890076483e-01 3.220000000000000000e+02
-3.679427394820566022e+00 -1.604999463514675373e+00 3.220000000000000000e+02
-4.935175117007548629e+00 -2.255459038140343431e+00 3.220000000000000000e+02
3.855058938301328730e+00 2.297757984239332529e+00 3.230000000000000000e+02
2.599311216114346124e+00 1.647298409613664472e+00 3.230000000000000000e+02
1.343563493927363295e+00 9.968388349879961918e-01 3.230000000000000000e+02
8.781577174038102118e-02 3.463792603623281896e-01 3.230000000000000000e+02
-1.167931950446601475e+00 -3.040803142633397016e-01 3.230000000000000000e+02
-2.423679672633584303e+00 -9.545398888890076483e-01 3.230000000000000000e+02
-3.679427394820566022e+00 -1.604999463514675373e+00 3.230000000000000000e+02
-4.935175117007548629e+00 -2.255459038140343431e+00 3.230000000000000000e+02
3.855058938301328730e+00 2.297757984239332529e+00 3.240000000000000000e+02
2.599311216114346124e+00 1.647298409613664472e+00 3.240000000000000000e+02
1.343563493927363295e+00 9.968388349879961918e-01 3.240000000000000000e+02
8.781577174038102118e-02 3.463792603623281896e-01 3.240000000000000000e+02
-1.167931950446601475e+00 -3.040803142633397016e-01 3.240000000000000000e+02
-2.423679672633584303e+00 -9.545398888890076483e-01 3.240000000000000000e+02
-3.679427394820566022e+00 -1.604999463514675373e+00 3.240000000000000000e+02
-4.935175117007548629e+00 -2.255459038140343431e+00 3.240000000000000000e+02
3.855058938301328730e+00 2.297757984239332529e+00 3.250000000000000000e+02
2.599311216114346124e+00 1.647298409613664472e+00 3.250000000000000000e+02
1.343563493927363295e+00 9.968388349879961918e-01 3.250000000000000000e+02
8.781577174038102118e-02 3.463792603623281896e-01 3.250000000000000000e+02
-1.167931950446601475e+00 -3.040803142633397016e-01 3.250000000000000000e+02
-2.423679672633584303e+00 -9.545398888890076483e-01 3.250000000000000000e+02
-3.679427394820566022e+00 -1.604999463514675373e+00 3.250000000000000000e+02
-4.935175117007548629e+00 -2.255459038140343431e+00 3.250000000000000000e+02
3.855058938301328730e+00 2.297757984239332529e+00 3.260000000000000000e+02
2.599311216114346124e+00 1.647298409613664472e+00 3.260000000000000000e+02
1.343563493927363295e+00 9.968388349879961918e-01 3.260000000000000000e+02
8.781577174038102118e-02 3.463792603623281896e-01 3.260000000000000000e+02
-1.167931950446601475e+00 -3.040803142633397016e-01 3.260000000000000000e+02
-2.423679672633584303e+00 -9.545398888890076483e-01 3.260000000000000000e+02
-3.679427394820566022e+00 -1.604999463514675373e+00 3.260000000000000000e+02
3.855058938301328730e+00 2.297757984239332529e+00 3.270000000000000000e+02
2.599311216114346124e+00 1.647298409613664472e+00 3.270000000000000000e+02
1.343563493927363295e+00 9.968388349879961918e-01 3.270000000000000000e+02
8.781577174038102118e-02 3.463792603623281896e-01 3.270000000000000000e+02
-1.167931950446601475e+00 -3.040803142633397016e-01 3.270000000000000000e+02
-2.423679672633584303e+00 -9.545398888890076483e-01 3.270000000000000000e+02
-3.679427394820566022e+00 -1.604999463514675373e+00 3.270000000000000000e+02
3.855058938301328730e+00 2.297757984239332529e+00 3.280000000000000000e+02
2.599311216114346124e+00 1.647298409613664472e+00 3.280000000000000000e+02
1.343563493927363295e+00 9.968388349879961918e-01 3.280000000000000000e+02
8.781577174038102118e-02 3.463792603623281896e-01 3.280000000000000000e+02
-1.167931950446601475e+00 -3.040803142633397016e-01 3.280000000000000000e+02
-2.423679672633584303e+00 -9.545398888890076483e-01 3.280000000000000000e+02
-3.679427394820566022e+00 -1.604999463514675373e+00 3.280000000000000000e+02
-4.935175117007548629e+00 -2.255459038140343431e+00 3.280000000000000000e+02
3.855058938301328730e+00 2.297757984239332529e+00 3.290000000000000000e+02
2.599311216114346124e+00 1.647298409613664472e+00 3.290000000000000000e+02
1.343563493927363295e+00 9.968388349879961918e-01 3.290000000000000000e+02
8.781577174038102118e-02 3.463792603623281896e-01 3.290000000000000000e+02
-1.167931950446601475e+00 -3.040803142633397016e-01 3.290000000000000000e+02
-2.423679672633584303e+00 -9.545398888890076483e-01 3.290000000000000000e+02
-3.679427394820566022e+00 -1.604999463514675373e+00 3.290000000000000000e+02
-4.935175117007548629e+00 -2.255459038140343431e+00 3.290000000000000000e+02
3.855058938301328730e+00 2.297757984239332529e+00 3.300000000000000000e+02
2.599311216114346124e+00 1.647298409613664472e+00 3.300000000000000000e+02
1.343563493927363295e+00 9.968388349879961918e-01 3.300000000000000000e+02
8.781577174038102118e-02 3.463792603623281896e-01 3.300000000000000000e+02
-1.167931950446601475e+00 -3.040803142633397016e-01 3.300000000000000000e+02
-2.423679672633584303e+00 -9.545398888890076483e-01 3.300000000000000000e+02
-3.679427394820566022e+00 -1.604999463514675373e+00 3.300000000000000000e+02
-4.935175117007548629e+00 -2.255459038140343431e+00 3.300000000000000000e+02
3.855058938301328730e+00 2.297757984239332529e+00 3.310000000000000000e+02
2.599311216114346124e+00 1.647298409613664472e+00 3.310000000000000000e+02
1.343563493927363295e+00 9.968388349879961918e-01 3.310000000000000000e+02
8.781577174038102118e-02 3.463792603623281896e-01 3.310000000000000000e+02
-1.167931950446601475e+00 -3.040803142633397016e-01 3.310000000000000000e+02
-2.423679672633584303e+00 -9.545398888890076483e-01 3.310000000000000000e+02
-3.679427394820566022e+00 -1.604999463514675373e+00 3.310000000000000000e+02
-4.935175117007548629e+00 -2.255459038140343431e+00 3.310000000000000000e+02
3.855058938301328730e+00 2.297757984239332529e+00 3.320000000000000000e+02
2.599311216114346124e+00 1.647298409613664472e+00 3.320000000000000000e+02
1.343563493927363295e+00 9.968388349879961918e-01 3.320000000000000000e+02
8.781577174038102118e-02 3.463792603623281896e-01 3.320000000000000000e+02
-1.167931950446601475e+00 -3.040803142633397016e-01 3.320000000000000000e+02
-2.423679672633584303e+00 -9.545398888890076483e-01 3.320000000000000000e+02
-3.679427394820566022e+00 -1.604999463514675373e+00 3.320000000000000000e+02
3.855058938301328730e+00 2.297757984239332529e+00 3.330000000000000000e+02
2.599311216114346124e+00 1.647298409613664472e+00 3.330000000000000000e+02
1.343563493927363295e+00 9.968388349879961918e-01 3.330000000000000000e+02
8.781577174038102118e-02 3.463792603623281896e-01 3.330000000000000000e+02
-1.167931950446601475e+00 -3.040803142633397016e-01 3.330000000000000000e+02
-2.423679672633584303e+00 -9.545398888890076483e-01 3.330000000000000000e+02
-3.679427394820566022e+00 -1.604999463514675373e+00 3.330000000000000000e+02
3.855058938301328730e+00 2.297757984239332529e+00 3.340000000000000000e+02
2.599311216114346124e+00 1.647298409613664472e+00 3.340000000000000000e+02
1.343563493927363295e+00 9.968388349879961918e-01 3.340000000000000000e+02
8.781577174038102118e-02 3.463792603623281896e-01 3.340000000000000000e+02
-1.167931950446601475e+00 -3.040803142633397016e-01 3.340000000000000000e+02
-2.423679672633584303e+00 -9.545398888890076483e-01 3.340000000000000000e+02
-3.679427394820566022e+00 -1.604999463514675373e+00 3.340000000000000000e+02
-4.935175117007548629e+00 -2.255459038140343431e+00 3.340000000000000000e+02
3.855058938301328730e+00 2.297757984239332529e+00 3.350000000000000000e+02
2.599311216114346124e+00 1.647298409613664472e+00 3.350000000000000000e+02
1.343563493927363295e+00 9.968388349879961918e-01 3.350000000000000000e+02
8.781577174038102118e-02 3.463792603623281896e-01 3.350000000000000000e+02
-1.167931950446601475e+00 -3.040803142633397016e-01 3.350000000000000000e+02
-2.423679672633584303e+00 -9.545398888890076483e-01 3.350000000000000000e+02
-3.679427394820566022e+00 -1.604999463514675373e+00 3.350000000000000000e+02
-4.935175117007548629e+00 -2.255459038140343431e+00 3.350000000000000000e+02
3.855058938301328730e+00 2.297757984239332529e+00 3.360000000000000000e+02
2.599311216114346124e+00 1.647298409613664472e+00 3.360000000000000000e+02
1.343563493927363295e+00 9.968388349879961918e-01 3.360000000000000000e+02
8.781577174038102118e-02 3.463792603623281896e-01 3.360000000000000000e+02
-1.167931950446601475e+00 -3.040803142633397016e-01 3.360000000000000000e+02
-2.423679672633584303e+00 -9.545398888890076483e-01 3.360000000000000000e+02
-3.679427394820566022e+00 -1.604999463514675373e+00 3.360000000000000000e+02
-4.935175117007548629e+00 -2.255459038140343431e+00 3.360000000000000000e+02
3.855058938301328730e+00 2.297757984239332529e+00 3.370000000000000000e+02
2.599311216114346124e+00 1.647298409613664472e+00 3.370000000000000000e+02
1.343563493927363295e+00 9.968388349879961918e-01 3.370000000000000000e+02
8.781577174038102118e-02 3.463792603623281896e-01 3.370000000000000000e+02
-1.167931950446601475e+00 -3.040803142633397016e-01 3.370000000000000000e+02
-2.423679672633584303e+00 -9.545398888890076483e-01 3.370000000000000000e+02
-3.679427394820566022e+00 -1.604999463514675373e+00 3.370000000000000000e+02
-4.935175117007548629e+00 -2.255459038140343431e+00 3.370000000000000000e+02
3.855058938301328730e+00 2.297757984239332529e+00 3.380000000000000000e+02
2.599311216114346124e+00 1.647298409613664472e+00 3.380000000000000000e+02
1.343563493927363295e+00 9.968388349879961918e-01 3.380000000000000000e+02
8.781577174038102118e-02 3.463792603623281896e-01 3.380000000000000000e+02
-1.167931950446601475e+00 -3.040803142633397016e-01 3.380000000000000000e+02
-2.423679672633584303e+00 -9.545398888890076483e-01 3.380000000000000000e+02
-3.679427394820566022e+00 -1.604999463514675373e+00 3.380000000000000000e+02
-4.935175117007548629e+00 -2.255459038140343431e+00 3.380000000000000000e+02
3.855058938301328730e+00 2.297757984239332529e+00 3.390000000000000000e+02
2.599311216114346124e+00 1.647298409613664472e+00 3.390000000000000000e+02
1.343563493927363295e+00 9.968388349879961918e-01 3.390000000000000000e+02
8.781577174038102118e-02 3.463792603623281896e-01 3.390000000000000000e+02
-1.167931950446601475e+00 -3.040803142633397016e-01 3.390000000000000000e+02
-2.423679672633584303e+00 -9.545398888890076483e-01 3.390000000000000000e+02
-3.679427394820566022e+00 -1.604999463514675373e+00 3.390000000000000000e+02
-4.935175117007548629e+00 -2.255459038140343431e+00 3.390000000000000000e+02
2.901955289895003176e+00 2.600402058019989582e+00 3.400000000000000000e+02
1.646207567708020791e+00 1.949942483394321968e+00 3.400000000000000000e+02
3.904598455210381847e-01 1.299482908768653466e+00 3.400000000000000000e+02
-8.652878766659442000e-01 6.490233341429854086e-01 3.400000000000000000e+02
-2.121035598852926363e+00 -1.436240482682371589e-03 3.400000000000000000e+02
-3.376783321039908969e+00 -6.518958151083504848e-01 3.400000000000000000e+02
-4.632531043226891576e+00 -1.302355389734018321e+00 3.400000000000000000e+02
2.901955289895003176e+00 2.600402058019989582e+00 3.410000000000000000e+02
1.646207567708020791e+00 1.949942483394321968e+00 3.410000000000000000e+02
3.904598455210381847e-01 1.299482908768653466e+00 3.410000000000000000e+02
-8.652878766659442000e-01 6.490233341429854086e-01 3.410000000000000000e+02
-2.121035598852926363e+00 -1.436240482682371589e-03 3.410000000000000000e+02
-3.376783321039908969e+00 -6.518958151083504848e-01 3.410000000000000000e+02
-4.632531043226891576e+00 -1.302355389734018321e+00 3.410000000000000000e+02
2.901955289895003176e+00 2.600402058019989582e+00 3.420000000000000000e+02
1.646207567708020791e+00 1.949942483394321968e+00 3.420000000000000000e+02
3.904598455210381847e-01 1.299482908768653466e+00 3.420000000000000000e+02
-8.652878766659442000e-01 6.490233341429854086e-01 3.420000000000000000e+02
-2.121035598852926363e+00 -1.436240482682371589e-03 3.420000000000000000e+02
-3.376783321039908969e+00 -6.518958151083504848e-01 3.420000000000000000e+02
-4.632531043226891576e+00 -1.302355389734018321e+00 3.420000000000000000e+02
2.901955289895003176e+00 2.600402058019989582e+00 3.430000000000000000e+02
1.646207567708020791e+00 1.949942483394321968e+00 3.430000000000000000e+02
3.904598455210381847e-01 1.299482908768653466e+00 3.430000000000000000e+02
-8.652878766659442000e-01 6.490233341429854086e-01 3.430000000000000000e+02
-2.121035598852926363e+00 -1.436240482682371589e-03 3.430000000000000000e+02
-3.376783321039908969e+00 -6.518958151083504848e-01 3.430000000000000000e+02
-4.632531043226891576e+00 -1.302355389734018321e+00 3.430000000000000000e+02
2.901955289895003176e+00 2.600402058019989582e+00 3.440000000000000000e+02
1.646207567708020791e+00 1.949942483394321968e+00 3.440000000000000000e+02
3.904598455210381847e-01 1.299482908768653466e+00 3.440000000000000000e+02
-8.652878766659442000e-01 6.490233341429854086e-01 3.440000000000000000e+02
-2.121035598852926363e+00 -1.436240482682371589e-03 3.440000000000000000e+02
-3.376783321039908969e+00 -6.518958151083504848e-01 3.440000000000000000e+02
-4.632531043226891576e+00 -1.302355389734018321e+00 3.440000000000000000e+02
2.901955289895003176e+00 2.600402058019989582e+00 3.450000000000000000e+02
1.646207567708020791e+00 1.949942483394321968e+00 3.450000000000000000e+02
3.904598455210381847e-01 1.299482908768653466e+00 3.450000000000000000e+02
-8.652878766659442000e-01 6.490233341429854086e-01 3.450000000000000000e+02
-2.121035598852926363e+00 -1.436240482682371589e-03 3.450000000000000000e+02
-3.376783321039908969e+00 -6.518958151083504848e-01 3.450000000000000000e+02
-4.632531043226891576e+00 -1.302355389734018321e+00 3.450000000000000000e+02
2.901955289895003176e+00 2.600402058019989582e+00 3.460000000000000000e+02
1.646207567708020791e+00 1.949942483394321968e+00 3.460000000000000000e+02
3.904598455210381847e-01 1.299482908768653466e+00 3.460000000000000000e+02
-8.652878766659442000e-01 6.490233341429854086e-01 3.460000000000000000e+02
-2.121035598852926363e+00 -1.436240482682371589e-03 3.460000000000000000e+02
-3.376783321039908969e+00 -6.518958151083504848e-01 3.460000000000000000e+02
-4.632531043226891576e+00 -1.302355389734018321e+00 3.460000000000000000e+02
2.901955289895003176e+00 2.600402058019989582e+00 3.470000000000000000e+02
1.646207567708020791e+00 1.949942483394321968e+00 3.470000000000000000e+02
3.904598455210381847e-01 1.299482908768653466e+00 3.470000000000000000e+02
-8.652878766659442000e-01 6.490233341429854086e-01 3.470000000000000000e+02
-2.121035598852926363e+00 -1.436240482682371589e-03 3.470000000000000000e+02
-3.376783321039908969e+00 -6.518958151083504848e-01 3.470000000000000000e+02
-4.632531043226891576e+00 -1.302355389734018321e+00 3.470000000000000000e+02
2.901955289895003176e+00 2.600402058019989582e+00 3.480000000000000000e+02
1.646207567708020791e+00 1.949942483394321968e+00 3.480000000000000000e+02
3.904598455210381847e-01 1.299482908768653466e+00 3.480000000000000000e+02
-8.652878766659442000e-01 6.490233341429854086e-01 3.480000000000000000e+02
-2.121035598852926363e+00 -1.436240482682371589e-03 3.480000000000000000e+02
-3.376783321039908969e+00 -6.518958151083504848e-01 3.480000000000000000e+02
-4.632531043226891576e+00 -1.302355389734018321e+00 3.480000000000000000e+02
3.855058938301328730e+00 2.297757984239332529e+00 3.490000000000000000e+02
2.599311216114346124e+00 1.647298409613664472e+00 3.490000000000000000e+02
1.343563493927363295e+00 9.968388349879961918e-01 3.490000000000000000e+02
8.781577174038102118e-02 3.463792603623281896e-01 3.490000000000000000e+02
-1.167931950446601475e+00 -3.040803142633397016e-01 3.490000000000000000e+02
-2.423679672633584303e+00 -9.545398888890076483e-01 3.490000000000000000e+02
-3.679427394820566022e+00 -1.604999463514675373e+00 3.490000000000000000e+02
-4.935175117007548629e+00 -2.255459038140343431e+00 3.490000000000000000e+02
3.855058938301328730e+00 2.297757984239332529e+00 3.500000000000000000e+02
2.599311216114346124e+00 1.647298409613664472e+00 3.500000000000000000e+02
1.343563493927363295e+00 9.968388349879961918e-01 3.500000000000000000e+02
8.781577174038102118e-02 3.463792603623281896e-01 3.500000000000000000e+02
-1.167931950446601475e+00 -3.040803142633397016e-01 3.500000000000000000e+02
-2.423679672633584303e+00 -9.545398888890076483e-01 3.500000000000000000e+02
-3.679427394820566022e+00 -1.604999463514675373e+00 3.500000000000000000e+02
-4.935175117007548629e+00 -2.255459038140343431e+00 3.500000000000000000e+02
3.855058938301328730e+00 2.297757984239332529e+00 3.510000000000000000e+02
2.599311216114346124e+00 1.647298409613664472e+00 3.510000000000000000e+02
1.343563493927363295e+00 9.968388349879961918e-01 3.510000000000000000e+02
8.781577174038102118e-02 3.463792603623281896e-01 3.510000000000000000e+02
-1.167931950446601475e+00 -3.040803142633397016e-01 3.510000000000000000e+02
-2.423679672633584303e+00 -9.545398888890076483e-01 3.510000000000000000e+02
-3.679427394820566022e+00 -1.604999463514675373e+00 3.510000000000000000e+02
-4.935175117007548629e+00 -2.255459038140343431e+00 3.510000000000000000e+02
2.901955289895003176e+00 2.600402058019989582e+00 3.520000000000000000e+02
1.646207567708020791e+00 1.949942483394321968e+00 3.520000000000000000e+02
3.904598455210381847e-01 1.299482908768653466e+00 3.520000000000000000e+02
-8.652878766659442000e-01 6.490233341429854086e-01 3.520000000000000000e+02
-2.121035598852926363e+00 -1.436240482682371589e-03 3.520000000000000000e+02
-3.376783321039908969e+00 -6.518958151083504848e-01 3.520000000000000000e+02
-4.632531043226891576e+00 -1.302355389734018321e+00 3.520000000000000000e+02
2.901955289895003176e+00 2.600402058019989582e+00 3.530000000000000000e+02
1.646207567708020791e+00 1.949942483394321968e+00 3.530000000000000000e+02
3.904598455210381847e-01 1.299482908768653466e+00 3.530000000000000000e+02
-8.652878766659442000e-01 6.490233341429854086e-01 3.530000000000000000e+02
-2.121035598852926363e+00 -1.436240482682371589e-03 3.530000000000000000e+02
-3.376783321039908969e+00 -6.518958151083504848e-01 3.530000000000000000e+02
-4.632531043226891576e+00 -1.302355389734018321e+00 3.530000000000000000e+02
2.901955289895003176e+00 2.600402058019989582e+00 3.540000000000000000e+02
1.646207567708020791e+00 1.949942483394321968e+00 3.540000000000000000e+02
3.904598455210381847e-01 1.299482908768653466e+00 3.540000000000000000e+02
-8.652878766659442000e-01 6.490233341429854086e-01 3.540000000000000000e+02
-2.121035598852926363e+00 -1.436240482682371589e-03 3.540000000000000000e+02
-3.376783321039908969e+00 -6.518958151083504848e-01 3.540000000000000000e+02
-4.632531043226891576e+00 -1.302355389734018321e+00 3.540000000000000000e+02
2.901955289895003176e+00 2.600402058019989582e+00 3.550000000000000000e+02
1.646207567708020791e+00 1.949942483394321968e+00 3.550000000000000000e+02
3.904598455210381847e-01 1.299482908768653466e+00 3.550000000000000000e+02
-8.652878766659442000e-01 6.490233341429854086e-01 3.550000000000000000e+02
-2.121035598852926363e+00 -1.436240482682371589e-03 3.550000000000000000e+02
-3.376783321039908969e+00 -6.518958151083504848e-01 3.550000000000000000e+02
-4.632531043226891576e+00 -1.302355389734018321e+00 3.550000000000000000e+02
3.855058938301328730e+00 2.297757984239332529e+00 3.560000000000000000e+02
2.599311216114346124e+00 1.647298409613664472e+00 3.560000000000000000e+02
1.343563493927363295e+00 9.968388349879961918e-01 3.560000000000000000e+02
8.781577174038102118e-02 3.463792603623281896e-01 3.560000000000000000e+02
-1.167931950446601475e+00 -3.040803142633397016e-01 3.560000000000000000e+02
-2.423679672633584303e+00 -9.545398888890076483e-01 3.560000000000000000e+02
-3.679427394820566022e+00 -1.604999463514675373e+00 3.560000000000000000e+02
-4.935175117007548629e+00 -2.255459038140343431e+00 3.560000000000000000e+02
3.855058938301328730e+00 2.297757984239332529e+00 3.570000000000000000e+02
2.599311216114346124e+00 1.647298409613664472e+00 3.570000000000000000e+02
1.343563493927363295e+00 9.968388349879961918e-01 3.570000000000000000e+02
8.781577174038102118e-02 3.463792603623281896e-01 3.570000000000000000e+02
-1.167931950446601475e+00 -3.040803142633397016e-01 3.570000000000000000e+02
-2.423679672633584303e+00 -9.545398888890076483e-01 3.570000000000000000e+02
-3.679427394820566022e+00 -1.604999463514675373e+00 3.570000000000000000e+02
-4.935175117007548629e+00 -2.255459038140343431e+00 3.570000000000000000e+02
3.855058938301328730e+00 2.297757984239332529e+00 3.580000000000000000e+02
2.599311216114346124e+00 1.647298409613664472e+00 3.580000000000000000e+02
1.343563493927363295e+00 9.968388349879961918e-01 3.580000000000000000e+02
8.781577174038102118e-02 3.463792603623281896e-01 3.580000000000000000e+02
-1.167931950446601475e+00 -3.040803142633397016e-01 3.580000000000000000e+02
-2.423679672633584303e+00 -9.545398888890076483e-01 3.580000000000000000e+02
-3.679427394820566022e+00 -1.604999463514675373e+00 3.580000000000000000e+02
-4.935175117007548629e+00 -2.255459038140343431e+00 3.580000000000000000e+02
3.855058938301328730e+00 2.297757984239332529e+00 3.590000000000000000e+02
2.599311216114346124e+00 1.647298409613664472e+00 3.590000000000000000e+02
1.343563493927363295e+00 9.968388349879961918e-01 3.590000000000000000e+02
8.781577174038102118e-02 3.463792603623281896e-01 3.590000000000000000e+02
-1.167931950446601475e+00 -3.040803142633397016e-01 3.590000000000000000e+02
-2.423679672633584303e+00 -9.545398888890076483e-01 3.590000000000000000e+02
-3.679427394820566022e+00 -1.604999463514675373e+00 3.590000000000000000e+02
-4.935175117007548629e+00 -2.255459038140343431e+00 3.590000000000000000e+02
2.901955289895003176e+00 2.600402058019989582e+00 3.600000000000000000e+02
1.646207567708020791e+00 1.949942483394321968e+00 3.600000000000000000e+02
3.904598455210381847e-01 1.299482908768653466e+00 3.600000000000000000e+02
-8.652878766659442000e-01 6.490233341429854086e-01 3.600000000000000000e+02
-2.121035598852926363e+00 -1.436240482682371589e-03 3.600000000000000000e+02
-3.376783321039908969e+00 -6.518958151083504848e-01 3.600000000000000000e+02
-4.632531043226891576e+00 -1.302355389734018321e+00 3.600000000000000000e+02
3.855058938301328730e+00 2.297757984239332529e+00 3.610000000000000000e+02
2.599311216114346124e+00 1.647298409613664472e+00 3.610000000000000000e+02
1.343563493927363295e+00 9.968388349879961918e-01 3.610000000000000000e+02
8.781577174038102118e-02 3.463792603623281896e-01 3.610000000000000000e+02
-1.167931950446601475e+00 -3.040803142633397016e-01 3.610000000000000000e+02
-2.423679672633584303e+00 -9.545398888890076483e-01 3.610000000000000000e+02
-3.679427394820566022e+00 -1.604999463514675373e+00 3.610000000000000000e+02
-4.935175117007548629e+00 -2.255459038140343431e+00 3.610000000000000000e+02
3.855058938301328730e+00 2.297757984239332529e+00 3.620000000000000000e+02
2.599311216114346124e+00 1.647298409613664472e+00 3.620000000000000000e+02
1.343563493927363295e+00 9.968388349879961918e-01 3.620000000000000000e+02
8.781577174038102118e-02 3.463792603623281896e-01 3.620000000000000000e+02
-1.167931950446601475e+00 -3.040803142633397016e-01 3.620000000000000000e+02
-2.423679672633584303e+00 -9.545398888890076483e-01 3.620000000000000000e+02
-3.679427394820566022e+00 -1.604999463514675373e+00 3.620000000000000000e+02
-4.935175117007548629e+00 -2.255459038140343431e+00 3.620000000000000000e+02
3.855058938301328730e+00 2.297757984239332529e+00 3.630000000000000000e+02
2.599311216114346124e+00 1.647298409613664472e+00 3.630000000000000000e+02
1.343563493927363295e+00 9.968388349879961918e-01 3.630000000000000000e+02
8.781577174038102118e-02 3.463792603623281896e-01 3.630000000000000000e+02
-1.167931950446601475e+00 -3.040803142633397016e-01 3.630000000000000000e+02
-2.423679672633584303e+00 -9.545398888890076483e-01 3.630000000000000000e+02
-3.679427394820566022e+00 -1.604999463514675373e+00 3.630000000000000000e+02
-4.935175117007548629e+00 -2.255459038140343431e+00 3.630000000000000000e+02
-6.190922839194531235e+00 -2.905918612766011488e+00 3.630000000000000000e+02
3.855058938301328730e+00 2.297757984239332529e+00 3.640000000000000000e+02
2.599311216114346124e+00 1.647298409613664472e+00 3.640000000000000000e+02
1.343563493927363295e+00 9.968388349879961918e-01 3.640000000000000000e+02
8.781577174038102118e-02 3.463792603623281896e-01 3.640000000000000000e+02
-1.167931950446601475e+00 -3.040803142633397016e-01 3.640000000000000000e+02
-2.423679672633584303e+00 -9.545398888890076483e-01 3.640000000000000000e+02
-3.679427394820566022e+00 -1.604999463514675373e+00 3.640000000000000000e+02
-4.935175117007548629e+00 -2.255459038140343431e+00 3.640000000000000000e+02
-6.190922839194531235e+00 -2.905918612766011488e+00 3.640000000000000000e+02
3.855058938301328730e+00 2.297757984239332529e+00 3.650000000000000000e+02
2.599311216114346124e+00 1.647298409613664472e+00 3.650000000000000000e+02
1.343563493927363295e+00 9.968388349879961918e-01 3.650000000000000000e+02
8.781577174038102118e-02 3.463792603623281896e-01 3.650000000000000000e+02
-1.167931950446601475e+00 -3.040803142633397016e-01 3.650000000000000000e+02
-2.423679672633584303e+00 -9.545398888890076483e-01 3.650000000000000000e+02
-3.679427394820566022e+00 -1.604999463514675373e+00 3.650000000000000000e+02
-4.935175117007548629e+00 -2.255459038140343431e+00 3.650000000000000000e+02
-6.190922839194531235e+00 -2.905918612766011488e+00 3.650000000000000000e+02
2.901955289895003176e+00 2.600402058019989582e+00 3.660000000000000000e+02
1.646207567708020791e+00 1.949942483394321968e+00 3.660000000000000000e+02
3.904598455210381847e-01 1.299482908768653466e+00 3.660000000000000000e+02
-8.652878766659442000e-01 6.490233341429854086e-01 3.660000000000000000e+02
-2.121035598852926363e+00 -1.436240482682371589e-03 3.660000000000000000e+02
-3.376783321039908969e+00 -6.518958151083504848e-01 3.660000000000000000e+02
-4.632531043226891576e+00 -1.302355389734018321e+00 3.660000000000000000e+02
-5.888278765413874183e+00 -1.952814964359685934e+00 3.660000000000000000e+02
2.901955289895003176e+00 2.600402058019989582e+00 3.670000000000000000e+02
1.646207567708020791e+00 1.949942483394321968e+00 3.670000000000000000e+02
3.904598455210381847e-01 1.299482908768653466e+00 3.670000000000000000e+02
-8.652878766659442000e-01 6.490233341429854086e-01 3.670000000000000000e+02
-2.121035598852926363e+00 -1.436240482682371589e-03 3.670000000000000000e+02
-3.376783321039908969e+00 -6.518958151083504848e-01 3.670000000000000000e+02
-4.632531043226891576e+00 -1.302355389734018321e+00 3.670000000000000000e+02
-5.888278765413874183e+00 -1.952814964359685934e+00 3.670000000000000000e+02
2.901955289895003176e+00 2.600402058019989582e+00 3.680000000000000000e+02
1.646207567708020791e+00 1.949942483394321968e+00 3.680000000000000000e+02
3.904598455210381847e-01 1.299482908768653466e+00 3.680000000000000000e+02
-8.652878766659442000e-01 6.490233341429854086e-01 3.680000000000000000e+02
-2.121035598852926363e+00 -1.436240482682371589e-03 3.680000000000000000e+02
-3.376783321039908969e+00 -6.518958151083504848e-01 3.680000000000000000e+02
-4.632531043226891576e+00 -1.302355389734018321e+00 3.680000000000000000e+02
2.901955289895003176e+00 2.600402058019989582e+00 3.690000000000000000e+02
1.646207567708020791e+00 1.949942483394321968e+00 3.690000000000000000e+02
3.904598455210381847e-01 1.299482908768653466e+00 3.690000000000000000e+02
-8.652878766659442000e-01 6.490233341429854086e-01 3.690000000000000000e+02
-2.121035598852926363e+00 -1.436240482682371589e-03 3.690000000000000000e+02
-3.376783321039908969e+00 -6.518958151083504848e-01 3.690000000000000000e+02
-4.632531043226891576e+00 -1.302355389734018321e+00 3.690000000000000000e+02
2.901955289895003176e+00 2.600402058019989582e+00 3.700000000000000000e+02
1.646207567708020791e+00 1.949942483394321968e+00 3.700000000000000000e+02
3.904598455210381847e-01 1.299482908768653466e+00 3.700000000000000000e+02
-8.652878766659442000e-01 6.490233341429854086e-01 3.700000000000000000e+02
-2.121035598852926363e+00 -1.436240482682371589e-03 3.700000000000000000e+02
-3.376783321039908969e+00 -6.518958151083504848e-01 3.700000000000000000e+02
-4.632531043226891576e+00 -1.302355389734018321e+00 3.700000000000000000e+02
2.901955289895003176e+00 2.600402058019989582e+00 3.710000000000000000e+02
1.646207567708020791e+00 1.949942483394321968e+00 3.710000000000000000e+02
3.904598455210381847e-01 1.299482908768653466e+00 3.710000000000000000e+02
-8.652878766659442000e-01 6.490233341429854086e-01 3.710000000000000000e+02
-2.121035598852926363e+00 -1.436240482682371589e-03 3.710000000000000000e+02
-3.376783321039908969e+00 -6.518958151083504848e-01 3.710000000000000000e+02
-4.632531043226891576e+00 -1.302355389734018321e+00 3.710000000000000000e+02
2.901955289895003176e+00 2.600402058019989582e+00 3.720000000000000000e+02
1.646207567708020791e+00 1.949942483394321968e+00 3.720000000000000000e+02
3.904598455210381847e-01 1.299482908768653466e+00 3.720000000000000000e+02
-8.652878766659442000e-01 6.490233341429854086e-01 3.720000000000000000e+02
-2.121035598852926363e+00 -1.436240482682371589e-03 3.720000000000000000e+02
-3.376783321039908969e+00 -6.518958151083504848e-01 3.720000000000000000e+02
-4.632531043226891576e+00 -1.302355389734018321e+00 3.720000000000000000e+02
2.901955289895003176e+00 2.600402058019989582e+00 3.730000000000000000e+02
1.646207567708020791e+00 1.949942483394321968e+00 3.730000000000000000e+02
3.904598455210381847e-01 1.299482908768653466e+00 3.730000000000000000e+02
-8.652878766659442000e-01 6.490233341429854086e-01 3.730000000000000000e+02
-2.121035598852926363e+00 -1.436240482682371589e-03 3.730000000000000000e+02
-3.376783321039908969e+00 -6.518958151083504848e-01 3.730000000000000000e+02
-4.632531043226891576e+00 -1.302355389734018321e+00 3.730000000000000000e+02
2.901955289895003176e+00 2.600402058019989582e+00 3.740000000000000000e+02
1.646207567708020791e+00 1.949942483394321968e+00 3.740000000000000000e+02
3.904598455210381847e-01 1.299482908768653466e+00 3.740000000000000000e+02
-8.652878766659442000e-01 6.490233341429854086e-01 3.740000000000000000e+02
-2.121035598852926363e+00 -1.436240482682371589e-03 3.740000000000000000e+02
-3.376783321039908969e+00 -6.518958151083504848e-01 3.740000000000000000e+02
-4.632531043226891576e+00 -1.302355389734018321e+00 3.740000000000000000e+02
3.855058938301328730e+00 2.297757984239332529e+00 3.750000000000000000e+02
2.599311216114346124e+00 1.647298409613664472e+00 3.750000000000000000e+02
1.343563493927363295e+00 9.968388349879961918e-01 3.750000000000000000e+02
8.781577174038102118e-02 3.463792603623281896e-01 3.750000000000000000e+02
-1.167931950446601475e+00 -3.040803142633397016e-01 3.750000000000000000e+02
-2.423679672633584303e+00 -9.545398888890076483e-01 3.750000000000000000e+02
-3.679427394820566022e+00 -1.604999463514675373e+00 3.750000000000000000e+02
-4.935175117007548629e+00 -2.255459038140343431e+00 3.750000000000000000e+02
3.855058938301328730e+00 2.297757984239332529e+00 3.760000000000000000e+02
2.599311216114346124e+00 1.647298409613664472e+00 3.760000000000000000e+02
1.343563493927363295e+00 9.968388349879961918e-01 3.760000000000000000e+02
8.781577174038102118e-02 3.463792603623281896e-01 3.760000000000000000e+02
-1.167931950446601475e+00 -3.040803142633397016e-01 3.760000000000000000e+02
-2.423679672633584303e+00 -9.545398888890076483e-01 3.760000000000000000e+02
-3.679427394820566022e+00 -1.604999463514675373e+00 3.760000000000000000e+02
-4.935175117007548629e+00 -2.255459038140343431e+00 3.760000000000000000e+02
2.901955289895003176e+00 2.600402058019989582e+00 3.770000000000000000e+02
1.646207567708020791e+00 1.949942483394321968e+00 3.770000000000000000e+02
3.904598455210381847e-01 1.299482908768653466e+00 3.770000000000000000e+02
-8.652878766659442000e-01 6.490233341429854086e-01 3.770000000000000000e+02
-2.121035598852926363e+00 -1.436240482682371589e-03 3.770000000000000000e+02
-3.376783321039908969e+00 -6.518958151083504848e-01 3.770000000000000000e+02
-4.632531043226891576e+00 -1.302355389734018321e+00 3.770000000000000000e+02
2.901955289895003176e+00 2.600402058019989582e+00 3.780000000000000000e+02
1.646207567708020791e+00 1.949942483394321968e+00 3.780000000000000000e+02
3.904598455210381847e-01 1.299482908768653466e+00 3.780000000000000000e+02
-8.652878766659442000e-01 6.490233341429854086e-01 3.780000000000000000e+02
-2.121035598852926363e+00 -1.436240482682371589e-03 3.780000000000000000e+02
-3.376783321039908969e+00 -6.518958151083504848e-01 3.780000000000000000e+02
-4.632531043226891576e+00 -1.302355389734018321e+00 3.780000000000000000e+02
2.901955289895003176e+00 2.600402058019989582e+00 3.790000000000000000e+02
1.646207567708020791e+00 1.949942483394321968e+00 3.790000000000000000e+02
3.904598455210381847e-01 1.299482908768653466e+00 3.790000000000000000e+02
-8.652878766659442000e-01 6.490233341429854086e-01 3.790000000000000000e+02
-2.121035598852926363e+00 -1.436240482682371589e-03 3.790000000000000000e+02
-3.376783321039908969e+00 -6.518958151083504848e-01 3.790000000000000000e+02
-4.632531043226891576e+00 -1.302355389734018321e+00 3.790000000000000000e+02
3.855058938301328730e+00 2.297757984239332529e+00 3.800000000000000000e+02
2.599311216114346124e+00 1.647298409613664472e+00 3.800000000000000000e+02
1.343563493927363295e+00 9.968388349879961918e-01 3.800000000000000000e+02
8.781577174038102118e-02 3.463792603623281896e-01 3.800000000000000000e+02
-1.167931950446601475e+00 -3.040803142633397016e-01 3.800000000000000000e+02
-2.423679672633584303e+00 -9.545398888890076483e-01 3.800000000000000000e+02
-3.679427394820566022e+00 -1.604999463514675373e+00 3.800000000000000000e+02
-4.935175117007548629e+00 -2.255459038140343431e+00 3.800000000000000000e+02
2.901955289895003176e+00 2.600402058019989582e+00 3.810000000000000000e+02
1.646207567708020791e+00 1.949942483394321968e+00 3.810000000000000000e+02
3.904598455210381847e-01 1.299482908768653466e+00 3.810000000000000000e+02
-8.652878766659442000e-01 6.490233341429854086e-01 3.810000000000000000e+02
-2.121035598852926363e+00 -1.436240482682371589e-03 3.810000000000000000e+02
-3.376783321039908969e+00 -6.518958151083504848e-01 3.810000000000000000e+02
-4.632531043226891576e+00 -1.302355389734018321e+00 3.810000000000000000e+02
2.901955289895003176e+00 2.600402058019989582e+00 3.820000000000000000e+02
1.646207567708020791e+00 1.949942483394321968e+00 3.820000000000000000e+02
3.904598455210381847e-01 1.299482908768653466e+00 3.820000000000000000e+02
-8.652878766659442000e-01 6.490233341429854086e-01 3.820000000000000000e+02
-2.121035598852926363e+00 -1.436240482682371589e-03 3.820000000000000000e+02
-3.376783321039908969e+00 -6.518958151083504848e-01 3.820000000000000000e+02
-4.632531043226891576e+00 -1.302355389734018321e+00 3.820000000000000000e+02
2.901955289895003176e+00 2.600402058019989582e+00 3.830000000000000000e+02
1.646207567708020791e+00 1.949942483394321968e+00 3.830000000000000000e+02
3.904598455210381847e-01 1.299482908768653466e+00 3.830000000000000000e+02
-8.652878766659442000e-01 6.490233341429854086e-01 3.830000000000000000e+02
-2.121035598852926363e+00 -1.436240482682371589e-03 3.830000000000000000e+02
-3.376783321039908969e+00 -6.518958151083504848e-01 3.830000000000000000e+02
-4.632531043226891576e+00 -1.302355389734018321e+00 3.830000000000000000e+02
2.901955289895003176e+00 2.600402058019989582e+00 3.840000000000000000e+02
1.646207567708020791e+00 1.949942483394321968e+00 3.840000000000000000e+02
3.904598455210381847e-01 1.299482908768653466e+00 3.840000000000000000e+02
-8.652878766659442000e-01 6.490233341429854086e-01 3.840000000000000000e+02
-2.121035598852926363e+00 -1.436240482682371589e-03 3.840000000000000000e+02
-3.376783321039908969e+00 -6.518958151083504848e-01 3.840000000000000000e+02
-4.632531043226891576e+00 -1.302355389734018321e+00 3.840000000000000000e+02
-5.888278765413874183e+00 -1.952814964359685934e+00 3.840000000000000000e+02
2.901955289895003176e+00 2.600402058019989582e+00 3.850000000000000000e+02
1.646207567708020791e+00 1.949942483394321968e+00 3.850000000000000000e+02
3.904598455210381847e-01 1.299482908768653466e+00 3.850000000000000000e+02
-8.652878766659442000e-01 6.490233341429854086e-01 3.850000000000000000e+02
-2.121035598852926363e+00 -1.436240482682371589e-03 3.850000000000000000e+02
-3.376783321039908969e+00 -6.518958151083504848e-01 3.850000000000000000e+02
-4.632531043226891576e+00 -1.302355389734018321e+00 3.850000000000000000e+02
-5.888278765413874183e+00 -1.952814964359685934e+00 3.850000000000000000e+02
2.901955289895003176e+00 2.600402058019989582e+00 3.860000000000000000e+02
1.646207567708020791e+00 1.949942483394321968e+00 3.860000000000000000e+02
3.904598455210381847e-01 1.299482908768653466e+00 3.860000000000000000e+02
-8.652878766659442000e-01 6.490233341429854086e-01 3.860000000000000000e+02
-2.121035598852926363e+00 -1.436240482682371589e-03 3.860000000000000000e+02
-3.376783321039908969e+00 -6.518958151083504848e-01 3.860000000000000000e+02
-4.632531043226891576e+00 -1.302355389734018321e+00 3.860000000000000000e+02
-5.888278765413874183e+00 -1.952814964359685934e+00 3.860000000000000000e+02
2.901955289895003176e+00 2.600402058019989582e+00 3.870000000000000000e+02
1.646207567708020791e+00 1.949942483394321968e+00 3.870000000000000000e+02
3.904598455210381847e-01 1.299482908768653466e+00 3.870000000000000000e+02
-8.652878766659442000e-01 6.490233341429854086e-01 3.870000000000000000e+02
-2.121035598852926363e+00 -1.436240482682371589e-03 3.870000000000000000e+02
-3.376783321039908969e+00 -6.518958151083504848e-01 3.870000000000000000e+02
-4.632531043226891576e+00 -1.302355389734018321e+00 3.870000000000000000e+02
-5.888278765413874183e+00 -1.952814964359685934e+00 3.870000000000000000e+02
2.901955289895003176e+00 2.600402058019989582e+00 3.880000000000000000e+02
1.646207567708020791e+00 1.949942483394321968e+00 3.880000000000000000e+02
3.904598455210381847e-01 1.299482908768653466e+00 3.880000000000000000e+02
-8.652878766659442000e-01 6.490233341429854086e-01 3.880000000000000000e+02
-2.121035598852926363e+00 -1.436240482682371589e-03 3.880000000000000000e+02
-3.376783321039908969e+00 -6.518958151083504848e-01 3.880000000000000000e+02
-4.632531043226891576e+00 -1.302355389734018321e+00 3.880000000000000000e+02
-5.888278765413874183e+00 -1.952814964359685934e+00 3.880000000000000000e+02
2.901955289895003176e+00 2.600402058019989582e+00 3.890000000000000000e+02
1.646207567708020791e+00 1.949942483394321968e+00 3.890000000000000000e+02
3.904598455210381847e-01 1.299482908768653466e+00 3.890000000000000000e+02
-8.652878766659442000e-01 6.490233341429854086e-01 3.890000000000000000e+02
-2.121035598852926363e+00 -1.436240482682371589e-03 3.890000000000000000e+02
-3.376783321039908969e+00 -6.518958151083504848e-01 3.890000000000000000e+02
-4.632531043226891576e+00 -1.302355389734018321e+00 3.890000000000000000e+02
-5.888278765413874183e+00 -1.952814964359685934e+00 3.890000000000000000e+02
3.855058938301328730e+00 2.297757984239332529e+00 3.900000000000000000e+02
2.599311216114346124e+00 1.647298409613664472e+00 3.900000000000000000e+02
1.343563493927363295e+00 9.968388349879961918e-01 3.900000000000000000e+02
8.781577174038102118e-02 3.463792603623281896e-01 3.900000000000000000e+02
-1.167931950446601475e+00 -3.040803142633397016e-01 3.900000000000000000e+02
-2.423679672633584303e+00 -9.545398888890076483e-01 3.900000000000000000e+02
-3.679427394820566022e+00 -1.604999463514675373e+00 3.900000000000000000e+02
-4.935175117007548629e+00 -2.255459038140343431e+00 3.900000000000000000e+02
-6.190922839194531235e+00 -2.905918612766011488e+00 3.900000000000000000e+02
3.855058938301328730e+00 2.297757984239332529e+00 3.910000000000000000e+02
2.599311216114346124e+00 1.647298409613664472e+00 3.910000000000000000e+02
1.343563493927363295e+00 9.968388349879961918e-01 3.910000000000000000e+02
8.781577174038102118e-02 3.463792603623281896e-01 3.910000000000000000e+02
-1.167931950446601475e+00 -3.040803142633397016e-01 3.910000000000000000e+02
-2.423679672633584303e+00 -9.545398888890076483e-01 3.910000000000000000e+02
-3.679427394820566022e+00 -1.604999463514675373e+00 3.910000000000000000e+02
-4.935175117007548629e+00 -2.255459038140343431e+00 3.910000000000000000e+02
-6.190922839194531235e+00 -2.905918612766011488e+00 3.910000000000000000e+02
2.901955289895003176e+00 2.600402058019989582e+00 3.920000000000000000e+02
1.646207567708020791e+00 1.949942483394321968e+00 3.920000000000000000e+02
3.904598455210381847e-01 1.299482908768653466e+00 3.920000000000000000e+02
-8.652878766659442000e-01 6.490233341429854086e-01 3.920000000000000000e+02
-2.121035598852926363e+00 -1.436240482682371589e-03 3.920000000000000000e+02
-3.376783321039908969e+00 -6.518958151083504848e-01 3.920000000000000000e+02
-4.632531043226891576e+00 -1.302355389734018321e+00 3.920000000000000000e+02
2.901955289895003176e+00 2.600402058019989582e+00 3.930000000000000000e+02
1.646207567708020791e+00 1.949942483394321968e+00 3.930000000000000000e+02
3.904598455210381847e-01 1.299482908768653466e+00 3.930000000000000000e+02
-8.652878766659442000e-01 6.490233341429854086e-01 3.930000000000000000e+02
-2.121035598852926363e+00 -1.436240482682371589e-03 3.930000000000000000e+02
-3.376783321039908969e+00 -6.518958151083504848e-01 3.930000000000000000e+02
-4.632531043226891576e+00 -1.302355389734018321e+00 3.930000000000000000e+02
2.901955289895003176e+00 2.600402058019989582e+00 3.940000000000000000e+02
1.646207567708020791e+00 1.949942483394321968e+00 3.940000000000000000e+02
3.904598455210381847e-01 1.299482908768653466e+00 3.940000000000000000e+02
-8.652878766659442000e-01 6.490233341429854086e-01 3.940000000000000000e+02
-2.121035598852926363e+00 -1.436240482682371589e-03 3.940000000000000000e+02
-3.376783321039908969e+00 -6.518958151083504848e-01 3.940000000000000000e+02
-4.632531043226891576e+00 -1.302355389734018321e+00 3.940000000000000000e+02
2.901955289895003176e+00 2.600402058019989582e+00 3.950000000000000000e+02
1.646207567708020791e+00 1.949942483394321968e+00 3.950000000000000000e+02
3.904598455210381847e-01 1.299482908768653466e+00 3.950000000000000000e+02
-8.652878766659442000e-01 6.490233341429854086e-01 3.950000000000000000e+02
-2.121035598852926363e+00 -1.436240482682371589e-03 3.950000000000000000e+02
-3.376783321039908969e+00 -6.518958151083504848e-01 3.950000000000000000e+02
-4.632531043226891576e+00 -1.302355389734018321e+00 3.950000000000000000e+02
2.901955289895003176e+00 2.600402058019989582e+00 3.960000000000000000e+02
1.646207567708020791e+00 1.949942483394321968e+00 3.960000000000000000e+02
3.904598455210381847e-01 1.299482908768653466e+00 3.960000000000000000e+02
-8.652878766659442000e-01 6.490233341429854086e-01 3.960000000000000000e+02
-2.121035598852926363e+00 -1.436240482682371589e-03 3.960000000000000000e+02
-3.376783321039908969e+00 -6.518958151083504848e-01 3.960000000000000000e+02
-4.632531043226891576e+00 -1.302355389734018321e+00 3.960000000000000000e+02
2.901955289895003176e+00 2.600402058019989582e+00 3.970000000000000000e+02
1.646207567708020791e+00 1.949942483394321968e+00 3.970000000000000000e+02
3.904598455210381847e-01 1.299482908768653466e+00 3.970000000000000000e+02
-8.652878766659442000e-01 6.490233341429854086e-01 3.970000000000000000e+02
-2.121035598852926363e+00 -1.436240482682371589e-03 3.970000000000000000e+02
-3.376783321039908969e+00 -6.518958151083504848e-01 3.970000000000000000e+02
-4.632531043226891576e+00 -1.302355389734018321e+00 3.970000000000000000e+02
2.901955289895003176e+00 2.600402058019989582e+00 3.980000000000000000e+02
1.646207567708020791e+00 1.949942483394321968e+00 3.980000000000000000e+02
3.904598455210381847e-01 1.299482908768653466e+00 3.980000000000000000e+02
-8.652878766659442000e-01 6.490233341429854086e-01 3.980000000000000000e+02
-2.121035598852926363e+00 -1.436240482682371589e-03 3.980000000000000000e+02
