-3.152033891412573841e+00 4.876280451713832065e+00 3.050000000000000000e+02
-2.113344059359182125e+00 3.916528695899393675e+00 3.050000000000000000e+02
-1.074654227305790410e+00 2.956776940084955285e+00 3.050000000000000000e+02
-3.596439525239869539e-02 1.997025184270517340e+00 3.050000000000000000e+02
1.002725436800993020e+00 1.037273428456079172e+00 3.050000000000000000e+02
2.041415268854384735e+00 7.752167264164100402e-02 3.050000000000000000e+02
3.080105100907776450e+00 -8.822300831727973858e-01 3.050000000000000000e+02
-3.152033891412573841e+00 4.876280451713832065e+00 3.060000000000000000e+02
-2.113344059359182125e+00 3.916528695899393675e+00 3.060000000000000000e+02
-1.074654227305790410e+00 2.956776940084955285e+00 3.060000000000000000e+02
-3.596439525239869539e-02 1.997025184270517340e+00 3.060000000000000000e+02
1.002725436800993020e+00 1.037273428456079172e+00 3.060000000000000000e+02
2.041415268854384735e+00 7.752167264164100402e-02 3.060000000000000000e+02
3.080105100907776450e+00 -8.822300831727973858e-01 3.060000000000000000e+02
-3.152033891412573841e+00 4.876280451713832065e+00 3.070000000000000000e+02
-2.113344059359182125e+00 3.916528695899393675e+00 3.070000000000000000e+02
-1.074654227305790410e+00 2.956776940084955285e+00 3.070000000000000000e+02
-3.596439525239869539e-02 1.997025184270517340e+00 3.070000000000000000e+02
1.002725436800993020e+00 1.037273428456079172e+00 3.070000000000000000e+02
2.041415268854384735e+00 7.752167264164100402e-02 3.070000000000000000e+02
3.080105100907776450e+00 -8.822300831727973858e-01 3.070000000000000000e+02
-3.152033891412573841e+00 4.876280451713832065e+00 3.080000000000000000e+02
-2.113344059359182125e+00 3.916528695899393675e+00 3.080000000000000000e+02
-1.074654227305790410e+00 2.956776940084955285e+00 3.080000000000000000e+02
-3.596439525239869539e-02 1.997025184270517340e+00 3.080000000000000000e+02
1.002725436800993020e+00 1.037273428456079172e+00 3.080000000000000000e+02
2.041415268854384735e+00 7.752167264164100402e-02 3.080000000000000000e+02
3.080105100907776450e+00 -8.822300831727973858e-01 3.080000000000000000e+02
-3.152033891412573841e+00 4.876280451713832065e+00 3.090000000000000000e+02
-2.113344059359182125e+00 3.916528695899393675e+00 3.090000000000000000e+02
-1.074654227305790410e+00 2.956776940084955285e+00 3.090000000000000000e+02
-3.596439525239869539e-02 1.997025184270517340e+00 3.090000000000000000e+02
1.002725436800993020e+00 1.037273428456079172e+00 3.090000000000000000e+02
2.041415268854384735e+00 7.752167264164100402e-02 3.090000000000000000e+02
3.080105100907776450e+00 -8.822300831727973858e-01 3.090000000000000000e+02
4.118794932961168165e+00 -1.841981838987235331e+00 3.090000000000000000e+02
-3.152033891412573841e+00 4.876280451713832065e+00 3.100000000000000000e+02
-2.113344059359182125e+00 3.916528695899393675e+00 3.100000000000000000e+02
-1.074654227305790410e+00 2.956776940084955285e+00 3.100000000000000000e+02
-3.596439525239869539e-02 1.997025184270517340e+00 3.100000000000000000e+02
1.002725436800993020e+00 1.037273428456079172e+00 3.100000000000000000e+02
2.041415268854384735e+00 7.752167264164100402e-02 3.100000000000000000e+02
3.080105100907776450e+00 -8.822300831727973858e-01 3.100000000000000000e+02
-3.152033891412573841e+00 4.876280451713832065e+00 3.110000000000000000e+02
-2.113344059359182125e+00 3.916528695899393675e+00 3.110000000000000000e+02
-1.074654227305790410e+00 2.956776940084955285e+00 3.110000000000000000e+02
-3.596439525239869539e-02 1.997025184270517340e+00 3.110000000000000000e+02
1.002725436800993020e+00 1.037273428456079172e+00 3.110000000000000000e+02
2.041415268854384735e+00 7.752167264164100402e-02 3.110000000000000000e+02
3.080105100907776450e+00 -8.822300831727973858e-01 3.110000000000000000e+02
-3.152033891412573841e+00 4.876280451713832065e+00 3.120000000000000000e+02
-2.113344059359182125e+00 3.916528695899393675e+00 3.120000000000000000e+02
-1.074654227305790410e+00 2.956776940084955285e+00 3.120000000000000000e+02
-3.596439525239869539e-02 1.997025184270517340e+00 3.120000000000000000e+02
1.002725436800993020e+00 1.037273428456079172e+00 3.120000000000000000e+02
2.041415268854384735e+00 7.752167264164100402e-02 3.120000000000000000e+02
3.080105100907776450e+00 -8.822300831727973858e-01 3.120000000000000000e+02
4.118794932961168165e+00 -1.841981838987235331e+00 3.120000000000000000e+02
-3.152033891412573841e+00 4.876280451713832065e+00 3.130000000000000000e+02
-2.113344059359182125e+00 3.916528695899393675e+00 3.130000000000000000e+02
-1.074654227305790410e+00 2.956776940084955285e+00 3.130000000000000000e+02
-3.596439525239869539e-02 1.997025184270517340e+00 3.130000000000000000e+02
1.002725436800993020e+00 1.037273428456079172e+00 3.130000000000000000e+02
2.041415268854384735e+00 7.752167264164100402e-02 3.130000000000000000e+02
3.080105100907776450e+00 -8.822300831727973858e-01 3.130000000000000000e+02
-3.112564853293096956e+00 3.877059657779916790e+00 3.140000000000000000e+02
-2.073875021239705685e+00 2.917307901965478845e+00 3.140000000000000000e+02
-1.035185189186313748e+00 1.957556146151040677e+00 3.140000000000000000e+02
3.504642867078050505e-03 9.978043903366023981e-01 3.140000000000000000e+02
1.042194474920469682e+00 3.805263452216411935e-02 3.140000000000000000e+02
2.080884306973861619e+00 -9.216991212922742704e-01 3.140000000000000000e+02
-3.112564853293096956e+00 3.877059657779916790e+00 3.150000000000000000e+02
-2.073875021239705685e+00 2.917307901965478845e+00 3.150000000000000000e+02
-1.035185189186313748e+00 1.957556146151040677e+00 3.150000000000000000e+02
3.504642867078050505e-03 9.978043903366023981e-01 3.150000000000000000e+02
1.042194474920469682e+00 3.805263452216411935e-02 3.150000000000000000e+02
2.080884306973861619e+00 -9.216991212922742704e-01 3.150000000000000000e+02
-3.152033891412573841e+00 4.876280451713832065e+00 3.160000000000000000e+02
-2.113344059359182125e+00 3.916528695899393675e+00 3.160000000000000000e+02
-1.074654227305790410e+00 2.956776940084955285e+00 3.160000000000000000e+02
-3.596439525239869539e-02 1.997025184270517340e+00 3.160000000000000000e+02
1.002725436800993020e+00 1.037273428456079172e+00 3.160000000000000000e+02
2.041415268854384735e+00 7.752167264164100402e-02 3.160000000000000000e+02
3.080105100907776450e+00 -8.822300831727973858e-01 3.160000000000000000e+02
-3.152033891412573841e+00 4.876280451713832065e+00 3.170000000000000000e+02
-2.113344059359182125e+00 3.916528695899393675e+00 3.170000000000000000e+02
-1.074654227305790410e+00 2.956776940084955285e+00 3.170000000000000000e+02
-3.596439525239869539e-02 1.997025184270517340e+00 3.170000000000000000e+02
1.002725436800993020e+00 1.037273428456079172e+00 3.170000000000000000e+02
2.041415268854384735e+00 7.752167264164100402e-02 3.170000000000000000e+02
3.080105100907776450e+00 -8.822300831727973858e-01 3.170000000000000000e+02
-3.152033891412573841e+00 4.876280451713832065e+00 3.180000000000000000e+02
-2.113344059359182125e+00 3.916528695899393675e+00 3.180000000000000000e+02
-1.074654227305790410e+00 2.956776940084955285e+00 3.180000000000000000e+02
-3.596439525239869539e-02 1.997025184270517340e+00 3.180000000000000000e+02
1.002725436800993020e+00 1.037273428456079172e+00 3.180000000000000000e+02
2.041415268854384735e+00 7.752167264164100402e-02 3.180000000000000000e+02
3.080105100907776450e+00 -8.822300831727973858e-01 3.180000000000000000e+02
-3.152033891412573841e+00 4.876280451713832065e+00 3.190000000000000000e+02
-2.113344059359182125e+00 3.916528695899393675e+00 3.190000000000000000e+02
-1.074654227305790410e+00 2.956776940084955285e+00 3.190000000000000000e+02
-3.596439525239869539e-02 1.997025184270517340e+00 3.190000000000000000e+02
1.002725436800993020e+00 1.037273428456079172e+00 3.190000000000000000e+02
2.041415268854384735e+00 7.752167264164100402e-02 3.190000000000000000e+02
3.080105100907776450e+00 -8.822300831727973858e-01 3.190000000000000000e+02
4.118794932961168165e+00 -1.841981838987235331e+00 3.190000000000000000e+02
-3.152033891412573841e+00 4.876280451713832065e+00 3.200000000000000000e+02
-2.113344059359182125e+00 3.916528695899393675e+00 3.200000000000000000e+02
-1.074654227305790410e+00 2.956776940084955285e+00 3.200000000000000000e+02
-3.596439525239869539e-02 1.997025184270517340e+00 3.200000000000000000e+02
1.002725436800993020e+00 1.037273428456079172e+00 3.200000000000000000e+02
2.041415268854384735e+00 7.752167264164100402e-02 3.200000000000000000e+02
3.080105100907776450e+00 -8.822300831727973858e-01 3.200000000000000000e+02
4.118794932961168165e+00 -1.841981838987235331e+00 3.200000000000000000e+02
-3.152033891412573841e+00 4.876280451713832065e+00 3.210000000000000000e+02
-2.113344059359182125e+00 3.916528695899393675e+00 3.210000000000000000e+02
-1.074654227305790410e+00 2.956776940084955285e+00 3.210000000000000000e+02
-3.596439525239869539e-02 1.997025184270517340e+00 3.210000000000000000e+02
1.002725436800993020e+00 1.037273428456079172e+00 3.210000000000000000e+02
2.041415268854384735e+00 7.752167264164100402e-02 3.210000000000000000e+02
3.080105100907776450e+00 -8.822300831727973858e-01 3.210000000000000000e+02
4.118794932961168165e+00 -1.841981838987235331e+00 3.210000000000000000e+02
-3.152033891412573841e+00 4.876280451713832065e+00 3.220000000000000000e+02
-2.113344059359182125e+00 3.916528695899393675e+00 3.220000000000000000e+02
-1.074654227305790410e+00 2.956776940084955285e+00 3.220000000000000000e+02
-3.596439525239869539e-02 1.997025184270517340e+00 3.220000000000000000e+02
1.002725436800993020e+00 1.037273428456079172e+00 3.220000000000000000e+02
2.041415268854384735e+00 7.752167264164100402e-02 3.220000000000000000e+02
3.080105100907776450e+00 -8.822300831727973858e-01 3.220000000000000000e+02
-3.112564853293096956e+00 3.877059657779916790e+00 3.230000000000000000e+02
-2.073875021239705685e+00 2.917307901965478845e+00 3.230000000000000000e+02
-1.035185189186313748e+00 1.957556146151040677e+00 3.230000000000000000e+02
3.504642867078050505e-03 9.978043903366023981e-01 3.230000000000000000e+02
1.042194474920469682e+00 3.805263452216411935e-02 3.230000000000000000e+02
2.080884306973861619e+00 -9.216991212922742704e-01 3.230000000000000000e+02
-3.112564853293096956e+00 3.877059657779916790e+00 3.240000000000000000e+02
-2.073875021239705685e+00 2.917307901965478845e+00 3.240000000000000000e+02
-1.035185189186313748e+00 1.957556146151040677e+00 3.240000000000000000e+02
3.504642867078050505e-03 9.978043903366023981e-01 3.240000000000000000e+02
1.042194474920469682e+00 3.805263452216411935e-02 3.240000000000000000e+02
2.080884306973861619e+00 -9.216991212922742704e-01 3.240000000000000000e+02
-3.112564853293096956e+00 3.877059657779916790e+00 3.250000000000000000e+02
-2.073875021239705685e+00 2.917307901965478845e+00 3.250000000000000000e+02
-1.035185189186313748e+00 1.957556146151040677e+00 3.250000000000000000e+02
3.504642867078050505e-03 9.978043903366023981e-01 3.250000000000000000e+02
1.042194474920469682e+00 3.805263452216411935e-02 3.250000000000000000e+02
2.080884306973861619e+00 -9.216991212922742704e-01 3.250000000000000000e+02
3.119574139027253334e+00 -1.881450877106712216e+00 3.250000000000000000e+02
-3.152033891412573841e+00 4.876280451713832065e+00 3.260000000000000000e+02
-2.113344059359182125e+00 3.916528695899393675e+00 3.260000000000000000e+02
-1.074654227305790410e+00 2.956776940084955285e+00 3.260000000000000000e+02
-3.596439525239869539e-02 1.997025184270517340e+00 3.260000000000000000e+02
1.002725436800993020e+00 1.037273428456079172e+00 3.260000000000000000e+02
2.041415268854384735e+00 7.752167264164100402e-02 3.260000000000000000e+02
3.080105100907776450e+00 -8.822300831727973858e-01 3.260000000000000000e+02
4.118794932961168165e+00 -1.841981838987235331e+00 3.260000000000000000e+02
-3.112564853293096956e+00 3.877059657779916790e+00 3.270000000000000000e+02
-2.073875021239705685e+00 2.917307901965478845e+00 3.270000000000000000e+02
-1.035185189186313748e+00 1.957556146151040677e+00 3.270000000000000000e+02
3.504642867078050505e-03 9.978043903366023981e-01 3.270000000000000000e+02
1.042194474920469682e+00 3.805263452216411935e-02 3.270000000000000000e+02
2.080884306973861619e+00 -9.216991212922742704e-01 3.270000000000000000e+02
3.119574139027253334e+00 -1.881450877106712216e+00 3.270000000000000000e+02
-3.112564853293096956e+00 3.877059657779916790e+00 3.280000000000000000e+02
-2.073875021239705685e+00 2.917307901965478845e+00 3.280000000000000000e+02
-1.035185189186313748e+00 1.957556146151040677e+00 3.280000000000000000e+02
3.504642867078050505e-03 9.978043903366023981e-01 3.280000000000000000e+02
1.042194474920469682e+00 3.805263452216411935e-02 3.280000000000000000e+02
2.080884306973861619e+00 -9.216991212922742704e-01 3.280000000000000000e+02
-3.112564853293096956e+00 3.877059657779916790e+00 3.290000000000000000e+02
-2.073875021239705685e+00 2.917307901965478845e+00 3.290000000000000000e+02
-1.035185189186313748e+00 1.957556146151040677e+00 3.290000000000000000e+02
3.504642867078050505e-03 9.978043903366023981e-01 3.290000000000000000e+02
1.042194474920469682e+00 3.805263452216411935e-02 3.290000000000000000e+02
2.080884306973861619e+00 -9.216991212922742704e-01 3.290000000000000000e+02
3.119574139027253334e+00 -1.881450877106712216e+00 3.290000000000000000e+02
-3.112564853293096956e+00 3.877059657779916790e+00 3.300000000000000000e+02
-2.073875021239705685e+00 2.917307901965478845e+00 3.300000000000000000e+02
-1.035185189186313748e+00 1.957556146151040677e+00 3.300000000000000000e+02
3.504642867078050505e-03 9.978043903366023981e-01 3.300000000000000000e+02
1.042194474920469682e+00 3.805263452216411935e-02 3.300000000000000000e+02
2.080884306973861619e+00 -9.216991212922742704e-01 3.300000000000000000e+02
3.119574139027253334e+00 -1.881450877106712216e+00 3.300000000000000000e+02
-3.112564853293096956e+00 3.877059657779916790e+00 3.310000000000000000e+02
-2.073875021239705685e+00 2.917307901965478845e+00 3.310000000000000000e+02
-1.035185189186313748e+00 1.957556146151040677e+00 3.310000000000000000e+02
3.504642867078050505e-03 9.978043903366023981e-01 3.310000000000000000e+02
1.042194474920469682e+00 3.805263452216411935e-02 3.310000000000000000e+02
2.080884306973861619e+00 -9.216991212922742704e-01 3.310000000000000000e+02
3.119574139027253334e+00 -1.881450877106712216e+00 3.310000000000000000e+02
-3.112564853293096956e+00 3.877059657779916790e+00 3.320000000000000000e+02
-2.073875021239705685e+00 2.917307901965478845e+00 3.320000000000000000e+02
-1.035185189186313748e+00 1.957556146151040677e+00 3.320000000000000000e+02
3.504642867078050505e-03 9.978043903366023981e-01 3.320000000000000000e+02
1.042194474920469682e+00 3.805263452216411935e-02 3.320000000000000000e+02
2.080884306973861619e+00 -9.216991212922742704e-01 3.320000000000000000e+02
3.119574139027253334e+00 -1.881450877106712216e+00 3.320000000000000000e+02
-3.112564853293096956e+00 3.877059657779916790e+00 3.330000000000000000e+02
-2.073875021239705685e+00 2.917307901965478845e+00 3.330000000000000000e+02
-1.035185189186313748e+00 1.957556146151040677e+00 3.330000000000000000e+02
3.504642867078050505e-03 9.978043903366023981e-01 3.330000000000000000e+02
1.042194474920469682e+00 3.805263452216411935e-02 3.330000000000000000e+02
2.080884306973861619e+00 -9.216991212922742704e-01 3.330000000000000000e+02
3.119574139027253334e+00 -1.881450877106712216e+00 3.330000000000000000e+02
-3.152033891412573841e+00 4.876280451713832065e+00 3.340000000000000000e+02
-2.113344059359182125e+00 3.916528695899393675e+00 3.340000000000000000e+02
-1.074654227305790410e+00 2.956776940084955285e+00 3.340000000000000000e+02
-3.596439525239869539e-02 1.997025184270517340e+00 3.340000000000000000e+02
1.002725436800993020e+00 1.037273428456079172e+00 3.340000000000000000e+02
2.041415268854384735e+00 7.752167264164100402e-02 3.340000000000000000e+02
3.080105100907776450e+00 -8.822300831727973858e-01 3.340000000000000000e+02
4.118794932961168165e+00 -1.841981838987235331e+00 3.340000000000000000e+02
-3.112564853293096956e+00 3.877059657779916790e+00 3.350000000000000000e+02
-2.073875021239705685e+00 2.917307901965478845e+00 3.350000000000000000e+02
-1.035185189186313748e+00 1.957556146151040677e+00 3.350000000000000000e+02
3.504642867078050505e-03 9.978043903366023981e-01 3.350000000000000000e+02
1.042194474920469682e+00 3.805263452216411935e-02 3.350000000000000000e+02
2.080884306973861619e+00 -9.216991212922742704e-01 3.350000000000000000e+02
-3.112564853293096956e+00 3.877059657779916790e+00 3.360000000000000000e+02
-2.073875021239705685e+00 2.917307901965478845e+00 3.360000000000000000e+02
-1.035185189186313748e+00 1.957556146151040677e+00 3.360000000000000000e+02
3.504642867078050505e-03 9.978043903366023981e-01 3.360000000000000000e+02
1.042194474920469682e+00 3.805263452216411935e-02 3.360000000000000000e+02
2.080884306973861619e+00 -9.216991212922742704e-01 3.360000000000000000e+02
3.119574139027253334e+00 -1.881450877106712216e+00 3.360000000000000000e+02
-3.112564853293096956e+00 3.877059657779916790e+00 3.370000000000000000e+02
-2.073875021239705685e+00 2.917307901965478845e+00 3.370000000000000000e+02
-1.035185189186313748e+00 1.957556146151040677e+00 3.370000000000000000e+02
3.504642867078050505e-03 9.978043903366023981e-01 3.370000000000000000e+02
1.042194474920469682e+00 3.805263452216411935e-02 3.370000000000000000e+02
2.080884306973861619e+00 -9.216991212922742704e-01 3.370000000000000000e+02
3.119574139027253334e+00 -1.881450877106712216e+00 3.370000000000000000e+02
-3.112564853293096956e+00 3.877059657779916790e+00 3.380000000000000000e+02
-2.073875021239705685e+00 2.917307901965478845e+00 3.380000000000000000e+02
-1.035185189186313748e+00 1.957556146151040677e+00 3.380000000000000000e+02
3.504642867078050505e-03 9.978043903366023981e-01 3.380000000000000000e+02
1.042194474920469682e+00 3.805263452216411935e-02 3.380000000000000000e+02
2.080884306973861619e+00 -9.216991212922742704e-01 3.380000000000000000e+02
3.119574139027253334e+00 -1.881450877106712216e+00 3.380000000000000000e+02
-3.112564853293096956e+00 3.877059657779916790e+00 3.390000000000000000e+02
-2.073875021239705685e+00 2.917307901965478845e+00 3.390000000000000000e+02
-1.035185189186313748e+00 1.957556146151040677e+00 3.390000000000000000e+02
3.504642867078050505e-03 9.978043903366023981e-01 3.390000000000000000e+02
1.042194474920469682e+00 3.805263452216411935e-02 3.390000000000000000e+02
2.080884306973861619e+00 -9.216991212922742704e-01 3.390000000000000000e+02
3.119574139027253334e+00 -1.881450877106712216e+00 3.390000000000000000e+02
-3.112564853293096956e+00 3.877059657779916790e+00 3.400000000000000000e+02
-2.073875021239705685e+00 2.917307901965478845e+00 3.400000000000000000e+02
-1.035185189186313748e+00 1.957556146151040677e+00 3.400000000000000000e+02
3.504642867078050505e-03 9.978043903366023981e-01 3.400000000000000000e+02
1.042194474920469682e+00 3.805263452216411935e-02 3.400000000000000000e+02
2.080884306973861619e+00 -9.216991212922742704e-01 3.400000000000000000e+02
3.119574139027253334e+00 -1.881450877106712216e+00 3.400000000000000000e+02
-3.112564853293096956e+00 3.877059657779916790e+00 3.410000000000000000e+02
-2.073875021239705685e+00 2.917307901965478845e+00 3.410000000000000000e+02
-1.035185189186313748e+00 1.957556146151040677e+00 3.410000000000000000e+02
3.504642867078050505e-03 9.978043903366023981e-01 3.410000000000000000e+02
1.042194474920469682e+00 3.805263452216411935e-02 3.410000000000000000e+02
2.080884306973861619e+00 -9.216991212922742704e-01 3.410000000000000000e+02
3.119574139027253334e+00 -1.881450877106712216e+00 3.410000000000000000e+02
-3.112564853293096956e+00 3.877059657779916790e+00 3.420000000000000000e+02
-2.073875021239705685e+00 2.917307901965478845e+00 3.420000000000000000e+02
-1.035185189186313748e+00 1.957556146151040677e+00 3.420000000000000000e+02
3.504642867078050505e-03 9.978043903366023981e-01 3.420000000000000000e+02
1.042194474920469682e+00 3.805263452216411935e-02 3.420000000000000000e+02
2.080884306973861619e+00 -9.216991212922742704e-01 3.420000000000000000e+02
3.119574139027253334e+00 -1.881450877106712216e+00 3.420000000000000000e+02
-3.112564853293096956e+00 3.877059657779916790e+00 3.430000000000000000e+02
-2.073875021239705685e+00 2.917307901965478845e+00 3.430000000000000000e+02
-1.035185189186313748e+00 1.957556146151040677e+00 3.430000000000000000e+02
3.504642867078050505e-03 9.978043903366023981e-01 3.430000000000000000e+02
1.042194474920469682e+00 3.805263452216411935e-02 3.430000000000000000e+02
2.080884306973861619e+00 -9.216991212922742704e-01 3.430000000000000000e+02
3.119574139027253334e+00 -1.881450877106712216e+00 3.430000000000000000e+02
-3.112564853293096956e+00 3.877059657779916790e+00 3.440000000000000000e+02
-2.073875021239705685e+00 2.917307901965478845e+00 3.440000000000000000e+02
-1.035185189186313748e+00 1.957556146151040677e+00 3.440000000000000000e+02
3.504642867078050505e-03 9.978043903366023981e-01 3.440000000000000000e+02
1.042194474920469682e+00 3.805263452216411935e-02 3.440000000000000000e+02
2.080884306973861619e+00 -9.216991212922742704e-01 3.440000000000000000e+02
3.119574139027253334e+00 -1.881450877106712216e+00 3.440000000000000000e+02
-3.112564853293096956e+00 3.877059657779916790e+00 3.450000000000000000e+02
-2.073875021239705685e+00 2.917307901965478845e+00 3.450000000000000000e+02
-1.035185189186313748e+00 1.957556146151040677e+00 3.450000000000000000e+02
3.504642867078050505e-03 9.978043903366023981e-01 3.450000000000000000e+02
1.042194474920469682e+00 3.805263452216411935e-02 3.450000000000000000e+02
2.080884306973861619e+00 -9.216991212922742704e-01 3.450000000000000000e+02
3.119574139027253334e+00 -1.881450877106712216e+00 3.450000000000000000e+02
-3.112564853293096956e+00 3.877059657779916790e+00 3.460000000000000000e+02
-2.073875021239705685e+00 2.917307901965478845e+00 3.460000000000000000e+02
-1.035185189186313748e+00 1.957556146151040677e+00 3.460000000000000000e+02
3.504642867078050505e-03 9.978043903366023981e-01 3.460000000000000000e+02
1.042194474920469682e+00 3.805263452216411935e-02 3.460000000000000000e+02
2.080884306973861619e+00 -9.216991212922742704e-01 3.460000000000000000e+02
3.119574139027253334e+00 -1.881450877106712216e+00 3.460000000000000000e+02
-3.112564853293096956e+00 3.877059657779916790e+00 3.470000000000000000e+02
-2.073875021239705685e+00 2.917307901965478845e+00 3.470000000000000000e+02
-1.035185189186313748e+00 1.957556146151040677e+00 3.470000000000000000e+02
3.504642867078050505e-03 9.978043903366023981e-01 3.470000000000000000e+02
1.042194474920469682e+00 3.805263452216411935e-02 3.470000000000000000e+02
2.080884306973861619e+00 -9.216991212922742704e-01 3.470000000000000000e+02
3.119574139027253334e+00 -1.881450877106712216e+00 3.470000000000000000e+02
-3.112564853293096956e+00 3.877059657779916790e+00 3.480000000000000000e+02
-2.073875021239705685e+00 2.917307901965478845e+00 3.480000000000000000e+02
-1.035185189186313748e+00 1.957556146151040677e+00 3.480000000000000000e+02
3.504642867078050505e-03 9.978043903366023981e-01 3.480000000000000000e+02
1.042194474920469682e+00 3.805263452216411935e-02 3.480000000000000000e+02
2.080884306973861619e+00 -9.216991212922742704e-01 3.480000000000000000e+02
3.119574139027253334e+00 -1.881450877106712216e+00 3.480000000000000000e+02
-3.112564853293096956e+00 3.877059657779916790e+00 3.490000000000000000e+02
-2.073875021239705685e+00 2.917307901965478845e+00 3.490000000000000000e+02
-1.035185189186313748e+00 1.957556146151040677e+00 3.490000000000000000e+02
3.504642867078050505e-03 9.978043903366023981e-01 3.490000000000000000e+02
1.042194474920469682e+00 3.805263452216411935e-02 3.490000000000000000e+02
2.080884306973861619e+00 -9.216991212922742704e-01 3.490000000000000000e+02
3.119574139027253334e+00 -1.881450877106712216e+00 3.490000000000000000e+02
-3.112564853293096956e+00 3.877059657779916790e+00 3.500000000000000000e+02
-2.073875021239705685e+00 2.917307901965478845e+00 3.500000000000000000e+02
-1.035185189186313748e+00 1.957556146151040677e+00 3.500000000000000000e+02
3.504642867078050505e-03 9.978043903366023981e-01 3.500000000000000000e+02
1.042194474920469682e+00 3.805263452216411935e-02 3.500000000000000000e+02
2.080884306973861619e+00 -9.216991212922742704e-01 3.500000000000000000e+02
3.119574139027253334e+00 -1.881450877106712216e+00 3.500000000000000000e+02
-3.112564853293096956e+00 3.877059657779916790e+00 3.510000000000000000e+02
-2.073875021239705685e+00 2.917307901965478845e+00 3.510000000000000000e+02
-1.035185189186313748e+00 1.957556146151040677e+00 3.510000000000000000e+02
3.504642867078050505e-03 9.978043903366023981e-01 3.510000000000000000e+02
1.042194474920469682e+00 3.805263452216411935e-02 3.510000000000000000e+02
2.080884306973861619e+00 -9.216991212922742704e-01 3.510000000000000000e+02
3.119574139027253334e+00 -1.881450877106712216e+00 3.510000000000000000e+02
-3.112564853293096956e+00 3.877059657779916790e+00 3.520000000000000000e+02
-2.073875021239705685e+00 2.917307901965478845e+00 3.520000000000000000e+02
-1.035185189186313748e+00 1.957556146151040677e+00 3.520000000000000000e+02
3.504642867078050505e-03 9.978043903366023981e-01 3.520000000000000000e+02
1.042194474920469682e+00 3.805263452216411935e-02 3.520000000000000000e+02
2.080884306973861619e+00 -9.216991212922742704e-01 3.520000000000000000e+02
3.119574139027253334e+00 -1.881450877106712216e+00 3.520000000000000000e+02
-3.112564853293096956e+00 3.877059657779916790e+00 3.530000000000000000e+02
-2.073875021239705685e+00 2.917307901965478845e+00 3.530000000000000000e+02
-1.035185189186313748e+00 1.957556146151040677e+00 3.530000000000000000e+02
3.504642867078050505e-03 9.978043903366023981e-01 3.530000000000000000e+02
1.042194474920469682e+00 3.805263452216411935e-02 3.530000000000000000e+02
2.080884306973861619e+00 -9.216991212922742704e-01 3.530000000000000000e+02
3.119574139027253334e+00 -1.881450877106712216e+00 3.530000000000000000e+02
-3.112564853293096956e+00 3.877059657779916790e+00 3.540000000000000000e+02
-2.073875021239705685e+00 2.917307901965478845e+00 3.540000000000000000e+02
-1.035185189186313748e+00 1.957556146151040677e+00 3.540000000000000000e+02
3.504642867078050505e-03 9.978043903366023981e-01 3.540000000000000000e+02
1.042194474920469682e+00 3.805263452216411935e-02 3.540000000000000000e+02
2.080884306973861619e+00 -9.216991212922742704e-01 3.540000000000000000e+02
3.119574139027253334e+00 -1.881450877106712216e+00 3.540000000000000000e+02
-3.112564853293096956e+00 3.877059657779916790e+00 3.550000000000000000e+02
-2.073875021239705685e+00 2.917307901965478845e+00 3.550000000000000000e+02
-1.035185189186313748e+00 1.957556146151040677e+00 3.550000000000000000e+02
3.504642867078050505e-03 9.978043903366023981e-01 3.550000000000000000e+02
1.042194474920469682e+00 3.805263452216411935e-02 3.550000000000000000e+02
2.080884306973861619e+00 -9.216991212922742704e-01 3.550000000000000000e+02
3.119574139027253334e+00 -1.881450877106712216e+00 3.550000000000000000e+02
-3.112564853293096956e+00 3.877059657779916790e+00 3.560000000000000000e+02
-2.073875021239705685e+00 2.917307901965478845e+00 3.560000000000000000e+02
-1.035185189186313748e+00 1.957556146151040677e+00 3.560000000000000000e+02
3.504642867078050505e-03 9.978043903366023981e-01 3.560000000000000000e+02
1.042194474920469682e+00 3.805263452216411935e-02 3.560000000000000000e+02
2.080884306973861619e+00 -9.216991212922742704e-01 3.560000000000000000e+02
3.119574139027253334e+00 -1.881450877106712216e+00 3.560000000000000000e+02
-3.112564853293096956e+00 3.877059657779916790e+00 3.570000000000000000e+02
-2.073875021239705685e+00 2.917307901965478845e+00 3.570000000000000000e+02
-1.035185189186313748e+00 1.957556146151040677e+00 3.570000000000000000e+02
3.504642867078050505e-03 9.978043903366023981e-01 3.570000000000000000e+02
1.042194474920469682e+00 3.805263452216411935e-02 3.570000000000000000e+02
2.080884306973861619e+00 -9.216991212922742704e-01 3.570000000000000000e+02
3.119574139027253334e+00 -1.881450877106712216e+00 3.570000000000000000e+02
4.158263971080645049e+00 -2.841202632921149718e+00 3.570000000000000000e+02
-3.112564853293096956e+00 3.877059657779916790e+00 3.580000000000000000e+02
-2.073875021239705685e+00 2.917307901965478845e+00 3.580000000000000000e+02
-1.035185189186313748e+00 1.957556146151040677e+00 3.580000000000000000e+02
3.504642867078050505e-03 9.978043903366023981e-01 3.580000000000000000e+02
1.042194474920469682e+00 3.805263452216411935e-02 3.580000000000000000e+02
2.080884306973861619e+00 -9.216991212922742704e-01 3.580000000000000000e+02
3.119574139027253334e+00 -1.881450877106712216e+00 3.580000000000000000e+02
4.158263971080645049e+00 -2.841202632921149718e+00 3.580000000000000000e+02
-3.112564853293096956e+00 3.877059657779916790e+00 3.590000000000000000e+02
-2.073875021239705685e+00 2.917307901965478845e+00 3.590000000000000000e+02
-1.035185189186313748e+00 1.957556146151040677e+00 3.590000000000000000e+02
3.504642867078050505e-03 9.978043903366023981e-01 3.590000000000000000e+02
1.042194474920469682e+00 3.805263452216411935e-02 3.590000000000000000e+02
2.080884306973861619e+00 -9.216991212922742704e-01 3.590000000000000000e+02
3.119574139027253334e+00 -1.881450877106712216e+00 3.590000000000000000e+02
4.158263971080645049e+00 -2.841202632921149718e+00 3.590000000000000000e+02
-3.112564853293096956e+00 3.877059657779916790e+00 3.600000000000000000e+02
-2.073875021239705685e+00 2.917307901965478845e+00 3.600000000000000000e+02
-1.035185189186313748e+00 1.957556146151040677e+00 3.600000000000000000e+02
3.504642867078050505e-03 9.978043903366023981e-01 3.600000000000000000e+02
1.042194474920469682e+00 3.805263452216411935e-02 3.600000000000000000e+02
2.080884306973861619e+00 -9.216991212922742704e-01 3.600000000000000000e+02
3.119574139027253334e+00 -1.881450877106712216e+00 3.600000000000000000e+02
4.158263971080645049e+00 -2.841202632921149718e+00 3.600000000000000000e+02
-3.112564853293096956e+00 3.877059657779916790e+00 3.610000000000000000e+02
-2.073875021239705685e+00 2.917307901965478845e+00 3.610000000000000000e+02
-1.035185189186313748e+00 1.957556146151040677e+00 3.610000000000000000e+02
3.504642867078050505e-03 9.978043903366023981e-01 3.610000000000000000e+02
1.042194474920469682e+00 3.805263452216411935e-02 3.610000000000000000e+02
2.080884306973861619e+00 -9.216991212922742704e-01 3.610000000000000000e+02
3.119574139027253334e+00 -1.881450877106712216e+00 3.610000000000000000e+02
4.158263971080645049e+00 -2.841202632921149718e+00 3.610000000000000000e+02
-3.112564853293096956e+00 3.877059657779916790e+00 3.620000000000000000e+02
-2.073875021239705685e+00 2.917307901965478845e+00 3.620000000000000000e+02
-1.035185189186313748e+00 1.957556146151040677e+00 3.620000000000000000e+02
3.504642867078050505e-03 9.978043903366023981e-01 3.620000000000000000e+02
1.042194474920469682e+00 3.805263452216411935e-02 3.620000000000000000e+02
2.080884306973861619e+00 -9.216991212922742704e-01 3.620000000000000000e+02
3.119574139027253334e+00 -1.881450877106712216e+00 3.620000000000000000e+02
4.158263971080645049e+00 -2.841202632921149718e+00 3.620000000000000000e+02
-3.112564853293096956e+00 3.877059657779916790e+00 3.630000000000000000e+02
-2.073875021239705685e+00 2.917307901965478845e+00 3.630000000000000000e+02
-1.035185189186313748e+00 1.957556146151040677e+00 3.630000000000000000e+02
3.504642867078050505e-03 9.978043903366023981e-01 3.630000000000000000e+02
1.042194474920469682e+00 3.805263452216411935e-02 3.630000000000000000e+02
2.080884306973861619e+00 -9.216991212922742704e-01 3.630000000000000000e+02
3.119574139027253334e+00 -1.881450877106712216e+00 3.630000000000000000e+02
-3.112564853293096956e+00 3.877059657779916790e+00 3.640000000000000000e+02
-2.073875021239705685e+00 2.917307901965478845e+00 3.640000000000000000e+02
-1.035185189186313748e+00 1.957556146151040677e+00 3.640000000000000000e+02
3.504642867078050505e-03 9.978043903366023981e-01 3.640000000000000000e+02
1.042194474920469682e+00 3.805263452216411935e-02 3.640000000000000000e+02
2.080884306973861619e+00 -9.216991212922742704e-01 3.640000000000000000e+02
3.119574139027253334e+00 -1.881450877106712216e+00 3.640000000000000000e+02
-3.112564853293096956e+00 3.877059657779916790e+00 3.650000000000000000e+02
-2.073875021239705685e+00 2.917307901965478845e+00 3.650000000000000000e+02
-1.035185189186313748e+00 1.957556146151040677e+00 3.650000000000000000e+02
3.504642867078050505e-03 9.978043903366023981e-01 3.650000000000000000e+02
1.042194474920469682e+00 3.805263452216411935e-02 3.650000000000000000e+02
2.080884306973861619e+00 -9.216991212922742704e-01 3.650000000000000000e+02
-3.112564853293096956e+00 3.877059657779916790e+00 3.660000000000000000e+02
-2.073875021239705685e+00 2.917307901965478845e+00 3.660000000000000000e+02
-1.035185189186313748e+00 1.957556146151040677e+00 3.660000000000000000e+02
3.504642867078050505e-03 9.978043903366023981e-01 3.660000000000000000e+02
1.042194474920469682e+00 3.805263452216411935e-02 3.660000000000000000e+02
2.080884306973861619e+00 -9.216991212922742704e-01 3.660000000000000000e+02
3.119574139027253334e+00 -1.881450877106712216e+00 3.660000000000000000e+02
-3.112564853293096956e+00 3.877059657779916790e+00 3.670000000000000000e+02
-2.073875021239705685e+00 2.917307901965478845e+00 3.670000000000000000e+02
-1.035185189186313748e+00 1.957556146151040677e+00 3.670000000000000000e+02
3.504642867078050505e-03 9.978043903366023981e-01 3.670000000000000000e+02
1.042194474920469682e+00 3.805263452216411935e-02 3.670000000000000000e+02
2.080884306973861619e+00 -9.216991212922742704e-01 3.670000000000000000e+02
3.119574139027253334e+00 -1.881450877106712216e+00 3.670000000000000000e+02
-3.112564853293096956e+00 3.877059657779916790e+00 3.680000000000000000e+02
-2.073875021239705685e+00 2.917307901965478845e+00 3.680000000000000000e+02
-1.035185189186313748e+00 1.957556146151040677e+00 3.680000000000000000e+02
3.504642867078050505e-03 9.978043903366023981e-01 3.680000000000000000e+02
1.042194474920469682e+00 3.805263452216411935e-02 3.680000000000000000e+02
2.080884306973861619e+00 -9.216991212922742704e-01 3.680000000000000000e+02
3.119574139027253334e+00 -1.881450877106712216e+00 3.680000000000000000e+02
-3.112564853293096956e+00 3.877059657779916790e+00 3.690000000000000000e+02
-2.073875021239705685e+00 2.917307901965478845e+00 3.690000000000000000e+02
-1.035185189186313748e+00 1.957556146151040677e+00 3.690000000000000000e+02
3.504642867078050505e-03 9.978043903366023981e-01 3.690000000000000000e+02
1.042194474920469682e+00 3.805263452216411935e-02 3.690000000000000000e+02
2.080884306973861619e+00 -9.216991212922742704e-01 3.690000000000000000e+02
3.119574139027253334e+00 -1.881450877106712216e+00 3.690000000000000000e+02
-3.112564853293096956e+00 3.877059657779916790e+00 3.700000000000000000e+02
-2.073875021239705685e+00 2.917307901965478845e+00 3.700000000000000000e+02
-1.035185189186313748e+00 1.957556146151040677e+00 3.700000000000000000e+02
3.504642867078050505e-03 9.978043903366023981e-01 3.700000000000000000e+02
1.042194474920469682e+00 3.805263452216411935e-02 3.700000000000000000e+02
2.080884306973861619e+00 -9.216991212922742704e-01 3.700000000000000000e+02
3.119574139027253334e+00 -1.881450877106712216e+00 3.700000000000000000e+02
-3.112564853293096956e+00 3.877059657779916790e+00 3.710000000000000000e+02
-2.073875021239705685e+00 2.917307901965478845e+00 3.710000000000000000e+02
-1.035185189186313748e+00 1.957556146151040677e+00 3.710000000000000000e+02
3.504642867078050505e-03 9.978043903366023981e-01 3.710000000000000000e+02
1.042194474920469682e+00 3.805263452216411935e-02 3.710000000000000000e+02
2.080884306973861619e+00 -9.216991212922742704e-01 3.710000000000000000e+02
3.119574139027253334e+00 -1.881450877106712216e+00 3.710000000000000000e+02
-3.112564853293096956e+00 3.877059657779916790e+00 3.720000000000000000e+02
-2.073875021239705685e+00 2.917307901965478845e+00 3.720000000000000000e+02
-1.035185189186313748e+00 1.957556146151040677e+00 3.720000000000000000e+02
3.504642867078050505e-03 9.978043903366023981e-01 3.720000000000000000e+02
1.042194474920469682e+00 3.805263452216411935e-02 3.720000000000000000e+02
2.080884306973861619e+00 -9.216991212922742704e-01 3.720000000000000000e+02
3.119574139027253334e+00 -1.881450877106712216e+00 3.720000000000000000e+02
-3.112564853293096956e+00 3.877059657779916790e+00 3.730000000000000000e+02
-2.073875021239705685e+00 2.917307901965478845e+00 3.730000000000000000e+02
-1.035185189186313748e+00 1.957556146151040677e+00 3.730000000000000000e+02
3.504642867078050505e-03 9.978043903366023981e-01 3.730000000000000000e+02
1.042194474920469682e+00 3.805263452216411935e-02 3.730000000000000000e+02
2.080884306973861619e+00 -9.216991212922742704e-01 3.730000000000000000e+02
3.119574139027253334e+00 -1.881450877106712216e+00 3.730000000000000000e+02
-3.112564853293096956e+00 3.877059657779916790e+00 3.740000000000000000e+02
-2.073875021239705685e+00 2.917307901965478845e+00 3.740000000000000000e+02
-1.035185189186313748e+00 1.957556146151040677e+00 3.740000000000000000e+02
3.504642867078050505e-03 9.978043903366023981e-01 3.740000000000000000e+02
1.042194474920469682e+00 3.805263452216411935e-02 3.740000000000000000e+02
2.080884306973861619e+00 -9.216991212922742704e-01 3.740000000000000000e+02
3.119574139027253334e+00 -1.881450877106712216e+00 3.740000000000000000e+02
-3.112564853293096956e+00 3.877059657779916790e+00 3.750000000000000000e+02
-2.073875021239705685e+00 2.917307901965478845e+00 3.750000000000000000e+02
-1.035185189186313748e+00 1.957556146151040677e+00 3.750000000000000000e+02
3.504642867078050505e-03 9.978043903366023981e-01 3.750000000000000000e+02
1.042194474920469682e+00 3.805263452216411935e-02 3.750000000000000000e+02
2.080884306973861619e+00 -9.216991212922742704e-01 3.750000000000000000e+02
3.119574139027253334e+00 -1.881450877106712216e+00 3.750000000000000000e+02
-3.112564853293096956e+00 3.877059657779916790e+00 3.760000000000000000e+02
-2.073875021239705685e+00 2.917307901965478845e+00 3.760000000000000000e+02
-1.035185189186313748e+00 1.957556146151040677e+00 3.760000000000000000e+02
3.504642867078050505e-03 9.978043903366023981e-01 3.760000000000000000e+02
1.042194474920469682e+00 3.805263452216411935e-02 3.760000000000000000e+02
2.080884306973861619e+00 -9.216991212922742704e-01 3.760000000000000000e+02
3.119574139027253334e+00 -1.881450877106712216e+00 3.760000000000000000e+02
-3.112564853293096956e+00 3.877059657779916790e+00 3.770000000000000000e+02
-2.073875021239705685e+00 2.917307901965478845e+00 3.770000000000000000e+02
-1.035185189186313748e+00 1.957556146151040677e+00 3.770000000000000000e+02
3.504642867078050505e-03 9.978043903366023981e-01 3.770000000000000000e+02
1.042194474920469682e+00 3.805263452216411935e-02 3.770000000000000000e+02
2.080884306973861619e+00 -9.216991212922742704e-01 3.770000000000000000e+02
3.119574139027253334e+00 -1.881450877106712216e+00 3.770000000000000000e+02
-3.112564853293096956e+00 3.877059657779916790e+00 3.780000000000000000e+02
-2.073875021239705685e+00 2.917307901965478845e+00 3.780000000000000000e+02
-1.035185189186313748e+00 1.957556146151040677e+00 3.780000000000000000e+02
3.504642867078050505e-03 9.978043903366023981e-01 3.780000000000000000e+02
1.042194474920469682e+00 3.805263452216411935e-02 3.780000000000000000e+02
2.080884306973861619e+00 -9.216991212922742704e-01 3.780000000000000000e+02
3.119574139027253334e+00 -1.881450877106712216e+00 3.780000000000000000e+02
-3.112564853293096956e+00 3.877059657779916790e+00 3.790000000000000000e+02
-2.073875021239705685e+00 2.917307901965478845e+00 3.790000000000000000e+02
-1.035185189186313748e+00 1.957556146151040677e+00 3.790000000000000000e+02
3.504642867078050505e-03 9.978043903366023981e-01 3.790000000000000000e+02
1.042194474920469682e+00 3.805263452216411935e-02 3.790000000000000000e+02
2.080884306973861619e+00 -9.216991212922742704e-01 3.790000000000000000e+02
3.119574139027253334e+00 -1.881450877106712216e+00 3.790000000000000000e+02
-3.112564853293096956e+00 3.877059657779916790e+00 3.800000000000000000e+02
-2.073875021239705685e+00 2.917307901965478845e+00 3.800000000000000000e+02
-1.035185189186313748e+00 1.957556146151040677e+00 3.800000000000000000e+02
3.504642867078050505e-03 9.978043903366023981e-01 3.800000000000000000e+02
1.042194474920469682e+00 3.805263452216411935e-02 3.800000000000000000e+02
2.080884306973861619e+00 -9.216991212922742704e-01 3.800000000000000000e+02
-3.112564853293096956e+00 3.877059657779916790e+00 3.810000000000000000e+02
-2.073875021239705685e+00 2.917307901965478845e+00 3.810000000000000000e+02
-1.035185189186313748e+00 1.957556146151040677e+00 3.810000000000000000e+02
3.504642867078050505e-03 9.978043903366023981e-01 3.810000000000000000e+02
1.042194474920469682e+00 3.805263452216411935e-02 3.810000000000000000e+02
2.080884306973861619e+00 -9.216991212922742704e-01 3.810000000000000000e+02
-3.112564853293096956e+00 3.877059657779916790e+00 3.820000000000000000e+02
-2.073875021239705685e+00 2.917307901965478845e+00 3.820000000000000000e+02
-1.035185189186313748e+00 1.957556146151040677e+00 3.820000000000000000e+02
3.504642867078050505e-03 9.978043903366023981e-01 3.820000000000000000e+02
1.042194474920469682e+00 3.805263452216411935e-02 3.820000000000000000e+02
2.080884306973861619e+00 -9.216991212922742704e-01 3.820000000000000000e+02
3.119574139027253334e+00 -1.881450877106712216e+00 3.820000000000000000e+02
-3.112564853293096956e+00 3.877059657779916790e+00 3.830000000000000000e+02
-2.073875021239705685e+00 2.917307901965478845e+00 3.830000000000000000e+02
-1.035185189186313748e+00 1.957556146151040677e+00 3.830000000000000000e+02
3.504642867078050505e-03 9.978043903366023981e-01 3.830000000000000000e+02
1.042194474920469682e+00 3.805263452216411935e-02 3.830000000000000000e+02
2.080884306973861619e+00 -9.216991212922742704e-01 3.830000000000000000e+02
3.119574139027253334e+00 -1.881450877106712216e+00 3.830000000000000000e+02
-3.112564853293096956e+00 3.877059657779916790e+00 3.840000000000000000e+02
-2.073875021239705685e+00 2.917307901965478845e+00 3.840000000000000000e+02
-1.035185189186313748e+00 1.957556146151040677e+00 3.840000000000000000e+02
3.504642867078050505e-03 9.978043903366023981e-01 3.840000000000000000e+02
1.042194474920469682e+00 3.805263452216411935e-02 3.840000000000000000e+02
2.080884306973861619e+00 -9.216991212922742704e-01 3.840000000000000000e+02
3.119574139027253334e+00 -1.881450877106712216e+00 3.840000000000000000e+02
-3.112564853293096956e+00 3.877059657779916790e+00 3.850000000000000000e+02
-2.073875021239705685e+00 2.917307901965478845e+00 3.850000000000000000e+02
-1.035185189186313748e+00 1.957556146151040677e+00 3.850000000000000000e+02
3.504642867078050505e-03 9.978043903366023981e-01 3.850000000000000000e+02
1.042194474920469682e+00 3.805263452216411935e-02 3.850000000000000000e+02
2.080884306973861619e+00 -9.216991212922742704e-01 3.850000000000000000e+02
3.119574139027253334e+00 -1.881450877106712216e+00 3.850000000000000000e+02
-3.112564853293096956e+00 3.877059657779916790e+00 3.860000000000000000e+02
-2.073875021239705685e+00 2.917307901965478845e+00 3.860000000000000000e+02
-1.035185189186313748e+00 1.957556146151040677e+00 3.860000000000000000e+02
3.504642867078050505e-03 9.978043903366023981e-01 3.860000000000000000e+02
1.042194474920469682e+00 3.805263452216411935e-02 3.860000000000000000e+02
2.080884306973861619e+00 -9.216991212922742704e-01 3.860000000000000000e+02
3.119574139027253334e+00 -1.881450877106712216e+00 3.860000000000000000e+02
-3.112564853293096956e+00 3.877059657779916790e+00 3.870000000000000000e+02
-2.073875021239705685e+00 2.917307901965478845e+00 3.870000000000000000e+02
-1.035185189186313748e+00 1.957556146151040677e+00 3.870000000000000000e+02
3.504642867078050505e-03 9.978043903366023981e-01 3.870000000000000000e+02
1.042194474920469682e+00 3.805263452216411935e-02 3.870000000000000000e+02
2.080884306973861619e+00 -9.216991212922742704e-01 3.870000000000000000e+02
3.119574139027253334e+00 -1.881450877106712216e+00 3.870000000000000000e+02
-3.112564853293096956e+00 3.877059657779916790e+00 3.880000000000000000e+02
-2.073875021239705685e+00 2.917307901965478845e+00 3.880000000000000000e+02
-1.035185189186313748e+00 1.957556146151040677e+00 3.880000000000000000e+02
3.504642867078050505e-03 9.978043903366023981e-01 3.880000000000000000e+02
1.042194474920469682e+00 3.805263452216411935e-02 3.880000000000000000e+02
2.080884306973861619e+00 -9.216991212922742704e-01 3.880000000000000000e+02
3.119574139027253334e+00 -1.881450877106712216e+00 3.880000000000000000e+02
-3.112564853293096956e+00 3.877059657779916790e+00 3.890000000000000000e+02
-2.073875021239705685e+00 2.917307901965478845e+00 3.890000000000000000e+02
-1.035185189186313748e+00 1.957556146151040677e+00 3.890000000000000000e+02
3.504642867078050505e-03 9.978043903366023981e-01 3.890000000000000000e+02
1.042194474920469682e+00 3.805263452216411935e-02 3.890000000000000000e+02
2.080884306973861619e+00 -9.216991212922742704e-01 3.890000000000000000e+02
3.119574139027253334e+00 -1.881450877106712216e+00 3.890000000000000000e+02
-3.112564853293096956e+00 3.877059657779916790e+00 3.900000000000000000e+02
-2.073875021239705685e+00 2.917307901965478845e+00 3.900000000000000000e+02
-1.035185189186313748e+00 1.957556146151040677e+00 3.900000000000000000e+02
3.504642867078050505e-03 9.978043903366023981e-01 3.900000000000000000e+02
1.042194474920469682e+00 3.805263452216411935e-02 3.900000000000000000e+02
2.080884306973861619e+00 -9.216991212922742704e-01 3.900000000000000000e+02
3.119574139027253334e+00 -1.881450877106712216e+00 3.900000000000000000e+02
-3.112564853293096956e+00 3.877059657779916790e+00 3.910000000000000000e+02
-2.073875021239705685e+00 2.917307901965478845e+00 3.910000000000000000e+02
-1.035185189186313748e+00 1.957556146151040677e+00 3.910000000000000000e+02
3.504642867078050505e-03 9.978043903366023981e-01 3.910000000000000000e+02
1.042194474920469682e+00 3.805263452216411935e-02 3.910000000000000000e+02
2.080884306973861619e+00 -9.216991212922742704e-01 3.910000000000000000e+02
3.119574139027253334e+00 -1.881450877106712216e+00 3.910000000000000000e+02
-3.112564853293096956e+00 3.877059657779916790e+00 3.920000000000000000e+02
-2.073875021239705685e+00 2.917307901965478845e+00 3.920000000000000000e+02
-1.035185189186313748e+00 1.957556146151040677e+00 3.920000000000000000e+02
3.504642867078050505e-03 9.978043903366023981e-01 3.920000000000000000e+02
1.042194474920469682e+00 3.805263452216411935e-02 3.920000000000000000e+02
2.080884306973861619e+00 -9.216991212922742704e-01 3.920000000000000000e+02
3.119574139027253334e+00 -1.881450877106712216e+00 3.920000000000000000e+02
4.158263971080645049e+00 -2.841202632921149718e+00 3.920000000000000000e+02
-3.112564853293096956e+00 3.877059657779916790e+00 3.930000000000000000e+02
-2.073875021239705685e+00 2.917307901965478845e+00 3.930000000000000000e+02
-1.035185189186313748e+00 1.957556146151040677e+00 3.930000000000000000e+02
3.504642867078050505e-03 9.978043903366023981e-01 3.930000000000000000e+02
1.042194474920469682e+00 3.805263452216411935e-02 3.930000000000000000e+02
2.080884306973861619e+00 -9.216991212922742704e-01 3.930000000000000000e+02
3.119574139027253334e+00 -1.881450877106712216e+00 3.930000000000000000e+02
4.158263971080645049e+00 -2.841202632921149718e+00 3.930000000000000000e+02
-3.112564853293096956e+00 3.877059657779916790e+00 3.940000000000000000e+02
-2.073875021239705685e+00 2.917307901965478845e+00 3.940000000000000000e+02
-1.035185189186313748e+00 1.957556146151040677e+00 3.940000000000000000e+02
3.504642867078050505e-03 9.978043903366023981e-01 3.940000000000000000e+02
