5.659293859152692008e+00 -1.151251670794189863e+01 3.660000000000000000e+02
5.565360134887470167e+00 -1.010142618800858827e+01 3.660000000000000000e+02
5.471426410622246550e+00 -8.690335668075276132e+00 3.660000000000000000e+02
5.377492686357024709e+00 -7.279245148141963995e+00 3.660000000000000000e+02
5.283558962091801092e+00 -5.868154628208651857e+00 3.660000000000000000e+02
5.189625237826578363e+00 -4.457064108275339720e+00 3.660000000000000000e+02
5.095691513561355634e+00 -3.045973588342027583e+00 3.660000000000000000e+02
5.001757789296132906e+00 -1.634883068408715445e+00 3.660000000000000000e+02
4.907824065030910177e+00 -2.237925484754041960e-01 3.660000000000000000e+02
4.813890340765686560e+00 1.187297971457907941e+00 3.660000000000000000e+02
4.719956616500464719e+00 2.598388491391220079e+00 3.660000000000000000e+02
5.659293859152692008e+00 -1.151251670794189863e+01 3.670000000000000000e+02
5.565360134887470167e+00 -1.010142618800858827e+01 3.670000000000000000e+02
5.471426410622246550e+00 -8.690335668075276132e+00 3.670000000000000000e+02
5.377492686357024709e+00 -7.279245148141963995e+00 3.670000000000000000e+02
5.283558962091801092e+00 -5.868154628208651857e+00 3.670000000000000000e+02
5.189625237826578363e+00 -4.457064108275339720e+00 3.670000000000000000e+02
5.095691513561355634e+00 -3.045973588342027583e+00 3.670000000000000000e+02
5.001757789296132906e+00 -1.634883068408715445e+00 3.670000000000000000e+02
4.907824065030910177e+00 -2.237925484754041960e-01 3.670000000000000000e+02
4.813890340765686560e+00 1.187297971457907941e+00 3.670000000000000000e+02
5.659293859152692008e+00 -1.151251670794189863e+01 3.680000000000000000e+02
5.565360134887470167e+00 -1.010142618800858827e+01 3.680000000000000000e+02
5.471426410622246550e+00 -8.690335668075276132e+00 3.680000000000000000e+02
5.377492686357024709e+00 -7.279245148141963995e+00 3.680000000000000000e+02
5.283558962091801092e+00 -5.868154628208651857e+00 3.680000000000000000e+02
5.189625237826578363e+00 -4.457064108275339720e+00 3.680000000000000000e+02
5.095691513561355634e+00 -3.045973588342027583e+00 3.680000000000000000e+02
5.001757789296132906e+00 -1.634883068408715445e+00 3.680000000000000000e+02
4.907824065030910177e+00 -2.237925484754041960e-01 3.680000000000000000e+02
4.813890340765686560e+00 1.187297971457907941e+00 3.680000000000000000e+02
5.659293859152692008e+00 -1.151251670794189863e+01 3.690000000000000000e+02
5.565360134887470167e+00 -1.010142618800858827e+01 3.690000000000000000e+02
5.471426410622246550e+00 -8.690335668075276132e+00 3.690000000000000000e+02
5.377492686357024709e+00 -7.279245148141963995e+00 3.690000000000000000e+02
5.283558962091801092e+00 -5.868154628208651857e+00 3.690000000000000000e+02
5.189625237826578363e+00 -4.457064108275339720e+00 3.690000000000000000e+02
5.095691513561355634e+00 -3.045973588342027583e+00 3.690000000000000000e+02
5.001757789296132906e+00 -1.634883068408715445e+00 3.690000000000000000e+02
4.907824065030910177e+00 -2.237925484754041960e-01 3.690000000000000000e+02
4.813890340765686560e+00 1.187297971457907941e+00 3.690000000000000000e+02
5.659293859152692008e+00 -1.151251670794189863e+01 3.700000000000000000e+02
5.565360134887470167e+00 -1.010142618800858827e+01 3.700000000000000000e+02
5.471426410622246550e+00 -8.690335668075276132e+00 3.700000000000000000e+02
5.377492686357024709e+00 -7.279245148141963995e+00 3.700000000000000000e+02
5.283558962091801092e+00 -5.868154628208651857e+00 3.700000000000000000e+02
5.189625237826578363e+00 -4.457064108275339720e+00 3.700000000000000000e+02
5.095691513561355634e+00 -3.045973588342027583e+00 3.700000000000000000e+02
5.001757789296132906e+00 -1.634883068408715445e+00 3.700000000000000000e+02
4.907824065030910177e+00 -2.237925484754041960e-01 3.700000000000000000e+02
4.813890340765686560e+00 1.187297971457907941e+00 3.700000000000000000e+02
5.659293859152692008e+00 -1.151251670794189863e+01 3.710000000000000000e+02
5.565360134887470167e+00 -1.010142618800858827e+01 3.710000000000000000e+02
5.471426410622246550e+00 -8.690335668075276132e+00 3.710000000000000000e+02
5.377492686357024709e+00 -7.279245148141963995e+00 3.710000000000000000e+02
5.283558962091801092e+00 -5.868154628208651857e+00 3.710000000000000000e+02
5.189625237826578363e+00 -4.457064108275339720e+00 3.710000000000000000e+02
5.095691513561355634e+00 -3.045973588342027583e+00 3.710000000000000000e+02
5.001757789296132906e+00 -1.634883068408715445e+00 3.710000000000000000e+02
4.907824065030910177e+00 -2.237925484754041960e-01 3.710000000000000000e+02
4.813890340765686560e+00 1.187297971457907941e+00 3.710000000000000000e+02
4.719956616500464719e+00 2.598388491391220079e+00 3.710000000000000000e+02
5.659293859152692008e+00 -1.151251670794189863e+01 3.720000000000000000e+02
5.565360134887470167e+00 -1.010142618800858827e+01 3.720000000000000000e+02
5.471426410622246550e+00 -8.690335668075276132e+00 3.720000000000000000e+02
5.377492686357024709e+00 -7.279245148141963995e+00 3.720000000000000000e+02
5.283558962091801092e+00 -5.868154628208651857e+00 3.720000000000000000e+02
5.189625237826578363e+00 -4.457064108275339720e+00 3.720000000000000000e+02
5.095691513561355634e+00 -3.045973588342027583e+00 3.720000000000000000e+02
5.001757789296132906e+00 -1.634883068408715445e+00 3.720000000000000000e+02
4.907824065030910177e+00 -2.237925484754041960e-01 3.720000000000000000e+02
4.813890340765686560e+00 1.187297971457907941e+00 3.720000000000000000e+02
4.719956616500464719e+00 2.598388491391220079e+00 3.720000000000000000e+02
5.659293859152692008e+00 -1.151251670794189863e+01 3.730000000000000000e+02
5.565360134887470167e+00 -1.010142618800858827e+01 3.730000000000000000e+02
5.471426410622246550e+00 -8.690335668075276132e+00 3.730000000000000000e+02
5.377492686357024709e+00 -7.279245148141963995e+00 3.730000000000000000e+02
5.283558962091801092e+00 -5.868154628208651857e+00 3.730000000000000000e+02
5.189625237826578363e+00 -4.457064108275339720e+00 3.730000000000000000e+02
5.095691513561355634e+00 -3.045973588342027583e+00 3.730000000000000000e+02
5.001757789296132906e+00 -1.634883068408715445e+00 3.730000000000000000e+02
4.907824065030910177e+00 -2.237925484754041960e-01 3.730000000000000000e+02
4.813890340765686560e+00 1.187297971457907941e+00 3.730000000000000000e+02
4.719956616500464719e+00 2.598388491391220079e+00 3.730000000000000000e+02
5.659293859152692008e+00 -1.151251670794189863e+01 3.740000000000000000e+02
5.565360134887470167e+00 -1.010142618800858827e+01 3.740000000000000000e+02
5.471426410622246550e+00 -8.690335668075276132e+00 3.740000000000000000e+02
5.377492686357024709e+00 -7.279245148141963995e+00 3.740000000000000000e+02
5.283558962091801092e+00 -5.868154628208651857e+00 3.740000000000000000e+02
5.189625237826578363e+00 -4.457064108275339720e+00 3.740000000000000000e+02
5.095691513561355634e+00 -3.045973588342027583e+00 3.740000000000000000e+02
5.001757789296132906e+00 -1.634883068408715445e+00 3.740000000000000000e+02
4.907824065030910177e+00 -2.237925484754041960e-01 3.740000000000000000e+02
4.813890340765686560e+00 1.187297971457907941e+00 3.740000000000000000e+02
5.659293859152692008e+00 -1.151251670794189863e+01 3.750000000000000000e+02
5.565360134887470167e+00 -1.010142618800858827e+01 3.750000000000000000e+02
5.471426410622246550e+00 -8.690335668075276132e+00 3.750000000000000000e+02
5.377492686357024709e+00 -7.279245148141963995e+00 3.750000000000000000e+02
5.283558962091801092e+00 -5.868154628208651857e+00 3.750000000000000000e+02
5.189625237826578363e+00 -4.457064108275339720e+00 3.750000000000000000e+02
5.095691513561355634e+00 -3.045973588342027583e+00 3.750000000000000000e+02
5.001757789296132906e+00 -1.634883068408715445e+00 3.750000000000000000e+02
4.907824065030910177e+00 -2.237925484754041960e-01 3.750000000000000000e+02
4.813890340765686560e+00 1.187297971457907941e+00 3.750000000000000000e+02
5.659293859152692008e+00 -1.151251670794189863e+01 3.760000000000000000e+02
5.565360134887470167e+00 -1.010142618800858827e+01 3.760000000000000000e+02
5.471426410622246550e+00 -8.690335668075276132e+00 3.760000000000000000e+02
5.377492686357024709e+00 -7.279245148141963995e+00 3.760000000000000000e+02
5.283558962091801092e+00 -5.868154628208651857e+00 3.760000000000000000e+02
5.189625237826578363e+00 -4.457064108275339720e+00 3.760000000000000000e+02
5.095691513561355634e+00 -3.045973588342027583e+00 3.760000000000000000e+02
5.001757789296132906e+00 -1.634883068408715445e+00 3.760000000000000000e+02
4.907824065030910177e+00 -2.237925484754041960e-01 3.760000000000000000e+02
4.813890340765686560e+00 1.187297971457907941e+00 3.760000000000000000e+02
5.659293859152692008e+00 -1.151251670794189863e+01 3.770000000000000000e+02
5.565360134887470167e+00 -1.010142618800858827e+01 3.770000000000000000e+02
5.471426410622246550e+00 -8.690335668075276132e+00 3.770000000000000000e+02
5.377492686357024709e+00 -7.279245148141963995e+00 3.770000000000000000e+02
5.283558962091801092e+00 -5.868154628208651857e+00 3.770000000000000000e+02
5.189625237826578363e+00 -4.457064108275339720e+00 3.770000000000000000e+02
5.095691513561355634e+00 -3.045973588342027583e+00 3.770000000000000000e+02
5.001757789296132906e+00 -1.634883068408715445e+00 3.770000000000000000e+02
4.907824065030910177e+00 -2.237925484754041960e-01 3.770000000000000000e+02
4.813890340765686560e+00 1.187297971457907941e+00 3.770000000000000000e+02
5.659293859152692008e+00 -1.151251670794189863e+01 3.780000000000000000e+02
5.565360134887470167e+00 -1.010142618800858827e+01 3.780000000000000000e+02
5.471426410622246550e+00 -8.690335668075276132e+00 3.780000000000000000e+02
5.377492686357024709e+00 -7.279245148141963995e+00 3.780000000000000000e+02
5.283558962091801092e+00 -5.868154628208651857e+00 3.780000000000000000e+02
5.189625237826578363e+00 -4.457064108275339720e+00 3.780000000000000000e+02
5.095691513561355634e+00 -3.045973588342027583e+00 3.780000000000000000e+02
5.001757789296132906e+00 -1.634883068408715445e+00 3.780000000000000000e+02
4.907824065030910177e+00 -2.237925484754041960e-01 3.780000000000000000e+02
4.813890340765686560e+00 1.187297971457907941e+00 3.780000000000000000e+02
5.659293859152692008e+00 -1.151251670794189863e+01 3.790000000000000000e+02
5.565360134887470167e+00 -1.010142618800858827e+01 3.790000000000000000e+02
5.471426410622246550e+00 -8.690335668075276132e+00 3.790000000000000000e+02
5.377492686357024709e+00 -7.279245148141963995e+00 3.790000000000000000e+02
5.283558962091801092e+00 -5.868154628208651857e+00 3.790000000000000000e+02
5.189625237826578363e+00 -4.457064108275339720e+00 3.790000000000000000e+02
5.095691513561355634e+00 -3.045973588342027583e+00 3.790000000000000000e+02
5.001757789296132906e+00 -1.634883068408715445e+00 3.790000000000000000e+02
4.907824065030910177e+00 -2.237925484754041960e-01 3.790000000000000000e+02
4.813890340765686560e+00 1.187297971457907941e+00 3.790000000000000000e+02
5.659293859152692008e+00 -1.151251670794189863e+01 3.800000000000000000e+02
5.565360134887470167e+00 -1.010142618800858827e+01 3.800000000000000000e+02
5.471426410622246550e+00 -8.690335668075276132e+00 3.800000000000000000e+02
5.377492686357024709e+00 -7.279245148141963995e+00 3.800000000000000000e+02
5.283558962091801092e+00 -5.868154628208651857e+00 3.800000000000000000e+02
5.189625237826578363e+00 -4.457064108275339720e+00 3.800000000000000000e+02
5.095691513561355634e+00 -3.045973588342027583e+00 3.800000000000000000e+02
5.001757789296132906e+00 -1.634883068408715445e+00 3.800000000000000000e+02
4.907824065030910177e+00 -2.237925484754041960e-01 3.800000000000000000e+02
5.659293859152692008e+00 -1.151251670794189863e+01 3.810000000000000000e+02
5.565360134887470167e+00 -1.010142618800858827e+01 3.810000000000000000e+02
5.471426410622246550e+00 -8.690335668075276132e+00 3.810000000000000000e+02
5.377492686357024709e+00 -7.279245148141963995e+00 3.810000000000000000e+02
5.283558962091801092e+00 -5.868154628208651857e+00 3.810000000000000000e+02
5.189625237826578363e+00 -4.457064108275339720e+00 3.810000000000000000e+02
5.095691513561355634e+00 -3.045973588342027583e+00 3.810000000000000000e+02
5.001757789296132906e+00 -1.634883068408715445e+00 3.810000000000000000e+02
4.907824065030910177e+00 -2.237925484754041960e-01 3.810000000000000000e+02
5.659293859152692008e+00 -1.151251670794189863e+01 3.820000000000000000e+02
5.565360134887470167e+00 -1.010142618800858827e+01 3.820000000000000000e+02
5.471426410622246550e+00 -8.690335668075276132e+00 3.820000000000000000e+02
5.377492686357024709e+00 -7.279245148141963995e+00 3.820000000000000000e+02
5.283558962091801092e+00 -5.868154628208651857e+00 3.820000000000000000e+02
5.189625237826578363e+00 -4.457064108275339720e+00 3.820000000000000000e+02
5.095691513561355634e+00 -3.045973588342027583e+00 3.820000000000000000e+02
5.001757789296132906e+00 -1.634883068408715445e+00 3.820000000000000000e+02
4.907824065030910177e+00 -2.237925484754041960e-01 3.820000000000000000e+02
4.813890340765686560e+00 1.187297971457907941e+00 3.820000000000000000e+02
5.659293859152692008e+00 -1.151251670794189863e+01 3.830000000000000000e+02
5.565360134887470167e+00 -1.010142618800858827e+01 3.830000000000000000e+02
5.471426410622246550e+00 -8.690335668075276132e+00 3.830000000000000000e+02
5.377492686357024709e+00 -7.279245148141963995e+00 3.830000000000000000e+02
5.283558962091801092e+00 -5.868154628208651857e+00 3.830000000000000000e+02
5.189625237826578363e+00 -4.457064108275339720e+00 3.830000000000000000e+02
5.095691513561355634e+00 -3.045973588342027583e+00 3.830000000000000000e+02
5.001757789296132906e+00 -1.634883068408715445e+00 3.830000000000000000e+02
4.907824065030910177e+00 -2.237925484754041960e-01 3.830000000000000000e+02
4.813890340765686560e+00 1.187297971457907941e+00 3.830000000000000000e+02
5.659293859152692008e+00 -1.151251670794189863e+01 3.840000000000000000e+02
5.565360134887470167e+00 -1.010142618800858827e+01 3.840000000000000000e+02
5.471426410622246550e+00 -8.690335668075276132e+00 3.840000000000000000e+02
5.377492686357024709e+00 -7.279245148141963995e+00 3.840000000000000000e+02
5.283558962091801092e+00 -5.868154628208651857e+00 3.840000000000000000e+02
5.189625237826578363e+00 -4.457064108275339720e+00 3.840000000000000000e+02
5.095691513561355634e+00 -3.045973588342027583e+00 3.840000000000000000e+02
5.001757789296132906e+00 -1.634883068408715445e+00 3.840000000000000000e+02
4.907824065030910177e+00 -2.237925484754041960e-01 3.840000000000000000e+02
4.813890340765686560e+00 1.187297971457907941e+00 3.840000000000000000e+02
5.659293859152692008e+00 -1.151251670794189863e+01 3.850000000000000000e+02
5.565360134887470167e+00 -1.010142618800858827e+01 3.850000000000000000e+02
5.471426410622246550e+00 -8.690335668075276132e+00 3.850000000000000000e+02
5.377492686357024709e+00 -7.279245148141963995e+00 3.850000000000000000e+02
5.283558962091801092e+00 -5.868154628208651857e+00 3.850000000000000000e+02
5.189625237826578363e+00 -4.457064108275339720e+00 3.850000000000000000e+02
5.095691513561355634e+00 -3.045973588342027583e+00 3.850000000000000000e+02
5.001757789296132906e+00 -1.634883068408715445e+00 3.850000000000000000e+02
4.907824065030910177e+00 -2.237925484754041960e-01 3.850000000000000000e+02
5.659293859152692008e+00 -1.151251670794189863e+01 3.860000000000000000e+02
5.565360134887470167e+00 -1.010142618800858827e+01 3.860000000000000000e+02
5.471426410622246550e+00 -8.690335668075276132e+00 3.860000000000000000e+02
5.377492686357024709e+00 -7.279245148141963995e+00 3.860000000000000000e+02
5.283558962091801092e+00 -5.868154628208651857e+00 3.860000000000000000e+02
5.189625237826578363e+00 -4.457064108275339720e+00 3.860000000000000000e+02
5.095691513561355634e+00 -3.045973588342027583e+00 3.860000000000000000e+02
5.001757789296132906e+00 -1.634883068408715445e+00 3.860000000000000000e+02
4.907824065030910177e+00 -2.237925484754041960e-01 3.860000000000000000e+02
5.659293859152692008e+00 -1.151251670794189863e+01 3.870000000000000000e+02
5.565360134887470167e+00 -1.010142618800858827e+01 3.870000000000000000e+02
5.471426410622246550e+00 -8.690335668075276132e+00 3.870000000000000000e+02
5.377492686357024709e+00 -7.279245148141963995e+00 3.870000000000000000e+02
5.283558962091801092e+00 -5.868154628208651857e+00 3.870000000000000000e+02
5.189625237826578363e+00 -4.457064108275339720e+00 3.870000000000000000e+02
5.095691513561355634e+00 -3.045973588342027583e+00 3.870000000000000000e+02
5.001757789296132906e+00 -1.634883068408715445e+00 3.870000000000000000e+02
4.907824065030910177e+00 -2.237925484754041960e-01 3.870000000000000000e+02
5.659293859152692008e+00 -1.151251670794189863e+01 3.880000000000000000e+02
5.565360134887470167e+00 -1.010142618800858827e+01 3.880000000000000000e+02
5.471426410622246550e+00 -8.690335668075276132e+00 3.880000000000000000e+02
5.377492686357024709e+00 -7.279245148141963995e+00 3.880000000000000000e+02
5.283558962091801092e+00 -5.868154628208651857e+00 3.880000000000000000e+02
5.189625237826578363e+00 -4.457064108275339720e+00 3.880000000000000000e+02
5.095691513561355634e+00 -3.045973588342027583e+00 3.880000000000000000e+02
5.001757789296132906e+00 -1.634883068408715445e+00 3.880000000000000000e+02
4.907824065030910177e+00 -2.237925484754041960e-01 3.880000000000000000e+02
5.659293859152692008e+00 -1.151251670794189863e+01 3.890000000000000000e+02
5.565360134887470167e+00 -1.010142618800858827e+01 3.890000000000000000e+02
5.471426410622246550e+00 -8.690335668075276132e+00 3.890000000000000000e+02
5.377492686357024709e+00 -7.279245148141963995e+00 3.890000000000000000e+02
5.283558962091801092e+00 -5.868154628208651857e+00 3.890000000000000000e+02
5.189625237826578363e+00 -4.457064108275339720e+00 3.890000000000000000e+02
5.095691513561355634e+00 -3.045973588342027583e+00 3.890000000000000000e+02
5.001757789296132906e+00 -1.634883068408715445e+00 3.890000000000000000e+02
4.907824065030910177e+00 -2.237925484754041960e-01 3.890000000000000000e+02
5.659293859152692008e+00 -1.151251670794189863e+01 3.900000000000000000e+02
5.565360134887470167e+00 -1.010142618800858827e+01 3.900000000000000000e+02
5.471426410622246550e+00 -8.690335668075276132e+00 3.900000000000000000e+02
5.377492686357024709e+00 -7.279245148141963995e+00 3.900000000000000000e+02
5.283558962091801092e+00 -5.868154628208651857e+00 3.900000000000000000e+02
5.189625237826578363e+00 -4.457064108275339720e+00 3.900000000000000000e+02
5.095691513561355634e+00 -3.045973588342027583e+00 3.900000000000000000e+02
5.001757789296132906e+00 -1.634883068408715445e+00 3.900000000000000000e+02
4.907824065030910177e+00 -2.237925484754041960e-01 3.900000000000000000e+02
5.000715461318647748e+00 -1.226502883004116740e+01 3.910000000000000000e+02
4.906781737053425019e+00 -1.085393831010785526e+01 3.910000000000000000e+02
4.812848012788202290e+00 -9.442847790174543121e+00 3.910000000000000000e+02
4.718914288522979561e+00 -8.031757270241230984e+00 3.910000000000000000e+02
4.624980564257756832e+00 -6.620666750307918846e+00 3.910000000000000000e+02
4.531046839992534103e+00 -5.209576230374607597e+00 3.910000000000000000e+02
4.437113115727311374e+00 -3.798485710441295460e+00 3.910000000000000000e+02
4.343179391462088645e+00 -2.387395190507983322e+00 3.910000000000000000e+02
4.249245667196865028e+00 -9.763046705746711851e-01 3.910000000000000000e+02
4.155311942931642299e+00 4.347858493586409523e-01 3.910000000000000000e+02
4.061378218666419571e+00 1.845876369291953090e+00 3.910000000000000000e+02
5.000715461318647748e+00 -1.226502883004116740e+01 3.920000000000000000e+02
4.906781737053425019e+00 -1.085393831010785526e+01 3.920000000000000000e+02
4.812848012788202290e+00 -9.442847790174543121e+00 3.920000000000000000e+02
4.718914288522979561e+00 -8.031757270241230984e+00 3.920000000000000000e+02
4.624980564257756832e+00 -6.620666750307918846e+00 3.920000000000000000e+02
4.531046839992534103e+00 -5.209576230374607597e+00 3.920000000000000000e+02
4.437113115727311374e+00 -3.798485710441295460e+00 3.920000000000000000e+02
4.343179391462088645e+00 -2.387395190507983322e+00 3.920000000000000000e+02
4.249245667196865028e+00 -9.763046705746711851e-01 3.920000000000000000e+02
4.155311942931642299e+00 4.347858493586409523e-01 3.920000000000000000e+02
5.000715461318647748e+00 -1.226502883004116740e+01 3.930000000000000000e+02
4.906781737053425019e+00 -1.085393831010785526e+01 3.930000000000000000e+02
4.812848012788202290e+00 -9.442847790174543121e+00 3.930000000000000000e+02
4.718914288522979561e+00 -8.031757270241230984e+00 3.930000000000000000e+02
4.624980564257756832e+00 -6.620666750307918846e+00 3.930000000000000000e+02
4.531046839992534103e+00 -5.209576230374607597e+00 3.930000000000000000e+02
4.437113115727311374e+00 -3.798485710441295460e+00 3.930000000000000000e+02
4.343179391462088645e+00 -2.387395190507983322e+00 3.930000000000000000e+02
4.249245667196865028e+00 -9.763046705746711851e-01 3.930000000000000000e+02
4.155311942931642299e+00 4.347858493586409523e-01 3.930000000000000000e+02
5.659293859152692008e+00 -1.151251670794189863e+01 3.940000000000000000e+02
5.565360134887470167e+00 -1.010142618800858827e+01 3.940000000000000000e+02
5.471426410622246550e+00 -8.690335668075276132e+00 3.940000000000000000e+02
5.377492686357024709e+00 -7.279245148141963995e+00 3.940000000000000000e+02
5.283558962091801092e+00 -5.868154628208651857e+00 3.940000000000000000e+02
5.189625237826578363e+00 -4.457064108275339720e+00 3.940000000000000000e+02
5.095691513561355634e+00 -3.045973588342027583e+00 3.940000000000000000e+02
5.001757789296132906e+00 -1.634883068408715445e+00 3.940000000000000000e+02
4.907824065030910177e+00 -2.237925484754041960e-01 3.940000000000000000e+02
5.659293859152692008e+00 -1.151251670794189863e+01 3.950000000000000000e+02
5.565360134887470167e+00 -1.010142618800858827e+01 3.950000000000000000e+02
5.471426410622246550e+00 -8.690335668075276132e+00 3.950000000000000000e+02
5.377492686357024709e+00 -7.279245148141963995e+00 3.950000000000000000e+02
5.283558962091801092e+00 -5.868154628208651857e+00 3.950000000000000000e+02
5.189625237826578363e+00 -4.457064108275339720e+00 3.950000000000000000e+02
5.095691513561355634e+00 -3.045973588342027583e+00 3.950000000000000000e+02
5.001757789296132906e+00 -1.634883068408715445e+00 3.950000000000000000e+02
4.907824065030910177e+00 -2.237925484754041960e-01 3.950000000000000000e+02
5.000715461318647748e+00 -1.226502883004116740e+01 3.960000000000000000e+02
4.906781737053425019e+00 -1.085393831010785526e+01 3.960000000000000000e+02
4.812848012788202290e+00 -9.442847790174543121e+00 3.960000000000000000e+02
4.718914288522979561e+00 -8.031757270241230984e+00 3.960000000000000000e+02
4.624980564257756832e+00 -6.620666750307918846e+00 3.960000000000000000e+02
4.531046839992534103e+00 -5.209576230374607597e+00 3.960000000000000000e+02
4.437113115727311374e+00 -3.798485710441295460e+00 3.960000000000000000e+02
4.343179391462088645e+00 -2.387395190507983322e+00 3.960000000000000000e+02
4.249245667196865028e+00 -9.763046705746711851e-01 3.960000000000000000e+02
4.155311942931642299e+00 4.347858493586409523e-01 3.960000000000000000e+02
5.000715461318647748e+00 -1.226502883004116740e+01 3.970000000000000000e+02
4.906781737053425019e+00 -1.085393831010785526e+01 3.970000000000000000e+02
4.812848012788202290e+00 -9.442847790174543121e+00 3.970000000000000000e+02
4.718914288522979561e+00 -8.031757270241230984e+00 3.970000000000000000e+02
4.624980564257756832e+00 -6.620666750307918846e+00 3.970000000000000000e+02
4.531046839992534103e+00 -5.209576230374607597e+00 3.970000000000000000e+02
4.437113115727311374e+00 -3.798485710441295460e+00 3.970000000000000000e+02
4.343179391462088645e+00 -2.387395190507983322e+00 3.970000000000000000e+02
4.249245667196865028e+00 -9.763046705746711851e-01 3.970000000000000000e+02
4.155311942931642299e+00 4.347858493586409523e-01 3.970000000000000000e+02
5.000715461318647748e+00 -1.226502883004116740e+01 3.980000000000000000e+02
4.906781737053425019e+00 -1.085393831010785526e+01 3.980000000000000000e+02
4.812848012788202290e+00 -9.442847790174543121e+00 3.980000000000000000e+02
4.718914288522979561e+00 -8.031757270241230984e+00 3.980000000000000000e+02
4.624980564257756832e+00 -6.620666750307918846e+00 3.980000000000000000e+02
4.531046839992534103e+00 -5.209576230374607597e+00 3.980000000000000000e+02
4.437113115727311374e+00 -3.798485710441295460e+00 3.980000000000000000e+02
4.343179391462088645e+00 -2.387395190507983322e+00 3.980000000000000000e+02
4.249245667196865028e+00 -9.763046705746711851e-01 3.980000000000000000e+02
4.155311942931642299e+00 4.347858493586409523e-01 3.980000000000000000e+02
5.000715461318647748e+00 -1.226502883004116740e+01 3.990000000000000000e+02
4.906781737053425019e+00 -1.085393831010785526e+01 3.990000000000000000e+02
4.812848012788202290e+00 -9.442847790174543121e+00 3.990000000000000000e+02
4.718914288522979561e+00 -8.031757270241230984e+00 3.990000000000000000e+02
4.624980564257756832e+00 -6.620666750307918846e+00 3.990000000000000000e+02
4.531046839992534103e+00 -5.209576230374607597e+00 3.990000000000000000e+02
4.437113115727311374e+00 -3.798485710441295460e+00 3.990000000000000000e+02
4.343179391462088645e+00 -2.387395190507983322e+00 3.990000000000000000e+02
4.249245667196865028e+00 -9.763046705746711851e-01 3.990000000000000000e+02
4.155311942931642299e+00 4.347858493586409523e-01 3.990000000000000000e+02
5.000715461318647748e+00 -1.226502883004116740e+01 4.000000000000000000e+02
4.906781737053425019e+00 -1.085393831010785526e+01 4.000000000000000000e+02
4.812848012788202290e+00 -9.442847790174543121e+00 4.000000000000000000e+02
4.718914288522979561e+00 -8.031757270241230984e+00 4.000000000000000000e+02
4.624980564257756832e+00 -6.620666750307918846e+00 4.000000000000000000e+02
4.531046839992534103e+00 -5.209576230374607597e+00 4.000000000000000000e+02
4.437113115727311374e+00 -3.798485710441295460e+00 4.000000000000000000e+02
4.343179391462088645e+00 -2.387395190507983322e+00 4.000000000000000000e+02
4.249245667196865028e+00 -9.763046705746711851e-01 4.000000000000000000e+02
4.155311942931642299e+00 4.347858493586409523e-01 4.000000000000000000e+02
5.000715461318647748e+00 -1.226502883004116740e+01 4.010000000000000000e+02
4.906781737053425019e+00 -1.085393831010785526e+01 4.010000000000000000e+02
4.812848012788202290e+00 -9.442847790174543121e+00 4.010000000000000000e+02
4.718914288522979561e+00 -8.031757270241230984e+00 4.010000000000000000e+02
4.624980564257756832e+00 -6.620666750307918846e+00 4.010000000000000000e+02
4.531046839992534103e+00 -5.209576230374607597e+00 4.010000000000000000e+02
4.437113115727311374e+00 -3.798485710441295460e+00 4.010000000000000000e+02
4.343179391462088645e+00 -2.387395190507983322e+00 4.010000000000000000e+02
4.249245667196865028e+00 -9.763046705746711851e-01 4.010000000000000000e+02
4.155311942931642299e+00 4.347858493586409523e-01 4.010000000000000000e+02
5.000715461318647748e+00 -1.226502883004116740e+01 4.020000000000000000e+02
4.906781737053425019e+00 -1.085393831010785526e+01 4.020000000000000000e+02
4.812848012788202290e+00 -9.442847790174543121e+00 4.020000000000000000e+02
4.718914288522979561e+00 -8.031757270241230984e+00 4.020000000000000000e+02
4.624980564257756832e+00 -6.620666750307918846e+00 4.020000000000000000e+02
4.531046839992534103e+00 -5.209576230374607597e+00 4.020000000000000000e+02
4.437113115727311374e+00 -3.798485710441295460e+00 4.020000000000000000e+02
4.343179391462088645e+00 -2.387395190507983322e+00 4.020000000000000000e+02
4.249245667196865028e+00 -9.763046705746711851e-01 4.020000000000000000e+02
4.155311942931642299e+00 4.347858493586409523e-01 4.020000000000000000e+02
5.000715461318647748e+00 -1.226502883004116740e+01 4.030000000000000000e+02
4.906781737053425019e+00 -1.085393831010785526e+01 4.030000000000000000e+02
4.812848012788202290e+00 -9.442847790174543121e+00 4.030000000000000000e+02
4.718914288522979561e+00 -8.031757270241230984e+00 4.030000000000000000e+02
4.624980564257756832e+00 -6.620666750307918846e+00 4.030000000000000000e+02
4.531046839992534103e+00 -5.209576230374607597e+00 4.030000000000000000e+02
4.437113115727311374e+00 -3.798485710441295460e+00 4.030000000000000000e+02
4.343179391462088645e+00 -2.387395190507983322e+00 4.030000000000000000e+02
4.249245667196865028e+00 -9.763046705746711851e-01 4.030000000000000000e+02
4.155311942931642299e+00 4.347858493586409523e-01 4.030000000000000000e+02
5.000715461318647748e+00 -1.226502883004116740e+01 4.040000000000000000e+02
4.906781737053425019e+00 -1.085393831010785526e+01 4.040000000000000000e+02
4.812848012788202290e+00 -9.442847790174543121e+00 4.040000000000000000e+02
4.718914288522979561e+00 -8.031757270241230984e+00 4.040000000000000000e+02
4.624980564257756832e+00 -6.620666750307918846e+00 4.040000000000000000e+02
4.531046839992534103e+00 -5.209576230374607597e+00 4.040000000000000000e+02
4.437113115727311374e+00 -3.798485710441295460e+00 4.040000000000000000e+02
4.343179391462088645e+00 -2.387395190507983322e+00 4.040000000000000000e+02
4.249245667196865028e+00 -9.763046705746711851e-01 4.040000000000000000e+02
4.155311942931642299e+00 4.347858493586409523e-01 4.040000000000000000e+02
5.000715461318647748e+00 -1.226502883004116740e+01 4.050000000000000000e+02
4.906781737053425019e+00 -1.085393831010785526e+01 4.050000000000000000e+02
4.812848012788202290e+00 -9.442847790174543121e+00 4.050000000000000000e+02
4.718914288522979561e+00 -8.031757270241230984e+00 4.050000000000000000e+02
4.624980564257756832e+00 -6.620666750307918846e+00 4.050000000000000000e+02
4.531046839992534103e+00 -5.209576230374607597e+00 4.050000000000000000e+02
4.437113115727311374e+00 -3.798485710441295460e+00 4.050000000000000000e+02
4.343179391462088645e+00 -2.387395190507983322e+00 4.050000000000000000e+02
4.249245667196865028e+00 -9.763046705746711851e-01 4.050000000000000000e+02
4.155311942931642299e+00 4.347858493586409523e-01 4.050000000000000000e+02
5.000715461318647748e+00 -1.226502883004116740e+01 4.060000000000000000e+02
4.906781737053425019e+00 -1.085393831010785526e+01 4.060000000000000000e+02
4.812848012788202290e+00 -9.442847790174543121e+00 4.060000000000000000e+02
4.718914288522979561e+00 -8.031757270241230984e+00 4.060000000000000000e+02
4.624980564257756832e+00 -6.620666750307918846e+00 4.060000000000000000e+02
4.531046839992534103e+00 -5.209576230374607597e+00 4.060000000000000000e+02
4.437113115727311374e+00 -3.798485710441295460e+00 4.060000000000000000e+02
4.343179391462088645e+00 -2.387395190507983322e+00 4.060000000000000000e+02
4.249245667196865028e+00 -9.763046705746711851e-01 4.060000000000000000e+02
4.155311942931642299e+00 4.347858493586409523e-01 4.060000000000000000e+02
5.000715461318647748e+00 -1.226502883004116740e+01 4.070000000000000000e+02
4.906781737053425019e+00 -1.085393831010785526e+01 4.070000000000000000e+02
4.812848012788202290e+00 -9.442847790174543121e+00 4.070000000000000000e+02
4.718914288522979561e+00 -8.031757270241230984e+00 4.070000000000000000e+02
4.624980564257756832e+00 -6.620666750307918846e+00 4.070000000000000000e+02
4.531046839992534103e+00 -5.209576230374607597e+00 4.070000000000000000e+02
4.437113115727311374e+00 -3.798485710441295460e+00 4.070000000000000000e+02
4.343179391462088645e+00 -2.387395190507983322e+00 4.070000000000000000e+02
4.249245667196865028e+00 -9.763046705746711851e-01 4.070000000000000000e+02
4.155311942931642299e+00 4.347858493586409523e-01 4.070000000000000000e+02
5.000715461318647748e+00 -1.226502883004116740e+01 4.080000000000000000e+02
4.906781737053425019e+00 -1.085393831010785526e+01 4.080000000000000000e+02
4.812848012788202290e+00 -9.442847790174543121e+00 4.080000000000000000e+02
4.718914288522979561e+00 -8.031757270241230984e+00 4.080000000000000000e+02
4.624980564257756832e+00 -6.620666750307918846e+00 4.080000000000000000e+02
4.531046839992534103e+00 -5.209576230374607597e+00 4.080000000000000000e+02
4.437113115727311374e+00 -3.798485710441295460e+00 4.080000000000000000e+02
4.343179391462088645e+00 -2.387395190507983322e+00 4.080000000000000000e+02
4.249245667196865028e+00 -9.763046705746711851e-01 4.080000000000000000e+02
4.155311942931642299e+00 4.347858493586409523e-01 4.080000000000000000e+02
5.000715461318647748e+00 -1.226502883004116740e+01 4.090000000000000000e+02
4.906781737053425019e+00 -1.085393831010785526e+01 4.090000000000000000e+02
4.812848012788202290e+00 -9.442847790174543121e+00 4.090000000000000000e+02
4.718914288522979561e+00 -8.031757270241230984e+00 4.090000000000000000e+02
4.624980564257756832e+00 -6.620666750307918846e+00 4.090000000000000000e+02
4.531046839992534103e+00 -5.209576230374607597e+00 4.090000000000000000e+02
4.437113115727311374e+00 -3.798485710441295460e+00 4.090000000000000000e+02
4.343179391462088645e+00 -2.387395190507983322e+00 4.090000000000000000e+02
4.249245667196865028e+00 -9.763046705746711851e-01 4.090000000000000000e+02
4.155311942931642299e+00 4.347858493586409523e-01 4.090000000000000000e+02
5.000715461318647748e+00 -1.226502883004116740e+01 4.100000000000000000e+02
4.906781737053425019e+00 -1.085393831010785526e+01 4.100000000000000000e+02
4.812848012788202290e+00 -9.442847790174543121e+00 4.100000000000000000e+02
4.718914288522979561e+00 -8.031757270241230984e+00 4.100000000000000000e+02
4.624980564257756832e+00 -6.620666750307918846e+00 4.100000000000000000e+02
4.531046839992534103e+00 -5.209576230374607597e+00 4.100000000000000000e+02
4.437113115727311374e+00 -3.798485710441295460e+00 4.100000000000000000e+02
4.343179391462088645e+00 -2.387395190507983322e+00 4.100000000000000000e+02
4.249245667196865028e+00 -9.763046705746711851e-01 4.100000000000000000e+02
4.155311942931642299e+00 4.347858493586409523e-01 4.100000000000000000e+02
5.000715461318647748e+00 -1.226502883004116740e+01 4.110000000000000000e+02
4.906781737053425019e+00 -1.085393831010785526e+01 4.110000000000000000e+02
4.812848012788202290e+00 -9.442847790174543121e+00 4.110000000000000000e+02
4.718914288522979561e+00 -8.031757270241230984e+00 4.110000000000000000e+02
4.624980564257756832e+00 -6.620666750307918846e+00 4.110000000000000000e+02
4.531046839992534103e+00 -5.209576230374607597e+00 4.110000000000000000e+02
4.437113115727311374e+00 -3.798485710441295460e+00 4.110000000000000000e+02
4.343179391462088645e+00 -2.387395190507983322e+00 4.110000000000000000e+02
4.249245667196865028e+00 -9.763046705746711851e-01 4.110000000000000000e+02
4.342137063484603487e+00 -1.301754095214043616e+01 4.120000000000000000e+02
4.248203339219379870e+00 -1.160645043220712225e+01 4.120000000000000000e+02
4.154269614954158030e+00 -1.019535991227381189e+01 4.120000000000000000e+02
4.060335890688935301e+00 -8.784269392340497973e+00 4.120000000000000000e+02
3.966402166423712128e+00 -7.373178872407186724e+00 4.120000000000000000e+02
3.872468442158489399e+00 -5.962088352473874586e+00 4.120000000000000000e+02
3.778534717893266670e+00 -4.550997832540562449e+00 4.120000000000000000e+02
3.684600993628043497e+00 -3.139907312607250756e+00 4.120000000000000000e+02
3.590667269362820768e+00 -1.728816792673939062e+00 4.120000000000000000e+02
3.496733545097597595e+00 -3.177262727406260368e-01 4.120000000000000000e+02
4.342137063484603487e+00 -1.301754095214043616e+01 4.130000000000000000e+02
4.248203339219379870e+00 -1.160645043220712225e+01 4.130000000000000000e+02
4.154269614954158030e+00 -1.019535991227381189e+01 4.130000000000000000e+02
4.060335890688935301e+00 -8.784269392340497973e+00 4.130000000000000000e+02
3.966402166423712128e+00 -7.373178872407186724e+00 4.130000000000000000e+02
3.872468442158489399e+00 -5.962088352473874586e+00 4.130000000000000000e+02
3.778534717893266670e+00 -4.550997832540562449e+00 4.130000000000000000e+02
3.684600993628043497e+00 -3.139907312607250756e+00 4.130000000000000000e+02
3.590667269362820768e+00 -1.728816792673939062e+00 4.130000000000000000e+02
3.496733545097597595e+00 -3.177262727406260368e-01 4.130000000000000000e+02
4.342137063484603487e+00 -1.301754095214043616e+01 4.140000000000000000e+02
4.248203339219379870e+00 -1.160645043220712225e+01 4.140000000000000000e+02
4.154269614954158030e+00 -1.019535991227381189e+01 4.140000000000000000e+02
4.060335890688935301e+00 -8.784269392340497973e+00 4.140000000000000000e+02
3.966402166423712128e+00 -7.373178872407186724e+00 4.140000000000000000e+02
3.872468442158489399e+00 -5.962088352473874586e+00 4.140000000000000000e+02
3.778534717893266670e+00 -4.550997832540562449e+00 4.140000000000000000e+02
3.684600993628043497e+00 -3.139907312607250756e+00 4.140000000000000000e+02
3.590667269362820768e+00 -1.728816792673939062e+00 4.140000000000000000e+02
3.496733545097597595e+00 -3.177262727406260368e-01 4.140000000000000000e+02
4.342137063484603487e+00 -1.301754095214043616e+01 4.150000000000000000e+02
4.248203339219379870e+00 -1.160645043220712225e+01 4.150000000000000000e+02
4.154269614954158030e+00 -1.019535991227381189e+01 4.150000000000000000e+02
4.060335890688935301e+00 -8.784269392340497973e+00 4.150000000000000000e+02
3.966402166423712128e+00 -7.373178872407186724e+00 4.150000000000000000e+02
3.872468442158489399e+00 -5.962088352473874586e+00 4.150000000000000000e+02
3.778534717893266670e+00 -4.550997832540562449e+00 4.150000000000000000e+02
3.684600993628043497e+00 -3.139907312607250756e+00 4.150000000000000000e+02
3.590667269362820768e+00 -1.728816792673939062e+00 4.150000000000000000e+02
3.496733545097597595e+00 -3.177262727406260368e-01 4.150000000000000000e+02
4.342137063484603487e+00 -1.301754095214043616e+01 4.160000000000000000e+02
4.248203339219379870e+00 -1.160645043220712225e+01 4.160000000000000000e+02
4.154269614954158030e+00 -1.019535991227381189e+01 4.160000000000000000e+02
4.060335890688935301e+00 -8.784269392340497973e+00 4.160000000000000000e+02
3.966402166423712128e+00 -7.373178872407186724e+00 4.160000000000000000e+02
3.872468442158489399e+00 -5.962088352473874586e+00 4.160000000000000000e+02
3.778534717893266670e+00 -4.550997832540562449e+00 4.160000000000000000e+02
3.684600993628043497e+00 -3.139907312607250756e+00 4.160000000000000000e+02
3.590667269362820768e+00 -1.728816792673939062e+00 4.160000000000000000e+02
3.496733545097597595e+00 -3.177262727406260368e-01 4.160000000000000000e+02
4.342137063484603487e+00 -1.301754095214043616e+01 4.170000000000000000e+02
4.248203339219379870e+00 -1.160645043220712225e+01 4.170000000000000000e+02
4.154269614954158030e+00 -1.019535991227381189e+01 4.170000000000000000e+02
4.060335890688935301e+00 -8.784269392340497973e+00 4.170000000000000000e+02
3.966402166423712128e+00 -7.373178872407186724e+00 4.170000000000000000e+02
3.872468442158489399e+00 -5.962088352473874586e+00 4.170000000000000000e+02
3.778534717893266670e+00 -4.550997832540562449e+00 4.170000000000000000e+02
3.684600993628043497e+00 -3.139907312607250756e+00 4.170000000000000000e+02
3.590667269362820768e+00 -1.728816792673939062e+00 4.170000000000000000e+02
3.496733545097597595e+00 -3.177262727406260368e-01 4.170000000000000000e+02
4.342137063484603487e+00 -1.301754095214043616e+01 4.180000000000000000e+02
4.248203339219379870e+00 -1.160645043220712225e+01 4.180000000000000000e+02
4.154269614954158030e+00 -1.019535991227381189e+01 4.180000000000000000e+02
4.060335890688935301e+00 -8.784269392340497973e+00 4.180000000000000000e+02
3.966402166423712128e+00 -7.373178872407186724e+00 4.180000000000000000e+02
3.872468442158489399e+00 -5.962088352473874586e+00 4.180000000000000000e+02
3.778534717893266670e+00 -4.550997832540562449e+00 4.180000000000000000e+02
3.684600993628043497e+00 -3.139907312607250756e+00 4.180000000000000000e+02
3.590667269362820768e+00 -1.728816792673939062e+00 4.180000000000000000e+02
3.496733545097597595e+00 -3.177262727406260368e-01 4.180000000000000000e+02
4.342137063484603487e+00 -1.301754095214043616e+01 4.190000000000000000e+02
4.248203339219379870e+00 -1.160645043220712225e+01 4.190000000000000000e+02
4.154269614954158030e+00 -1.019535991227381189e+01 4.190000000000000000e+02
4.060335890688935301e+00 -8.784269392340497973e+00 4.190000000000000000e+02
3.966402166423712128e+00 -7.373178872407186724e+00 4.190000000000000000e+02
3.872468442158489399e+00 -5.962088352473874586e+00 4.190000000000000000e+02
3.778534717893266670e+00 -4.550997832540562449e+00 4.190000000000000000e+02
3.684600993628043497e+00 -3.139907312607250756e+00 4.190000000000000000e+02
3.590667269362820768e+00 -1.728816792673939062e+00 4.190000000000000000e+02
3.496733545097597595e+00 -3.177262727406260368e-01 4.190000000000000000e+02
3.683558665650558783e+00 -1.377005307423970137e+01 4.200000000000000000e+02
3.589624941385336054e+00 -1.235896255430639101e+01 4.200000000000000000e+02
3.495691217120112881e+00 -1.094787203437307710e+01 4.200000000000000000e+02
3.401757492854890153e+00 -9.536781514439766738e+00 4.200000000000000000e+02
3.307823768589667424e+00 -8.125690994506454601e+00 4.200000000000000000e+02
3.213890044324444695e+00 -6.714600474573142463e+00 4.200000000000000000e+02
3.119956320059221966e+00 -5.303509954639830326e+00 4.200000000000000000e+02
3.026022595793999237e+00 -3.892419434706518189e+00 4.200000000000000000e+02
2.932088871528776064e+00 -2.481328914773206051e+00 4.200000000000000000e+02
2.838155147263552891e+00 -1.070238394839893914e+00 4.200000000000000000e+02
2.744221422998330606e+00 3.408521250934182234e-01 4.200000000000000000e+02
3.683558665650558783e+00 -1.377005307423970137e+01 4.210000000000000000e+02
3.589624941385336054e+00 -1.235896255430639101e+01 4.210000000000000000e+02
3.495691217120112881e+00 -1.094787203437307710e+01 4.210000000000000000e+02
3.401757492854890153e+00 -9.536781514439766738e+00 4.210000000000000000e+02
3.307823768589667424e+00 -8.125690994506454601e+00 4.210000000000000000e+02
3.213890044324444695e+00 -6.714600474573142463e+00 4.210000000000000000e+02
3.119956320059221966e+00 -5.303509954639830326e+00 4.210000000000000000e+02
3.026022595793999237e+00 -3.892419434706518189e+00 4.210000000000000000e+02
2.932088871528776064e+00 -2.481328914773206051e+00 4.210000000000000000e+02
2.838155147263552891e+00 -1.070238394839893914e+00 4.210000000000000000e+02
2.744221422998330606e+00 3.408521250934182234e-01 4.210000000000000000e+02
3.683558665650558783e+00 -1.377005307423970137e+01 4.220000000000000000e+02
3.589624941385336054e+00 -1.235896255430639101e+01 4.220000000000000000e+02
3.495691217120112881e+00 -1.094787203437307710e+01 4.220000000000000000e+02
3.401757492854890153e+00 -9.536781514439766738e+00 4.220000000000000000e+02
3.307823768589667424e+00 -8.125690994506454601e+00 4.220000000000000000e+02
3.213890044324444695e+00 -6.714600474573142463e+00 4.220000000000000000e+02
3.119956320059221966e+00 -5.303509954639830326e+00 4.220000000000000000e+02
3.026022595793999237e+00 -3.892419434706518189e+00 4.220000000000000000e+02
2.932088871528776064e+00 -2.481328914773206051e+00 4.220000000000000000e+02
2.838155147263552891e+00 -1.070238394839893914e+00 4.220000000000000000e+02
2.744221422998330606e+00 3.408521250934182234e-01 4.220000000000000000e+02
3.683558665650558783e+00 -1.377005307423970137e+01 4.230000000000000000e+02
3.589624941385336054e+00 -1.235896255430639101e+01 4.230000000000000000e+02
3.495691217120112881e+00 -1.094787203437307710e+01 4.230000000000000000e+02
3.401757492854890153e+00 -9.536781514439766738e+00 4.230000000000000000e+02
3.307823768589667424e+00 -8.125690994506454601e+00 4.230000000000000000e+02
3.213890044324444695e+00 -6.714600474573142463e+00 4.230000000000000000e+02
3.119956320059221966e+00 -5.303509954639830326e+00 4.230000000000000000e+02
3.026022595793999237e+00 -3.892419434706518189e+00 4.230000000000000000e+02
2.932088871528776064e+00 -2.481328914773206051e+00 4.230000000000000000e+02
2.838155147263552891e+00 -1.070238394839893914e+00 4.230000000000000000e+02
3.683558665650558783e+00 -1.377005307423970137e+01 4.240000000000000000e+02
3.589624941385336054e+00 -1.235896255430639101e+01 4.240000000000000000e+02
3.495691217120112881e+00 -1.094787203437307710e+01 4.240000000000000000e+02
3.401757492854890153e+00 -9.536781514439766738e+00 4.240000000000000000e+02
3.307823768589667424e+00 -8.125690994506454601e+00 4.240000000000000000e+02
3.213890044324444695e+00 -6.714600474573142463e+00 4.240000000000000000e+02
3.119956320059221966e+00 -5.303509954639830326e+00 4.240000000000000000e+02
3.026022595793999237e+00 -3.892419434706518189e+00 4.240000000000000000e+02
2.932088871528776064e+00 -2.481328914773206051e+00 4.240000000000000000e+02
2.838155147263552891e+00 -1.070238394839893914e+00 4.240000000000000000e+02
3.683558665650558783e+00 -1.377005307423970137e+01 4.250000000000000000e+02
3.589624941385336054e+00 -1.235896255430639101e+01 4.250000000000000000e+02
3.495691217120112881e+00 -1.094787203437307710e+01 4.250000000000000000e+02
3.401757492854890153e+00 -9.536781514439766738e+00 4.250000000000000000e+02
3.307823768589667424e+00 -8.125690994506454601e+00 4.250000000000000000e+02
3.213890044324444695e+00 -6.714600474573142463e+00 4.250000000000000000e+02
3.119956320059221966e+00 -5.303509954639830326e+00 4.250000000000000000e+02
3.026022595793999237e+00 -3.892419434706518189e+00 4.250000000000000000e+02
2.932088871528776064e+00 -2.481328914773206051e+00 4.250000000000000000e+02
2.838155147263552891e+00 -1.070238394839893914e+00 4.250000000000000000e+02
3.683558665650558783e+00 -1.377005307423970137e+01 4.260000000000000000e+02
3.589624941385336054e+00 -1.235896255430639101e+01 4.260000000000000000e+02
3.495691217120112881e+00 -1.094787203437307710e+01 4.260000000000000000e+02
3.401757492854890153e+00 -9.536781514439766738e+00 4.260000000000000000e+02
3.307823768589667424e+00 -8.125690994506454601e+00 4.260000000000000000e+02
3.213890044324444695e+00 -6.714600474573142463e+00 4.260000000000000000e+02
3.119956320059221966e+00 -5.303509954639830326e+00 4.260000000000000000e+02
3.026022595793999237e+00 -3.892419434706518189e+00 4.260000000000000000e+02
2.932088871528776064e+00 -2.481328914773206051e+00 4.260000000000000000e+02
2.838155147263552891e+00 -1.070238394839893914e+00 4.260000000000000000e+02
3.683558665650558783e+00 -1.377005307423970137e+01 4.270000000000000000e+02
3.589624941385336054e+00 -1.235896255430639101e+01 4.270000000000000000e+02
3.495691217120112881e+00 -1.094787203437307710e+01 4.270000000000000000e+02
3.401757492854890153e+00 -9.536781514439766738e+00 4.270000000000000000e+02
3.307823768589667424e+00 -8.125690994506454601e+00 4.270000000000000000e+02
3.213890044324444695e+00 -6.714600474573142463e+00 4.270000000000000000e+02
3.119956320059221966e+00 -5.303509954639830326e+00 4.270000000000000000e+02
3.026022595793999237e+00 -3.892419434706518189e+00 4.270000000000000000e+02
2.932088871528776064e+00 -2.481328914773206051e+00 4.270000000000000000e+02
2.838155147263552891e+00 -1.070238394839893914e+00 4.270000000000000000e+02
3.683558665650558783e+00 -1.377005307423970137e+01 4.280000000000000000e+02
3.589624941385336054e+00 -1.235896255430639101e+01 4.280000000000000000e+02
3.495691217120112881e+00 -1.094787203437307710e+01 4.280000000000000000e+02
3.401757492854890153e+00 -9.536781514439766738e+00 4.280000000000000000e+02
3.307823768589667424e+00 -8.125690994506454601e+00 4.280000000000000000e+02
3.213890044324444695e+00 -6.714600474573142463e+00 4.280000000000000000e+02
3.119956320059221966e+00 -5.303509954639830326e+00 4.280000000000000000e+02
3.026022595793999237e+00 -3.892419434706518189e+00 4.280000000000000000e+02
2.932088871528776064e+00 -2.481328914773206051e+00 4.280000000000000000e+02
2.838155147263552891e+00 -1.070238394839893914e+00 4.280000000000000000e+02
3.683558665650558783e+00 -1.377005307423970137e+01 4.290000000000000000e+02
3.589624941385336054e+00 -1.235896255430639101e+01 4.290000000000000000e+02
3.495691217120112881e+00 -1.094787203437307710e+01 4.290000000000000000e+02
3.401757492854890153e+00 -9.536781514439766738e+00 4.290000000000000000e+02
3.307823768589667424e+00 -8.125690994506454601e+00 4.290000000000000000e+02
