5.691461897127813252e+00 7.487624696559119286e+01 1.970000000000000000e+02
-3.483270205441162837e+00 6.707725402764783951e+01 1.980000000000000000e+02
-2.353825800740363405e+00 6.792834470242348743e+01 1.980000000000000000e+02
-1.224381396039564862e+00 6.877943537719912115e+01 1.980000000000000000e+02
-9.493699133876543073e-02 6.963052605197476908e+01 1.980000000000000000e+02
1.034507413362034889e+00 7.048161672675040279e+01 1.980000000000000000e+02
2.163951818062834764e+00 7.133270740152605072e+01 1.980000000000000000e+02
3.293396222763634640e+00 7.218379807630168443e+01 1.980000000000000000e+02
4.422840627464434071e+00 7.303488875107733236e+01 1.980000000000000000e+02
5.552285032165233503e+00 7.388597942585296607e+01 1.980000000000000000e+02
-3.483270205441162837e+00 6.707725402764783951e+01 1.990000000000000000e+02
-2.353825800740363405e+00 6.792834470242348743e+01 1.990000000000000000e+02
-1.224381396039564862e+00 6.877943537719912115e+01 1.990000000000000000e+02
-9.493699133876543073e-02 6.963052605197476908e+01 1.990000000000000000e+02
1.034507413362034889e+00 7.048161672675040279e+01 1.990000000000000000e+02
2.163951818062834764e+00 7.133270740152605072e+01 1.990000000000000000e+02
3.293396222763634640e+00 7.218379807630168443e+01 1.990000000000000000e+02
4.422840627464434071e+00 7.303488875107733236e+01 1.990000000000000000e+02
5.552285032165233503e+00 7.388597942585296607e+01 1.990000000000000000e+02
-3.483270205441162837e+00 6.707725402764783951e+01 2.000000000000000000e+02
-2.353825800740363405e+00 6.792834470242348743e+01 2.000000000000000000e+02
-1.224381396039564862e+00 6.877943537719912115e+01 2.000000000000000000e+02
-9.493699133876543073e-02 6.963052605197476908e+01 2.000000000000000000e+02
1.034507413362034889e+00 7.048161672675040279e+01 2.000000000000000000e+02
2.163951818062834764e+00 7.133270740152605072e+01 2.000000000000000000e+02
3.293396222763634640e+00 7.218379807630168443e+01 2.000000000000000000e+02
4.422840627464434071e+00 7.303488875107733236e+01 2.000000000000000000e+02
5.552285032165233503e+00 7.388597942585296607e+01 2.000000000000000000e+02
-3.483270205441162837e+00 6.707725402764783951e+01 2.010000000000000000e+02
-2.353825800740363405e+00 6.792834470242348743e+01 2.010000000000000000e+02
-1.224381396039564862e+00 6.877943537719912115e+01 2.010000000000000000e+02
-9.493699133876543073e-02 6.963052605197476908e+01 2.010000000000000000e+02
1.034507413362034889e+00 7.048161672675040279e+01 2.010000000000000000e+02
2.163951818062834764e+00 7.133270740152605072e+01 2.010000000000000000e+02
3.293396222763634640e+00 7.218379807630168443e+01 2.010000000000000000e+02
4.422840627464434071e+00 7.303488875107733236e+01 2.010000000000000000e+02
5.552285032165233503e+00 7.388597942585296607e+01 2.010000000000000000e+02
-3.483270205441162837e+00 6.707725402764783951e+01 2.020000000000000000e+02
-2.353825800740363405e+00 6.792834470242348743e+01 2.020000000000000000e+02
-1.224381396039564862e+00 6.877943537719912115e+01 2.020000000000000000e+02
-9.493699133876543073e-02 6.963052605197476908e+01 2.020000000000000000e+02
1.034507413362034889e+00 7.048161672675040279e+01 2.020000000000000000e+02
2.163951818062834764e+00 7.133270740152605072e+01 2.020000000000000000e+02
3.293396222763634640e+00 7.218379807630168443e+01 2.020000000000000000e+02
4.422840627464434071e+00 7.303488875107733236e+01 2.020000000000000000e+02
5.552285032165233503e+00 7.388597942585296607e+01 2.020000000000000000e+02
-3.483270205441162837e+00 6.707725402764783951e+01 2.030000000000000000e+02
-2.353825800740363405e+00 6.792834470242348743e+01 2.030000000000000000e+02
-1.224381396039564862e+00 6.877943537719912115e+01 2.030000000000000000e+02
-9.493699133876543073e-02 6.963052605197476908e+01 2.030000000000000000e+02
1.034507413362034889e+00 7.048161672675040279e+01 2.030000000000000000e+02
2.163951818062834764e+00 7.133270740152605072e+01 2.030000000000000000e+02
3.293396222763634640e+00 7.218379807630168443e+01 2.030000000000000000e+02
4.422840627464434071e+00 7.303488875107733236e+01 2.030000000000000000e+02
5.552285032165233503e+00 7.388597942585296607e+01 2.030000000000000000e+02
-3.483270205441162837e+00 6.707725402764783951e+01 2.040000000000000000e+02
-2.353825800740363405e+00 6.792834470242348743e+01 2.040000000000000000e+02
-1.224381396039564862e+00 6.877943537719912115e+01 2.040000000000000000e+02
-9.493699133876543073e-02 6.963052605197476908e+01 2.040000000000000000e+02
1.034507413362034889e+00 7.048161672675040279e+01 2.040000000000000000e+02
2.163951818062834764e+00 7.133270740152605072e+01 2.040000000000000000e+02
3.293396222763634640e+00 7.218379807630168443e+01 2.040000000000000000e+02
4.422840627464434071e+00 7.303488875107733236e+01 2.040000000000000000e+02
5.552285032165233503e+00 7.388597942585296607e+01 2.040000000000000000e+02
-3.483270205441162837e+00 6.707725402764783951e+01 2.050000000000000000e+02
-2.353825800740363405e+00 6.792834470242348743e+01 2.050000000000000000e+02
-1.224381396039564862e+00 6.877943537719912115e+01 2.050000000000000000e+02
-9.493699133876543073e-02 6.963052605197476908e+01 2.050000000000000000e+02
1.034507413362034889e+00 7.048161672675040279e+01 2.050000000000000000e+02
2.163951818062834764e+00 7.133270740152605072e+01 2.050000000000000000e+02
3.293396222763634640e+00 7.218379807630168443e+01 2.050000000000000000e+02
4.422840627464434071e+00 7.303488875107733236e+01 2.050000000000000000e+02
5.552285032165233503e+00 7.388597942585296607e+01 2.050000000000000000e+02
-3.483270205441162837e+00 6.707725402764783951e+01 2.060000000000000000e+02
-2.353825800740363405e+00 6.792834470242348743e+01 2.060000000000000000e+02
-1.224381396039564862e+00 6.877943537719912115e+01 2.060000000000000000e+02
-9.493699133876543073e-02 6.963052605197476908e+01 2.060000000000000000e+02
1.034507413362034889e+00 7.048161672675040279e+01 2.060000000000000000e+02
2.163951818062834764e+00 7.133270740152605072e+01 2.060000000000000000e+02
3.293396222763634640e+00 7.218379807630168443e+01 2.060000000000000000e+02
4.422840627464434071e+00 7.303488875107733236e+01 2.060000000000000000e+02
5.552285032165233503e+00 7.388597942585296607e+01 2.060000000000000000e+02
-4.473537745179384295e+00 6.721643089261041837e+01 2.070000000000000000e+02
-3.344093340478583976e+00 6.806752156738606629e+01 2.070000000000000000e+02
-2.214648935777784544e+00 6.891861224216170001e+01 2.070000000000000000e+02
-1.085204531076985113e+00 6.976970291693734794e+01 2.070000000000000000e+02
4.423987362381431865e-02 7.062079359171298165e+01 2.070000000000000000e+02
1.173684278324614194e+00 7.147188426648862958e+01 2.070000000000000000e+02
2.303128683025414070e+00 7.232297494126426329e+01 2.070000000000000000e+02
3.432573087726213945e+00 7.317406561603991122e+01 2.070000000000000000e+02
4.562017492427013821e+00 7.402515629081554493e+01 2.070000000000000000e+02
5.691461897127813252e+00 7.487624696559119286e+01 2.070000000000000000e+02
-4.473537745179384295e+00 6.721643089261041837e+01 2.080000000000000000e+02
-3.344093340478583976e+00 6.806752156738606629e+01 2.080000000000000000e+02
-2.214648935777784544e+00 6.891861224216170001e+01 2.080000000000000000e+02
-1.085204531076985113e+00 6.976970291693734794e+01 2.080000000000000000e+02
4.423987362381431865e-02 7.062079359171298165e+01 2.080000000000000000e+02
1.173684278324614194e+00 7.147188426648862958e+01 2.080000000000000000e+02
2.303128683025414070e+00 7.232297494126426329e+01 2.080000000000000000e+02
3.432573087726213945e+00 7.317406561603991122e+01 2.080000000000000000e+02
4.562017492427013821e+00 7.402515629081554493e+01 2.080000000000000000e+02
5.691461897127813252e+00 7.487624696559119286e+01 2.080000000000000000e+02
-4.473537745179384295e+00 6.721643089261041837e+01 2.090000000000000000e+02
-3.344093340478583976e+00 6.806752156738606629e+01 2.090000000000000000e+02
-2.214648935777784544e+00 6.891861224216170001e+01 2.090000000000000000e+02
-1.085204531076985113e+00 6.976970291693734794e+01 2.090000000000000000e+02
4.423987362381431865e-02 7.062079359171298165e+01 2.090000000000000000e+02
1.173684278324614194e+00 7.147188426648862958e+01 2.090000000000000000e+02
2.303128683025414070e+00 7.232297494126426329e+01 2.090000000000000000e+02
3.432573087726213945e+00 7.317406561603991122e+01 2.090000000000000000e+02
4.562017492427013821e+00 7.402515629081554493e+01 2.090000000000000000e+02
5.691461897127813252e+00 7.487624696559119286e+01 2.090000000000000000e+02
-4.473537745179384295e+00 6.721643089261041837e+01 2.100000000000000000e+02
-3.344093340478583976e+00 6.806752156738606629e+01 2.100000000000000000e+02
-2.214648935777784544e+00 6.891861224216170001e+01 2.100000000000000000e+02
-1.085204531076985113e+00 6.976970291693734794e+01 2.100000000000000000e+02
4.423987362381431865e-02 7.062079359171298165e+01 2.100000000000000000e+02
1.173684278324614194e+00 7.147188426648862958e+01 2.100000000000000000e+02
2.303128683025414070e+00 7.232297494126426329e+01 2.100000000000000000e+02
3.432573087726213945e+00 7.317406561603991122e+01 2.100000000000000000e+02
4.562017492427013821e+00 7.402515629081554493e+01 2.100000000000000000e+02
5.691461897127813252e+00 7.487624696559119286e+01 2.100000000000000000e+02
-3.483270205441162837e+00 6.707725402764783951e+01 2.110000000000000000e+02
-2.353825800740363405e+00 6.792834470242348743e+01 2.110000000000000000e+02
-1.224381396039564862e+00 6.877943537719912115e+01 2.110000000000000000e+02
-9.493699133876543073e-02 6.963052605197476908e+01 2.110000000000000000e+02
1.034507413362034889e+00 7.048161672675040279e+01 2.110000000000000000e+02
2.163951818062834764e+00 7.133270740152605072e+01 2.110000000000000000e+02
3.293396222763634640e+00 7.218379807630168443e+01 2.110000000000000000e+02
4.422840627464434071e+00 7.303488875107733236e+01 2.110000000000000000e+02
5.552285032165233503e+00 7.388597942585296607e+01 2.110000000000000000e+02
-3.483270205441162837e+00 6.707725402764783951e+01 2.120000000000000000e+02
-2.353825800740363405e+00 6.792834470242348743e+01 2.120000000000000000e+02
-1.224381396039564862e+00 6.877943537719912115e+01 2.120000000000000000e+02
-9.493699133876543073e-02 6.963052605197476908e+01 2.120000000000000000e+02
1.034507413362034889e+00 7.048161672675040279e+01 2.120000000000000000e+02
2.163951818062834764e+00 7.133270740152605072e+01 2.120000000000000000e+02
3.293396222763634640e+00 7.218379807630168443e+01 2.120000000000000000e+02
4.422840627464434071e+00 7.303488875107733236e+01 2.120000000000000000e+02
5.552285032165233503e+00 7.388597942585296607e+01 2.120000000000000000e+02
-3.483270205441162837e+00 6.707725402764783951e+01 2.130000000000000000e+02
-2.353825800740363405e+00 6.792834470242348743e+01 2.130000000000000000e+02
-1.224381396039564862e+00 6.877943537719912115e+01 2.130000000000000000e+02
-9.493699133876543073e-02 6.963052605197476908e+01 2.130000000000000000e+02
1.034507413362034889e+00 7.048161672675040279e+01 2.130000000000000000e+02
2.163951818062834764e+00 7.133270740152605072e+01 2.130000000000000000e+02
3.293396222763634640e+00 7.218379807630168443e+01 2.130000000000000000e+02
4.422840627464434071e+00 7.303488875107733236e+01 2.130000000000000000e+02
5.552285032165233503e+00 7.388597942585296607e+01 2.130000000000000000e+02
-3.483270205441162837e+00 6.707725402764783951e+01 2.140000000000000000e+02
-2.353825800740363405e+00 6.792834470242348743e+01 2.140000000000000000e+02
-1.224381396039564862e+00 6.877943537719912115e+01 2.140000000000000000e+02
-9.493699133876543073e-02 6.963052605197476908e+01 2.140000000000000000e+02
1.034507413362034889e+00 7.048161672675040279e+01 2.140000000000000000e+02
2.163951818062834764e+00 7.133270740152605072e+01 2.140000000000000000e+02
3.293396222763634640e+00 7.218379807630168443e+01 2.140000000000000000e+02
4.422840627464434071e+00 7.303488875107733236e+01 2.140000000000000000e+02
5.552285032165233503e+00 7.388597942585296607e+01 2.140000000000000000e+02
-3.483270205441162837e+00 6.707725402764783951e+01 2.150000000000000000e+02
-2.353825800740363405e+00 6.792834470242348743e+01 2.150000000000000000e+02
-1.224381396039564862e+00 6.877943537719912115e+01 2.150000000000000000e+02
-9.493699133876543073e-02 6.963052605197476908e+01 2.150000000000000000e+02
1.034507413362034889e+00 7.048161672675040279e+01 2.150000000000000000e+02
2.163951818062834764e+00 7.133270740152605072e+01 2.150000000000000000e+02
3.293396222763634640e+00 7.218379807630168443e+01 2.150000000000000000e+02
4.422840627464434071e+00 7.303488875107733236e+01 2.150000000000000000e+02
5.552285032165233503e+00 7.388597942585296607e+01 2.150000000000000000e+02
-3.483270205441162837e+00 6.707725402764783951e+01 2.160000000000000000e+02
-2.353825800740363405e+00 6.792834470242348743e+01 2.160000000000000000e+02
-1.224381396039564862e+00 6.877943537719912115e+01 2.160000000000000000e+02
-9.493699133876543073e-02 6.963052605197476908e+01 2.160000000000000000e+02
1.034507413362034889e+00 7.048161672675040279e+01 2.160000000000000000e+02
2.163951818062834764e+00 7.133270740152605072e+01 2.160000000000000000e+02
3.293396222763634640e+00 7.218379807630168443e+01 2.160000000000000000e+02
4.422840627464434071e+00 7.303488875107733236e+01 2.160000000000000000e+02
5.552285032165233503e+00 7.388597942585296607e+01 2.160000000000000000e+02
-3.483270205441162837e+00 6.707725402764783951e+01 2.170000000000000000e+02
-2.353825800740363405e+00 6.792834470242348743e+01 2.170000000000000000e+02
-1.224381396039564862e+00 6.877943537719912115e+01 2.170000000000000000e+02
-9.493699133876543073e-02 6.963052605197476908e+01 2.170000000000000000e+02
1.034507413362034889e+00 7.048161672675040279e+01 2.170000000000000000e+02
2.163951818062834764e+00 7.133270740152605072e+01 2.170000000000000000e+02
3.293396222763634640e+00 7.218379807630168443e+01 2.170000000000000000e+02
4.422840627464434071e+00 7.303488875107733236e+01 2.170000000000000000e+02
5.552285032165233503e+00 7.388597942585296607e+01 2.170000000000000000e+02
6.681729436866033822e+00 7.473707010062861400e+01 2.170000000000000000e+02
-3.483270205441162837e+00 6.707725402764783951e+01 2.180000000000000000e+02
-2.353825800740363405e+00 6.792834470242348743e+01 2.180000000000000000e+02
-1.224381396039564862e+00 6.877943537719912115e+01 2.180000000000000000e+02
-9.493699133876543073e-02 6.963052605197476908e+01 2.180000000000000000e+02
1.034507413362034889e+00 7.048161672675040279e+01 2.180000000000000000e+02
2.163951818062834764e+00 7.133270740152605072e+01 2.180000000000000000e+02
3.293396222763634640e+00 7.218379807630168443e+01 2.180000000000000000e+02
4.422840627464434071e+00 7.303488875107733236e+01 2.180000000000000000e+02
5.552285032165233503e+00 7.388597942585296607e+01 2.180000000000000000e+02
6.681729436866033822e+00 7.473707010062861400e+01 2.180000000000000000e+02
-3.483270205441162837e+00 6.707725402764783951e+01 2.190000000000000000e+02
-2.353825800740363405e+00 6.792834470242348743e+01 2.190000000000000000e+02
-1.224381396039564862e+00 6.877943537719912115e+01 2.190000000000000000e+02
-9.493699133876543073e-02 6.963052605197476908e+01 2.190000000000000000e+02
1.034507413362034889e+00 7.048161672675040279e+01 2.190000000000000000e+02
2.163951818062834764e+00 7.133270740152605072e+01 2.190000000000000000e+02
3.293396222763634640e+00 7.218379807630168443e+01 2.190000000000000000e+02
4.422840627464434071e+00 7.303488875107733236e+01 2.190000000000000000e+02
5.552285032165233503e+00 7.388597942585296607e+01 2.190000000000000000e+02
6.681729436866033822e+00 7.473707010062861400e+01 2.190000000000000000e+02
-3.483270205441162837e+00 6.707725402764783951e+01 2.200000000000000000e+02
-2.353825800740363405e+00 6.792834470242348743e+01 2.200000000000000000e+02
-1.224381396039564862e+00 6.877943537719912115e+01 2.200000000000000000e+02
-9.493699133876543073e-02 6.963052605197476908e+01 2.200000000000000000e+02
1.034507413362034889e+00 7.048161672675040279e+01 2.200000000000000000e+02
2.163951818062834764e+00 7.133270740152605072e+01 2.200000000000000000e+02
3.293396222763634640e+00 7.218379807630168443e+01 2.200000000000000000e+02
4.422840627464434071e+00 7.303488875107733236e+01 2.200000000000000000e+02
5.552285032165233503e+00 7.388597942585296607e+01 2.200000000000000000e+02
6.681729436866033822e+00 7.473707010062861400e+01 2.200000000000000000e+02
-3.483270205441162837e+00 6.707725402764783951e+01 2.210000000000000000e+02
-2.353825800740363405e+00 6.792834470242348743e+01 2.210000000000000000e+02
-1.224381396039564862e+00 6.877943537719912115e+01 2.210000000000000000e+02
-9.493699133876543073e-02 6.963052605197476908e+01 2.210000000000000000e+02
1.034507413362034889e+00 7.048161672675040279e+01 2.210000000000000000e+02
2.163951818062834764e+00 7.133270740152605072e+01 2.210000000000000000e+02
3.293396222763634640e+00 7.218379807630168443e+01 2.210000000000000000e+02
4.422840627464434071e+00 7.303488875107733236e+01 2.210000000000000000e+02
5.552285032165233503e+00 7.388597942585296607e+01 2.210000000000000000e+02
-1.338594560282336943e+01 6.846902267727364233e+01 2.220000000000000000e+02
-1.225650119812256733e+01 6.932011335204927605e+01 2.220000000000000000e+02
-1.112705679342176879e+01 7.017120402682492397e+01 2.220000000000000000e+02
-9.997612388720970245e+00 7.102229470160055769e+01 2.220000000000000000e+02
-8.868167984020168149e+00 7.187338537637620561e+01 2.220000000000000000e+02
-2.091501555815370672e+00 7.697992942503005054e+01 2.220000000000000000e+02
-9.620571511145712407e-01 7.783102009980568425e+01 2.220000000000000000e+02
1.673872535862281907e-01 7.868211077458133218e+01 2.220000000000000000e+02
1.296831658287027622e+00 7.953320144935696590e+01 2.220000000000000000e+02
2.426276062987827498e+00 8.038429212413261382e+01 2.220000000000000000e+02
3.555720467688627373e+00 8.123538279890824754e+01 2.220000000000000000e+02
4.685164872389426804e+00 8.208647347368389546e+01 2.220000000000000000e+02
5.814609277090227124e+00 8.293756414845952918e+01 2.220000000000000000e+02
6.944053681791026555e+00 8.378865482323517710e+01 2.220000000000000000e+02
-1.338594560282336943e+01 6.846902267727364233e+01 2.230000000000000000e+02
-1.225650119812256733e+01 6.932011335204927605e+01 2.230000000000000000e+02
-1.112705679342176879e+01 7.017120402682492397e+01 2.230000000000000000e+02
-9.997612388720970245e+00 7.102229470160055769e+01 2.230000000000000000e+02
-8.868167984020168149e+00 7.187338537637620561e+01 2.230000000000000000e+02
-7.738723579319370494e+00 7.272447605115183933e+01 2.230000000000000000e+02
-2.091501555815370672e+00 7.697992942503005054e+01 2.230000000000000000e+02
-9.620571511145712407e-01 7.783102009980568425e+01 2.230000000000000000e+02
1.673872535862281907e-01 7.868211077458133218e+01 2.230000000000000000e+02
1.296831658287027622e+00 7.953320144935696590e+01 2.230000000000000000e+02
2.426276062987827498e+00 8.038429212413261382e+01 2.230000000000000000e+02
3.555720467688627373e+00 8.123538279890824754e+01 2.230000000000000000e+02
4.685164872389426804e+00 8.208647347368389546e+01 2.230000000000000000e+02
5.814609277090227124e+00 8.293756414845952918e+01 2.230000000000000000e+02
6.944053681791026555e+00 8.378865482323517710e+01 2.230000000000000000e+02
-1.437621314256158911e+01 6.860819954223622119e+01 2.240000000000000000e+02
-1.324676873786079057e+01 6.945929021701185491e+01 2.240000000000000000e+02
-1.211732433315998847e+01 7.031038089178750283e+01 2.240000000000000000e+02
-1.098787992845918993e+01 7.116147156656313655e+01 2.240000000000000000e+02
-9.858435523758391383e+00 7.201256224133878447e+01 2.240000000000000000e+02
-8.728991119057589287e+00 7.286365291611441819e+01 2.240000000000000000e+02
-7.599546714356791632e+00 7.371474359089006612e+01 2.240000000000000000e+02
-6.470102309655989536e+00 7.456583426566569983e+01 2.240000000000000000e+02
-8.228802861519914913e-01 7.882128763954391104e+01 2.240000000000000000e+02
3.065641185488070519e-01 7.967237831431954476e+01 2.240000000000000000e+02
1.436008523249606927e+00 8.052346898909519268e+01 2.240000000000000000e+02
2.565452927950406803e+00 8.137455966387082640e+01 2.240000000000000000e+02
3.694897332651206678e+00 8.222565033864647432e+01 2.240000000000000000e+02
4.824341737352006554e+00 8.307674101342212225e+01 2.240000000000000000e+02
5.953786142052805985e+00 8.392783168819775597e+01 2.240000000000000000e+02
7.083230546753606305e+00 8.477892236297338968e+01 2.240000000000000000e+02
-1.437621314256158911e+01 6.860819954223622119e+01 2.250000000000000000e+02
-1.324676873786079057e+01 6.945929021701185491e+01 2.250000000000000000e+02
-1.211732433315998847e+01 7.031038089178750283e+01 2.250000000000000000e+02
-1.098787992845918993e+01 7.116147156656313655e+01 2.250000000000000000e+02
-9.858435523758391383e+00 7.201256224133878447e+01 2.250000000000000000e+02
-8.728991119057589287e+00 7.286365291611441819e+01 2.250000000000000000e+02
-7.599546714356791632e+00 7.371474359089006612e+01 2.250000000000000000e+02
-6.470102309655989536e+00 7.456583426566569983e+01 2.250000000000000000e+02
3.065641185488070519e-01 7.967237831431954476e+01 2.250000000000000000e+02
1.436008523249606927e+00 8.052346898909519268e+01 2.250000000000000000e+02
2.565452927950406803e+00 8.137455966387082640e+01 2.250000000000000000e+02
3.694897332651206678e+00 8.222565033864647432e+01 2.250000000000000000e+02
4.824341737352006554e+00 8.307674101342212225e+01 2.250000000000000000e+02
5.953786142052805985e+00 8.392783168819775597e+01 2.250000000000000000e+02
-1.536648068229980879e+01 6.874737640719880005e+01 2.260000000000000000e+02
-1.423703627759901025e+01 6.959846708197443377e+01 2.260000000000000000e+02
-1.310759187289821170e+01 7.044955775675008169e+01 2.260000000000000000e+02
-1.197814746819740961e+01 7.130064843152571541e+01 2.260000000000000000e+02
-1.084870306349661107e+01 7.215173910630136334e+01 2.260000000000000000e+02
-9.719258658795812522e+00 7.300282978107699705e+01 2.260000000000000000e+02
-8.589814254095010426e+00 7.385392045585264498e+01 2.260000000000000000e+02
-7.460369849394210995e+00 7.470501113062827869e+01 2.260000000000000000e+02
-6.330925444693410675e+00 7.555610180540392662e+01 2.260000000000000000e+02
1.575185388212186233e+00 8.151373652883340526e+01 2.260000000000000000e+02
2.704629792912986108e+00 8.236482720360905319e+01 2.260000000000000000e+02
3.834074197613785984e+00 8.321591787838468690e+01 2.260000000000000000e+02
-1.635674822203802847e+01 6.888655327216137891e+01 2.270000000000000000e+02
-1.522730381733722993e+01 6.973764394693701263e+01 2.270000000000000000e+02
-1.409785941263643139e+01 7.058873462171266056e+01 2.270000000000000000e+02
-1.296841500793563284e+01 7.143982529648829427e+01 2.270000000000000000e+02
-1.183897060323483075e+01 7.229091597126394220e+01 2.270000000000000000e+02
-1.070952619853403220e+01 7.314200664603957591e+01 2.270000000000000000e+02
-9.580081793833233661e+00 7.399309732081522384e+01 2.270000000000000000e+02
-8.450637389132431565e+00 7.484418799559085755e+01 2.270000000000000000e+02
-7.321192984431632134e+00 7.569527867036650548e+01 2.270000000000000000e+02
-6.191748579730831814e+00 7.654636934514213920e+01 2.270000000000000000e+02
-1.635674822203802847e+01 6.888655327216137891e+01 2.280000000000000000e+02
-1.522730381733722993e+01 6.973764394693701263e+01 2.280000000000000000e+02
-1.409785941263643139e+01 7.058873462171266056e+01 2.280000000000000000e+02
-1.296841500793563284e+01 7.143982529648829427e+01 2.280000000000000000e+02
-1.183897060323483075e+01 7.229091597126394220e+01 2.280000000000000000e+02
-1.070952619853403220e+01 7.314200664603957591e+01 2.280000000000000000e+02
-9.580081793833233661e+00 7.399309732081522384e+01 2.280000000000000000e+02
-8.450637389132431565e+00 7.484418799559085755e+01 2.280000000000000000e+02
-7.321192984431632134e+00 7.569527867036650548e+01 2.280000000000000000e+02
-6.191748579730831814e+00 7.654636934514213920e+01 2.280000000000000000e+02
-1.536648068229980879e+01 6.874737640719880005e+01 2.290000000000000000e+02
-1.423703627759901025e+01 6.959846708197443377e+01 2.290000000000000000e+02
-1.310759187289821170e+01 7.044955775675008169e+01 2.290000000000000000e+02
-1.197814746819740961e+01 7.130064843152571541e+01 2.290000000000000000e+02
-1.084870306349661107e+01 7.215173910630136334e+01 2.290000000000000000e+02
-9.719258658795812522e+00 7.300282978107699705e+01 2.290000000000000000e+02
-8.589814254095010426e+00 7.385392045585264498e+01 2.290000000000000000e+02
-7.460369849394210995e+00 7.470501113062827869e+01 2.290000000000000000e+02
-6.330925444693410675e+00 7.555610180540392662e+01 2.290000000000000000e+02
-1.536648068229980879e+01 6.874737640719880005e+01 2.300000000000000000e+02
-1.423703627759901025e+01 6.959846708197443377e+01 2.300000000000000000e+02
-1.310759187289821170e+01 7.044955775675008169e+01 2.300000000000000000e+02
-1.197814746819740961e+01 7.130064843152571541e+01 2.300000000000000000e+02
-1.084870306349661107e+01 7.215173910630136334e+01 2.300000000000000000e+02
-9.719258658795812522e+00 7.300282978107699705e+01 2.300000000000000000e+02
-8.589814254095010426e+00 7.385392045585264498e+01 2.300000000000000000e+02
-7.460369849394210995e+00 7.470501113062827869e+01 2.300000000000000000e+02
-6.330925444693410675e+00 7.555610180540392662e+01 2.300000000000000000e+02
-1.536648068229980879e+01 6.874737640719880005e+01 2.310000000000000000e+02
-1.423703627759901025e+01 6.959846708197443377e+01 2.310000000000000000e+02
-1.310759187289821170e+01 7.044955775675008169e+01 2.310000000000000000e+02
-1.197814746819740961e+01 7.130064843152571541e+01 2.310000000000000000e+02
-1.084870306349661107e+01 7.215173910630136334e+01 2.310000000000000000e+02
-9.719258658795812522e+00 7.300282978107699705e+01 2.310000000000000000e+02
-8.589814254095010426e+00 7.385392045585264498e+01 2.310000000000000000e+02
-7.460369849394210995e+00 7.470501113062827869e+01 2.310000000000000000e+02
-6.330925444693410675e+00 7.555610180540392662e+01 2.310000000000000000e+02
-1.437621314256158911e+01 6.860819954223622119e+01 2.320000000000000000e+02
-1.324676873786079057e+01 6.945929021701185491e+01 2.320000000000000000e+02
-1.211732433315998847e+01 7.031038089178750283e+01 2.320000000000000000e+02
-1.098787992845918993e+01 7.116147156656313655e+01 2.320000000000000000e+02
-9.858435523758391383e+00 7.201256224133878447e+01 2.320000000000000000e+02
-8.728991119057589287e+00 7.286365291611441819e+01 2.320000000000000000e+02
-7.599546714356791632e+00 7.371474359089006612e+01 2.320000000000000000e+02
-1.437621314256158911e+01 6.860819954223622119e+01 2.330000000000000000e+02
-1.324676873786079057e+01 6.945929021701185491e+01 2.330000000000000000e+02
-1.211732433315998847e+01 7.031038089178750283e+01 2.330000000000000000e+02
-1.098787992845918993e+01 7.116147156656313655e+01 2.330000000000000000e+02
-9.858435523758391383e+00 7.201256224133878447e+01 2.330000000000000000e+02
-8.728991119057589287e+00 7.286365291611441819e+01 2.330000000000000000e+02
-7.599546714356791632e+00 7.371474359089006612e+01 2.330000000000000000e+02
-1.437621314256158911e+01 6.860819954223622119e+01 2.340000000000000000e+02
-1.324676873786079057e+01 6.945929021701185491e+01 2.340000000000000000e+02
-1.211732433315998847e+01 7.031038089178750283e+01 2.340000000000000000e+02
-1.098787992845918993e+01 7.116147156656313655e+01 2.340000000000000000e+02
-9.858435523758391383e+00 7.201256224133878447e+01 2.340000000000000000e+02
-8.728991119057589287e+00 7.286365291611441819e+01 2.340000000000000000e+02
-7.599546714356791632e+00 7.371474359089006612e+01 2.340000000000000000e+02
9.342119356155205168e+00 8.648110371252468553e+01 2.340000000000000000e+02
1.047156376085600549e+01 8.733219438730031925e+01 2.340000000000000000e+02
1.160100816555680581e+01 8.818328506207596718e+01 2.340000000000000000e+02
-1.338594560282336943e+01 6.846902267727364233e+01 2.350000000000000000e+02
-1.225650119812256733e+01 6.932011335204927605e+01 2.350000000000000000e+02
-1.112705679342176879e+01 7.017120402682492397e+01 2.350000000000000000e+02
-9.997612388720970245e+00 7.102229470160055769e+01 2.350000000000000000e+02
6.944053681791026555e+00 8.378865482323517710e+01 2.350000000000000000e+02
8.073498086491825987e+00 8.463974549801082503e+01 2.350000000000000000e+02
9.202942491192626306e+00 8.549083617278645875e+01 2.350000000000000000e+02
1.033238689589342485e+01 8.634192684756209246e+01 2.350000000000000000e+02
1.146183130059422695e+01 8.719301752233774039e+01 2.350000000000000000e+02
1.259127570529502549e+01 8.804410819711338831e+01 2.350000000000000000e+02
-1.239567806308514619e+01 6.832984581231106347e+01 2.360000000000000000e+02
5.675432412127647375e+00 8.194729660872131660e+01 2.360000000000000000e+02
6.804876816828447694e+00 8.279838728349695032e+01 2.360000000000000000e+02
7.934321221529247126e+00 8.364947795827259824e+01 2.360000000000000000e+02
9.063765626230047445e+00 8.450056863304823196e+01 2.360000000000000000e+02
1.019321003093084599e+01 8.535165930782387989e+01 2.360000000000000000e+02
1.132265443563164631e+01 8.620274998259952781e+01 2.360000000000000000e+02
1.245209884033244663e+01 8.705384065737516153e+01 2.360000000000000000e+02
1.358154324503324517e+01 8.790493133215079524e+01 2.360000000000000000e+02
3.448602572726379378e+00 6.610301597290978748e+01 2.370000000000000000e+02
4.578046977427178810e+00 6.695410664768543541e+01 2.370000000000000000e+02
5.707491382127978241e+00 6.780519732246106912e+01 2.370000000000000000e+02
6.836935786828778561e+00 6.865628799723671705e+01 2.370000000000000000e+02
7.966380191529578880e+00 6.950737867201235076e+01 2.370000000000000000e+02
9.095824596230377423e+00 7.035846934678799869e+01 2.370000000000000000e+02
1.022526900093117774e+01 7.120956002156363240e+01 2.370000000000000000e+02
1.135471340563197629e+01 7.206065069633928033e+01 2.370000000000000000e+02
4.438870112464599949e+00 6.596383910794720862e+01 2.380000000000000000e+02
5.568314517165399380e+00 6.681492978272285654e+01 2.380000000000000000e+02
6.697758921866199699e+00 6.766602045749849026e+01 2.380000000000000000e+02
7.827203326566999131e+00 6.851711113227413819e+01 2.380000000000000000e+02
8.956647731267798562e+00 6.936820180704977190e+01 2.380000000000000000e+02
1.008609213596859888e+01 7.021929248182541983e+01 2.380000000000000000e+02
1.121553654066939743e+01 7.107038315660105354e+01 2.380000000000000000e+02
1.234498094537019774e+01 7.192147383137670147e+01 2.380000000000000000e+02
4.438870112464599949e+00 6.596383910794720862e+01 2.390000000000000000e+02
5.568314517165399380e+00 6.681492978272285654e+01 2.390000000000000000e+02
6.697758921866199699e+00 6.766602045749849026e+01 2.390000000000000000e+02
7.827203326566999131e+00 6.851711113227413819e+01 2.390000000000000000e+02
8.956647731267798562e+00 6.936820180704977190e+01 2.390000000000000000e+02
1.008609213596859888e+01 7.021929248182541983e+01 2.390000000000000000e+02
1.121553654066939743e+01 7.107038315660105354e+01 2.390000000000000000e+02
1.234498094537019774e+01 7.192147383137670147e+01 2.390000000000000000e+02
4.438870112464599949e+00 6.596383910794720862e+01 2.400000000000000000e+02
5.568314517165399380e+00 6.681492978272285654e+01 2.400000000000000000e+02
6.697758921866199699e+00 6.766602045749849026e+01 2.400000000000000000e+02
7.827203326566999131e+00 6.851711113227413819e+01 2.400000000000000000e+02
8.956647731267798562e+00 6.936820180704977190e+01 2.400000000000000000e+02
1.008609213596859888e+01 7.021929248182541983e+01 2.400000000000000000e+02
1.121553654066939743e+01 7.107038315660105354e+01 2.400000000000000000e+02
1.234498094537019774e+01 7.192147383137670147e+01 2.400000000000000000e+02
4.438870112464599949e+00 6.596383910794720862e+01 2.410000000000000000e+02
5.568314517165399380e+00 6.681492978272285654e+01 2.410000000000000000e+02
6.697758921866199699e+00 6.766602045749849026e+01 2.410000000000000000e+02
7.827203326566999131e+00 6.851711113227413819e+01 2.410000000000000000e+02
8.956647731267798562e+00 6.936820180704977190e+01 2.410000000000000000e+02
1.008609213596859888e+01 7.021929248182541983e+01 2.410000000000000000e+02
1.121553654066939743e+01 7.107038315660105354e+01 2.410000000000000000e+02
1.234498094537019774e+01 7.192147383137670147e+01 2.410000000000000000e+02
4.438870112464599949e+00 6.596383910794720862e+01 2.420000000000000000e+02
5.568314517165399380e+00 6.681492978272285654e+01 2.420000000000000000e+02
6.697758921866199699e+00 6.766602045749849026e+01 2.420000000000000000e+02
7.827203326566999131e+00 6.851711113227413819e+01 2.420000000000000000e+02
8.956647731267798562e+00 6.936820180704977190e+01 2.420000000000000000e+02
1.008609213596859888e+01 7.021929248182541983e+01 2.420000000000000000e+02
1.121553654066939743e+01 7.107038315660105354e+01 2.420000000000000000e+02
1.234498094537019774e+01 7.192147383137670147e+01 2.420000000000000000e+02
4.438870112464599949e+00 6.596383910794720862e+01 2.430000000000000000e+02
5.568314517165399380e+00 6.681492978272285654e+01 2.430000000000000000e+02
6.697758921866199699e+00 6.766602045749849026e+01 2.430000000000000000e+02
7.827203326566999131e+00 6.851711113227413819e+01 2.430000000000000000e+02
8.956647731267798562e+00 6.936820180704977190e+01 2.430000000000000000e+02
1.008609213596859888e+01 7.021929248182541983e+01 2.430000000000000000e+02
1.121553654066939743e+01 7.107038315660105354e+01 2.430000000000000000e+02
1.234498094537019774e+01 7.192147383137670147e+01 2.430000000000000000e+02
4.438870112464599949e+00 6.596383910794720862e+01 2.440000000000000000e+02
5.568314517165399380e+00 6.681492978272285654e+01 2.440000000000000000e+02
6.697758921866199699e+00 6.766602045749849026e+01 2.440000000000000000e+02
7.827203326566999131e+00 6.851711113227413819e+01 2.440000000000000000e+02
8.956647731267798562e+00 6.936820180704977190e+01 2.440000000000000000e+02
1.008609213596859888e+01 7.021929248182541983e+01 2.440000000000000000e+02
1.121553654066939743e+01 7.107038315660105354e+01 2.440000000000000000e+02
1.234498094537019774e+01 7.192147383137670147e+01 2.440000000000000000e+02
4.438870112464599949e+00 6.596383910794720862e+01 2.450000000000000000e+02
5.568314517165399380e+00 6.681492978272285654e+01 2.450000000000000000e+02
6.697758921866199699e+00 6.766602045749849026e+01 2.450000000000000000e+02
7.827203326566999131e+00 6.851711113227413819e+01 2.450000000000000000e+02
8.956647731267798562e+00 6.936820180704977190e+01 2.450000000000000000e+02
1.008609213596859888e+01 7.021929248182541983e+01 2.450000000000000000e+02
1.121553654066939743e+01 7.107038315660105354e+01 2.450000000000000000e+02
1.234498094537019774e+01 7.192147383137670147e+01 2.450000000000000000e+02
4.438870112464599949e+00 6.596383910794720862e+01 2.460000000000000000e+02
5.568314517165399380e+00 6.681492978272285654e+01 2.460000000000000000e+02
6.697758921866199699e+00 6.766602045749849026e+01 2.460000000000000000e+02
7.827203326566999131e+00 6.851711113227413819e+01 2.460000000000000000e+02
8.956647731267798562e+00 6.936820180704977190e+01 2.460000000000000000e+02
1.008609213596859888e+01 7.021929248182541983e+01 2.460000000000000000e+02
1.121553654066939743e+01 7.107038315660105354e+01 2.460000000000000000e+02
1.234498094537019774e+01 7.192147383137670147e+01 2.460000000000000000e+02
4.438870112464599949e+00 6.596383910794720862e+01 2.470000000000000000e+02
5.568314517165399380e+00 6.681492978272285654e+01 2.470000000000000000e+02
6.697758921866199699e+00 6.766602045749849026e+01 2.470000000000000000e+02
7.827203326566999131e+00 6.851711113227413819e+01 2.470000000000000000e+02
8.956647731267798562e+00 6.936820180704977190e+01 2.470000000000000000e+02
1.008609213596859888e+01 7.021929248182541983e+01 2.470000000000000000e+02
1.121553654066939743e+01 7.107038315660105354e+01 2.470000000000000000e+02
1.234498094537019774e+01 7.192147383137670147e+01 2.470000000000000000e+02
4.438870112464599949e+00 6.596383910794720862e+01 2.480000000000000000e+02
5.568314517165399380e+00 6.681492978272285654e+01 2.480000000000000000e+02
6.697758921866199699e+00 6.766602045749849026e+01 2.480000000000000000e+02
7.827203326566999131e+00 6.851711113227413819e+01 2.480000000000000000e+02
8.956647731267798562e+00 6.936820180704977190e+01 2.480000000000000000e+02
1.008609213596859888e+01 7.021929248182541983e+01 2.480000000000000000e+02
1.121553654066939743e+01 7.107038315660105354e+01 2.480000000000000000e+02
1.234498094537019774e+01 7.192147383137670147e+01 2.480000000000000000e+02
4.438870112464599949e+00 6.596383910794720862e+01 2.490000000000000000e+02
5.568314517165399380e+00 6.681492978272285654e+01 2.490000000000000000e+02
6.697758921866199699e+00 6.766602045749849026e+01 2.490000000000000000e+02
7.827203326566999131e+00 6.851711113227413819e+01 2.490000000000000000e+02
8.956647731267798562e+00 6.936820180704977190e+01 2.490000000000000000e+02
1.008609213596859888e+01 7.021929248182541983e+01 2.490000000000000000e+02
1.121553654066939743e+01 7.107038315660105354e+01 2.490000000000000000e+02
1.234498094537019774e+01 7.192147383137670147e+01 2.490000000000000000e+02
4.438870112464599949e+00 6.596383910794720862e+01 2.500000000000000000e+02
5.568314517165399380e+00 6.681492978272285654e+01 2.500000000000000000e+02
6.697758921866199699e+00 6.766602045749849026e+01 2.500000000000000000e+02
7.827203326566999131e+00 6.851711113227413819e+01 2.500000000000000000e+02
8.956647731267798562e+00 6.936820180704977190e+01 2.500000000000000000e+02
1.008609213596859888e+01 7.021929248182541983e+01 2.500000000000000000e+02
1.121553654066939743e+01 7.107038315660105354e+01 2.500000000000000000e+02
1.234498094537019774e+01 7.192147383137670147e+01 2.500000000000000000e+02
4.438870112464599949e+00 6.596383910794720862e+01 2.510000000000000000e+02
5.568314517165399380e+00 6.681492978272285654e+01 2.510000000000000000e+02
6.697758921866199699e+00 6.766602045749849026e+01 2.510000000000000000e+02
7.827203326566999131e+00 6.851711113227413819e+01 2.510000000000000000e+02
8.956647731267798562e+00 6.936820180704977190e+01 2.510000000000000000e+02
1.008609213596859888e+01 7.021929248182541983e+01 2.510000000000000000e+02
1.121553654066939743e+01 7.107038315660105354e+01 2.510000000000000000e+02
1.234498094537019774e+01 7.192147383137670147e+01 2.510000000000000000e+02
4.438870112464599949e+00 6.596383910794720862e+01 2.520000000000000000e+02
5.568314517165399380e+00 6.681492978272285654e+01 2.520000000000000000e+02
6.697758921866199699e+00 6.766602045749849026e+01 2.520000000000000000e+02
7.827203326566999131e+00 6.851711113227413819e+01 2.520000000000000000e+02
8.956647731267798562e+00 6.936820180704977190e+01 2.520000000000000000e+02
1.008609213596859888e+01 7.021929248182541983e+01 2.520000000000000000e+02
1.121553654066939743e+01 7.107038315660105354e+01 2.520000000000000000e+02
1.234498094537019774e+01 7.192147383137670147e+01 2.520000000000000000e+02
4.438870112464599949e+00 6.596383910794720862e+01 2.530000000000000000e+02
5.568314517165399380e+00 6.681492978272285654e+01 2.530000000000000000e+02
6.697758921866199699e+00 6.766602045749849026e+01 2.530000000000000000e+02
7.827203326566999131e+00 6.851711113227413819e+01 2.530000000000000000e+02
8.956647731267798562e+00 6.936820180704977190e+01 2.530000000000000000e+02
1.008609213596859888e+01 7.021929248182541983e+01 2.530000000000000000e+02
1.121553654066939743e+01 7.107038315660105354e+01 2.530000000000000000e+02
1.234498094537019774e+01 7.192147383137670147e+01 2.530000000000000000e+02
4.438870112464599949e+00 6.596383910794720862e+01 2.540000000000000000e+02
5.568314517165399380e+00 6.681492978272285654e+01 2.540000000000000000e+02
6.697758921866199699e+00 6.766602045749849026e+01 2.540000000000000000e+02
7.827203326566999131e+00 6.851711113227413819e+01 2.540000000000000000e+02
8.956647731267798562e+00 6.936820180704977190e+01 2.540000000000000000e+02
1.008609213596859888e+01 7.021929248182541983e+01 2.540000000000000000e+02
1.121553654066939743e+01 7.107038315660105354e+01 2.540000000000000000e+02
1.234498094537019774e+01 7.192147383137670147e+01 2.540000000000000000e+02
4.438870112464599949e+00 6.596383910794720862e+01 2.550000000000000000e+02
5.568314517165399380e+00 6.681492978272285654e+01 2.550000000000000000e+02
6.697758921866199699e+00 6.766602045749849026e+01 2.550000000000000000e+02
7.827203326566999131e+00 6.851711113227413819e+01 2.550000000000000000e+02
8.956647731267798562e+00 6.936820180704977190e+01 2.550000000000000000e+02
1.008609213596859888e+01 7.021929248182541983e+01 2.550000000000000000e+02
1.121553654066939743e+01 7.107038315660105354e+01 2.550000000000000000e+02
1.234498094537019774e+01 7.192147383137670147e+01 2.550000000000000000e+02
4.438870112464599949e+00 6.596383910794720862e+01 2.560000000000000000e+02
5.568314517165399380e+00 6.681492978272285654e+01 2.560000000000000000e+02
6.697758921866199699e+00 6.766602045749849026e+01 2.560000000000000000e+02
7.827203326566999131e+00 6.851711113227413819e+01 2.560000000000000000e+02
8.956647731267798562e+00 6.936820180704977190e+01 2.560000000000000000e+02
1.008609213596859888e+01 7.021929248182541983e+01 2.560000000000000000e+02
1.121553654066939743e+01 7.107038315660105354e+01 2.560000000000000000e+02
1.234498094537019774e+01 7.192147383137670147e+01 2.560000000000000000e+02
4.438870112464599949e+00 6.596383910794720862e+01 2.570000000000000000e+02
5.568314517165399380e+00 6.681492978272285654e+01 2.570000000000000000e+02
6.697758921866199699e+00 6.766602045749849026e+01 2.570000000000000000e+02
7.827203326566999131e+00 6.851711113227413819e+01 2.570000000000000000e+02
8.956647731267798562e+00 6.936820180704977190e+01 2.570000000000000000e+02
1.008609213596859888e+01 7.021929248182541983e+01 2.570000000000000000e+02
1.121553654066939743e+01 7.107038315660105354e+01 2.570000000000000000e+02
1.234498094537019774e+01 7.192147383137670147e+01 2.570000000000000000e+02
4.438870112464599949e+00 6.596383910794720862e+01 2.580000000000000000e+02
5.568314517165399380e+00 6.681492978272285654e+01 2.580000000000000000e+02
6.697758921866199699e+00 6.766602045749849026e+01 2.580000000000000000e+02
7.827203326566999131e+00 6.851711113227413819e+01 2.580000000000000000e+02
8.956647731267798562e+00 6.936820180704977190e+01 2.580000000000000000e+02
1.008609213596859888e+01 7.021929248182541983e+01 2.580000000000000000e+02
1.121553654066939743e+01 7.107038315660105354e+01 2.580000000000000000e+02
1.234498094537019774e+01 7.192147383137670147e+01 2.580000000000000000e+02
4.438870112464599949e+00 6.596383910794720862e+01 2.590000000000000000e+02
5.568314517165399380e+00 6.681492978272285654e+01 2.590000000000000000e+02
6.697758921866199699e+00 6.766602045749849026e+01 2.590000000000000000e+02
7.827203326566999131e+00 6.851711113227413819e+01 2.590000000000000000e+02
8.956647731267798562e+00 6.936820180704977190e+01 2.590000000000000000e+02
1.008609213596859888e+01 7.021929248182541983e+01 2.590000000000000000e+02
1.121553654066939743e+01 7.107038315660105354e+01 2.590000000000000000e+02
1.234498094537019774e+01 7.192147383137670147e+01 2.590000000000000000e+02
4.438870112464599949e+00 6.596383910794720862e+01 2.600000000000000000e+02
5.568314517165399380e+00 6.681492978272285654e+01 2.600000000000000000e+02
6.697758921866199699e+00 6.766602045749849026e+01 2.600000000000000000e+02
7.827203326566999131e+00 6.851711113227413819e+01 2.600000000000000000e+02
8.956647731267798562e+00 6.936820180704977190e+01 2.600000000000000000e+02
1.008609213596859888e+01 7.021929248182541983e+01 2.600000000000000000e+02
1.121553654066939743e+01 7.107038315660105354e+01 2.600000000000000000e+02
5.429137652202820519e+00 6.582466224298462976e+01 2.610000000000000000e+02
6.558582056903619950e+00 6.667575291776027768e+01 2.610000000000000000e+02
7.688026461604419382e+00 6.752684359253591140e+01 2.610000000000000000e+02
8.817470866305219701e+00 6.837793426731155932e+01 2.610000000000000000e+02
9.946915271006020021e+00 6.922902494208719304e+01 2.610000000000000000e+02
1.107635967570681856e+01 7.008011561686284097e+01 2.610000000000000000e+02
6.419405191941040201e+00 6.568548537802205090e+01 2.620000000000000000e+02
7.548849596641840520e+00 6.653657605279769882e+01 2.620000000000000000e+02
8.678294001342639064e+00 6.738766672757333254e+01 2.620000000000000000e+02
9.807738406043441159e+00 6.823875740234898046e+01 2.620000000000000000e+02
1.093718281074423970e+01 6.908984807712461418e+01 2.620000000000000000e+02
5.429137652202820519e+00 6.582466224298462976e+01 2.630000000000000000e+02
6.558582056903619950e+00 6.667575291776027768e+01 2.630000000000000000e+02
7.688026461604419382e+00 6.752684359253591140e+01 2.630000000000000000e+02
8.817470866305219701e+00 6.837793426731155932e+01 2.630000000000000000e+02
9.946915271006020021e+00 6.922902494208719304e+01 2.630000000000000000e+02
1.107635967570681856e+01 7.008011561686284097e+01 2.630000000000000000e+02
4.438870112464599949e+00 6.596383910794720862e+01 2.640000000000000000e+02
5.568314517165399380e+00 6.681492978272285654e+01 2.640000000000000000e+02
6.697758921866199699e+00 6.766602045749849026e+01 2.640000000000000000e+02
7.827203326566999131e+00 6.851711113227413819e+01 2.640000000000000000e+02
8.956647731267798562e+00 6.936820180704977190e+01 2.640000000000000000e+02
1.008609213596859888e+01 7.021929248182541983e+01 2.640000000000000000e+02
1.121553654066939743e+01 7.107038315660105354e+01 2.640000000000000000e+02
1.234498094537019774e+01 7.192147383137670147e+01 2.640000000000000000e+02
4.438870112464599949e+00 6.596383910794720862e+01 2.650000000000000000e+02
5.568314517165399380e+00 6.681492978272285654e+01 2.650000000000000000e+02
6.697758921866199699e+00 6.766602045749849026e+01 2.650000000000000000e+02
7.827203326566999131e+00 6.851711113227413819e+01 2.650000000000000000e+02
8.956647731267798562e+00 6.936820180704977190e+01 2.650000000000000000e+02
1.008609213596859888e+01 7.021929248182541983e+01 2.650000000000000000e+02
1.121553654066939743e+01 7.107038315660105354e+01 2.650000000000000000e+02
1.234498094537019774e+01 7.192147383137670147e+01 2.650000000000000000e+02
4.438870112464599949e+00 6.596383910794720862e+01 2.660000000000000000e+02
5.568314517165399380e+00 6.681492978272285654e+01 2.660000000000000000e+02
6.697758921866199699e+00 6.766602045749849026e+01 2.660000000000000000e+02
7.827203326566999131e+00 6.851711113227413819e+01 2.660000000000000000e+02
8.956647731267798562e+00 6.936820180704977190e+01 2.660000000000000000e+02
1.008609213596859888e+01 7.021929248182541983e+01 2.660000000000000000e+02
1.121553654066939743e+01 7.107038315660105354e+01 2.660000000000000000e+02
1.234498094537019774e+01 7.192147383137670147e+01 2.660000000000000000e+02
4.438870112464599949e+00 6.596383910794720862e+01 2.670000000000000000e+02
5.568314517165399380e+00 6.681492978272285654e+01 2.670000000000000000e+02
6.697758921866199699e+00 6.766602045749849026e+01 2.670000000000000000e+02
7.827203326566999131e+00 6.851711113227413819e+01 2.670000000000000000e+02
8.956647731267798562e+00 6.936820180704977190e+01 2.670000000000000000e+02
1.008609213596859888e+01 7.021929248182541983e+01 2.670000000000000000e+02
1.121553654066939743e+01 7.107038315660105354e+01 2.670000000000000000e+02
1.234498094537019774e+01 7.192147383137670147e+01 2.670000000000000000e+02
4.438870112464599949e+00 6.596383910794720862e+01 2.680000000000000000e+02
5.568314517165399380e+00 6.681492978272285654e+01 2.680000000000000000e+02
6.697758921866199699e+00 6.766602045749849026e+01 2.680000000000000000e+02
7.827203326566999131e+00 6.851711113227413819e+01 2.680000000000000000e+02
8.956647731267798562e+00 6.936820180704977190e+01 2.680000000000000000e+02
1.008609213596859888e+01 7.021929248182541983e+01 2.680000000000000000e+02
1.121553654066939743e+01 7.107038315660105354e+01 2.680000000000000000e+02
1.234498094537019774e+01 7.192147383137670147e+01 2.680000000000000000e+02
4.438870112464599949e+00 6.596383910794720862e+01 2.690000000000000000e+02
5.568314517165399380e+00 6.681492978272285654e+01 2.690000000000000000e+02
6.697758921866199699e+00 6.766602045749849026e+01 2.690000000000000000e+02
