4.640293994840649638e+00 -5.760949178486165501e+00 3.220000000000000000e+02
4.324605019211861467e+00 -7.139477549854142069e+00 3.220000000000000000e+02
4.008916043583073296e+00 -8.518005921222119525e+00 3.220000000000000000e+02
3.693227067954284681e+00 -9.896534292590096982e+00 3.220000000000000000e+02
3.377538092325496510e+00 -1.127506266395807089e+01 3.220000000000000000e+02
7.065847546482972419e+00 1.663112376223312872e+00 3.230000000000000000e+02
6.750158570854185136e+00 2.845840048553363033e-01 3.230000000000000000e+02
6.434469595225396077e+00 -1.093944366512640709e+00 3.230000000000000000e+02
6.118780619596607906e+00 -2.472472737880617721e+00 3.230000000000000000e+02
5.803091643967819735e+00 -3.851001109248594290e+00 3.230000000000000000e+02
5.487402668339031564e+00 -5.229529480616570858e+00 3.230000000000000000e+02
5.171713692710243393e+00 -6.608057851984547426e+00 3.230000000000000000e+02
4.856024717081455222e+00 -7.986586223352524883e+00 3.230000000000000000e+02
4.540335741452667051e+00 -9.365114594720502339e+00 3.230000000000000000e+02
4.224646765823878880e+00 -1.074364296608847802e+01 3.230000000000000000e+02
3.908957790195091153e+00 -1.212217133745645370e+01 3.230000000000000000e+02
6.218738872984590493e+00 1.131692678353718229e+00 3.240000000000000000e+02
5.903049897355802322e+00 -2.468356930142583394e-01 3.240000000000000000e+02
5.587360921727014151e+00 -1.625364064382234908e+00 3.240000000000000000e+02
5.271671946098225980e+00 -3.003892435750211476e+00 3.240000000000000000e+02
4.955982970469437809e+00 -4.382420807118188932e+00 3.240000000000000000e+02
4.640293994840649638e+00 -5.760949178486165501e+00 3.240000000000000000e+02
4.324605019211861467e+00 -7.139477549854142069e+00 3.240000000000000000e+02
4.008916043583073296e+00 -8.518005921222119525e+00 3.240000000000000000e+02
3.693227067954284681e+00 -9.896534292590096982e+00 3.240000000000000000e+02
3.377538092325496510e+00 -1.127506266395807089e+01 3.240000000000000000e+02
6.218738872984590493e+00 1.131692678353718229e+00 3.250000000000000000e+02
5.903049897355802322e+00 -2.468356930142583394e-01 3.250000000000000000e+02
5.587360921727014151e+00 -1.625364064382234908e+00 3.250000000000000000e+02
5.271671946098225980e+00 -3.003892435750211476e+00 3.250000000000000000e+02
4.955982970469437809e+00 -4.382420807118188932e+00 3.250000000000000000e+02
4.640293994840649638e+00 -5.760949178486165501e+00 3.250000000000000000e+02
4.324605019211861467e+00 -7.139477549854142069e+00 3.250000000000000000e+02
4.008916043583073296e+00 -8.518005921222119525e+00 3.250000000000000000e+02
3.693227067954284681e+00 -9.896534292590096982e+00 3.250000000000000000e+02
3.377538092325496510e+00 -1.127506266395807089e+01 3.250000000000000000e+02
6.218738872984590493e+00 1.131692678353718229e+00 3.260000000000000000e+02
5.903049897355802322e+00 -2.468356930142583394e-01 3.260000000000000000e+02
5.587360921727014151e+00 -1.625364064382234908e+00 3.260000000000000000e+02
5.271671946098225980e+00 -3.003892435750211476e+00 3.260000000000000000e+02
4.955982970469437809e+00 -4.382420807118188932e+00 3.260000000000000000e+02
4.640293994840649638e+00 -5.760949178486165501e+00 3.260000000000000000e+02
4.324605019211861467e+00 -7.139477549854142069e+00 3.260000000000000000e+02
4.008916043583073296e+00 -8.518005921222119525e+00 3.260000000000000000e+02
3.693227067954284681e+00 -9.896534292590096982e+00 3.260000000000000000e+02
3.377538092325496510e+00 -1.127506266395807089e+01 3.260000000000000000e+02
6.218738872984590493e+00 1.131692678353718229e+00 3.270000000000000000e+02
5.903049897355802322e+00 -2.468356930142583394e-01 3.270000000000000000e+02
5.587360921727014151e+00 -1.625364064382234908e+00 3.270000000000000000e+02
5.271671946098225980e+00 -3.003892435750211476e+00 3.270000000000000000e+02
4.955982970469437809e+00 -4.382420807118188932e+00 3.270000000000000000e+02
4.640293994840649638e+00 -5.760949178486165501e+00 3.270000000000000000e+02
4.324605019211861467e+00 -7.139477549854142069e+00 3.270000000000000000e+02
4.008916043583073296e+00 -8.518005921222119525e+00 3.270000000000000000e+02
3.693227067954284681e+00 -9.896534292590096982e+00 3.270000000000000000e+02
3.377538092325496510e+00 -1.127506266395807089e+01 3.270000000000000000e+02
6.218738872984590493e+00 1.131692678353718229e+00 3.280000000000000000e+02
5.903049897355802322e+00 -2.468356930142583394e-01 3.280000000000000000e+02
5.587360921727014151e+00 -1.625364064382234908e+00 3.280000000000000000e+02
5.271671946098225980e+00 -3.003892435750211476e+00 3.280000000000000000e+02
4.955982970469437809e+00 -4.382420807118188932e+00 3.280000000000000000e+02
4.640293994840649638e+00 -5.760949178486165501e+00 3.280000000000000000e+02
4.324605019211861467e+00 -7.139477549854142069e+00 3.280000000000000000e+02
4.008916043583073296e+00 -8.518005921222119525e+00 3.280000000000000000e+02
3.693227067954284681e+00 -9.896534292590096982e+00 3.280000000000000000e+02
6.218738872984590493e+00 1.131692678353718229e+00 3.290000000000000000e+02
5.903049897355802322e+00 -2.468356930142583394e-01 3.290000000000000000e+02
5.587360921727014151e+00 -1.625364064382234908e+00 3.290000000000000000e+02
5.271671946098225980e+00 -3.003892435750211476e+00 3.290000000000000000e+02
4.955982970469437809e+00 -4.382420807118188932e+00 3.290000000000000000e+02
4.640293994840649638e+00 -5.760949178486165501e+00 3.290000000000000000e+02
4.324605019211861467e+00 -7.139477549854142069e+00 3.290000000000000000e+02
4.008916043583073296e+00 -8.518005921222119525e+00 3.290000000000000000e+02
3.693227067954284681e+00 -9.896534292590096982e+00 3.290000000000000000e+02
5.371630199486207680e+00 6.002729804841235861e-01 3.300000000000000000e+02
5.055941223857419509e+00 -7.782553908838520940e-01 3.300000000000000000e+02
4.740252248228631338e+00 -2.156783762251829106e+00 3.300000000000000000e+02
4.424563272599843167e+00 -3.535312133619806119e+00 3.300000000000000000e+02
4.108874296971054996e+00 -4.913840504987782687e+00 3.300000000000000000e+02
3.793185321342266825e+00 -6.292368876355759255e+00 3.300000000000000000e+02
3.477496345713478654e+00 -7.670897247723736712e+00 3.300000000000000000e+02
3.161807370084690483e+00 -9.049425619091714168e+00 3.300000000000000000e+02
5.371630199486207680e+00 6.002729804841235861e-01 3.310000000000000000e+02
5.055941223857419509e+00 -7.782553908838520940e-01 3.310000000000000000e+02
4.740252248228631338e+00 -2.156783762251829106e+00 3.310000000000000000e+02
4.424563272599843167e+00 -3.535312133619806119e+00 3.310000000000000000e+02
4.108874296971054996e+00 -4.913840504987782687e+00 3.310000000000000000e+02
3.793185321342266825e+00 -6.292368876355759255e+00 3.310000000000000000e+02
3.477496345713478654e+00 -7.670897247723736712e+00 3.310000000000000000e+02
3.161807370084690483e+00 -9.049425619091714168e+00 3.310000000000000000e+02
2.846118394455902312e+00 -1.042795399045969162e+01 3.310000000000000000e+02
5.371630199486207680e+00 6.002729804841235861e-01 3.320000000000000000e+02
5.055941223857419509e+00 -7.782553908838520940e-01 3.320000000000000000e+02
4.740252248228631338e+00 -2.156783762251829106e+00 3.320000000000000000e+02
4.424563272599843167e+00 -3.535312133619806119e+00 3.320000000000000000e+02
4.108874296971054996e+00 -4.913840504987782687e+00 3.320000000000000000e+02
3.793185321342266825e+00 -6.292368876355759255e+00 3.320000000000000000e+02
3.477496345713478654e+00 -7.670897247723736712e+00 3.320000000000000000e+02
3.161807370084690483e+00 -9.049425619091714168e+00 3.320000000000000000e+02
2.846118394455902312e+00 -1.042795399045969162e+01 3.320000000000000000e+02
6.218738872984590493e+00 1.131692678353718229e+00 3.330000000000000000e+02
5.903049897355802322e+00 -2.468356930142583394e-01 3.330000000000000000e+02
5.587360921727014151e+00 -1.625364064382234908e+00 3.330000000000000000e+02
5.271671946098225980e+00 -3.003892435750211476e+00 3.330000000000000000e+02
4.955982970469437809e+00 -4.382420807118188932e+00 3.330000000000000000e+02
4.640293994840649638e+00 -5.760949178486165501e+00 3.330000000000000000e+02
4.324605019211861467e+00 -7.139477549854142069e+00 3.330000000000000000e+02
4.008916043583073296e+00 -8.518005921222119525e+00 3.330000000000000000e+02
3.693227067954284681e+00 -9.896534292590096982e+00 3.330000000000000000e+02
6.218738872984590493e+00 1.131692678353718229e+00 3.340000000000000000e+02
5.903049897355802322e+00 -2.468356930142583394e-01 3.340000000000000000e+02
5.587360921727014151e+00 -1.625364064382234908e+00 3.340000000000000000e+02
5.271671946098225980e+00 -3.003892435750211476e+00 3.340000000000000000e+02
4.955982970469437809e+00 -4.382420807118188932e+00 3.340000000000000000e+02
4.640293994840649638e+00 -5.760949178486165501e+00 3.340000000000000000e+02
4.324605019211861467e+00 -7.139477549854142069e+00 3.340000000000000000e+02
4.008916043583073296e+00 -8.518005921222119525e+00 3.340000000000000000e+02
3.693227067954284681e+00 -9.896534292590096982e+00 3.340000000000000000e+02
6.218738872984590493e+00 1.131692678353718229e+00 3.350000000000000000e+02
5.903049897355802322e+00 -2.468356930142583394e-01 3.350000000000000000e+02
5.587360921727014151e+00 -1.625364064382234908e+00 3.350000000000000000e+02
5.271671946098225980e+00 -3.003892435750211476e+00 3.350000000000000000e+02
4.955982970469437809e+00 -4.382420807118188932e+00 3.350000000000000000e+02
4.640293994840649638e+00 -5.760949178486165501e+00 3.350000000000000000e+02
4.324605019211861467e+00 -7.139477549854142069e+00 3.350000000000000000e+02
4.008916043583073296e+00 -8.518005921222119525e+00 3.350000000000000000e+02
3.693227067954284681e+00 -9.896534292590096982e+00 3.350000000000000000e+02
3.377538092325496510e+00 -1.127506266395807089e+01 3.350000000000000000e+02
6.218738872984590493e+00 1.131692678353718229e+00 3.360000000000000000e+02
5.903049897355802322e+00 -2.468356930142583394e-01 3.360000000000000000e+02
5.587360921727014151e+00 -1.625364064382234908e+00 3.360000000000000000e+02
5.271671946098225980e+00 -3.003892435750211476e+00 3.360000000000000000e+02
4.955982970469437809e+00 -4.382420807118188932e+00 3.360000000000000000e+02
4.640293994840649638e+00 -5.760949178486165501e+00 3.360000000000000000e+02
4.324605019211861467e+00 -7.139477549854142069e+00 3.360000000000000000e+02
4.008916043583073296e+00 -8.518005921222119525e+00 3.360000000000000000e+02
3.693227067954284681e+00 -9.896534292590096982e+00 3.360000000000000000e+02
6.218738872984590493e+00 1.131692678353718229e+00 3.370000000000000000e+02
5.903049897355802322e+00 -2.468356930142583394e-01 3.370000000000000000e+02
5.587360921727014151e+00 -1.625364064382234908e+00 3.370000000000000000e+02
5.271671946098225980e+00 -3.003892435750211476e+00 3.370000000000000000e+02
4.955982970469437809e+00 -4.382420807118188932e+00 3.370000000000000000e+02
4.640293994840649638e+00 -5.760949178486165501e+00 3.370000000000000000e+02
4.324605019211861467e+00 -7.139477549854142069e+00 3.370000000000000000e+02
4.008916043583073296e+00 -8.518005921222119525e+00 3.370000000000000000e+02
3.693227067954284681e+00 -9.896534292590096982e+00 3.370000000000000000e+02
6.218738872984590493e+00 1.131692678353718229e+00 3.380000000000000000e+02
5.903049897355802322e+00 -2.468356930142583394e-01 3.380000000000000000e+02
5.587360921727014151e+00 -1.625364064382234908e+00 3.380000000000000000e+02
5.271671946098225980e+00 -3.003892435750211476e+00 3.380000000000000000e+02
4.955982970469437809e+00 -4.382420807118188932e+00 3.380000000000000000e+02
4.640293994840649638e+00 -5.760949178486165501e+00 3.380000000000000000e+02
4.324605019211861467e+00 -7.139477549854142069e+00 3.380000000000000000e+02
4.008916043583073296e+00 -8.518005921222119525e+00 3.380000000000000000e+02
3.693227067954284681e+00 -9.896534292590096982e+00 3.380000000000000000e+02
3.377538092325496510e+00 -1.127506266395807089e+01 3.380000000000000000e+02
6.218738872984590493e+00 1.131692678353718229e+00 3.390000000000000000e+02
5.903049897355802322e+00 -2.468356930142583394e-01 3.390000000000000000e+02
5.587360921727014151e+00 -1.625364064382234908e+00 3.390000000000000000e+02
5.271671946098225980e+00 -3.003892435750211476e+00 3.390000000000000000e+02
4.955982970469437809e+00 -4.382420807118188932e+00 3.390000000000000000e+02
4.640293994840649638e+00 -5.760949178486165501e+00 3.390000000000000000e+02
4.324605019211861467e+00 -7.139477549854142069e+00 3.390000000000000000e+02
4.008916043583073296e+00 -8.518005921222119525e+00 3.390000000000000000e+02
3.693227067954284681e+00 -9.896534292590096982e+00 3.390000000000000000e+02
3.377538092325496510e+00 -1.127506266395807089e+01 3.390000000000000000e+02
6.218738872984590493e+00 1.131692678353718229e+00 3.400000000000000000e+02
5.903049897355802322e+00 -2.468356930142583394e-01 3.400000000000000000e+02
5.587360921727014151e+00 -1.625364064382234908e+00 3.400000000000000000e+02
5.271671946098225980e+00 -3.003892435750211476e+00 3.400000000000000000e+02
4.955982970469437809e+00 -4.382420807118188932e+00 3.400000000000000000e+02
4.640293994840649638e+00 -5.760949178486165501e+00 3.400000000000000000e+02
4.324605019211861467e+00 -7.139477549854142069e+00 3.400000000000000000e+02
4.008916043583073296e+00 -8.518005921222119525e+00 3.400000000000000000e+02
3.693227067954284681e+00 -9.896534292590096982e+00 3.400000000000000000e+02
3.377538092325496510e+00 -1.127506266395807089e+01 3.400000000000000000e+02
6.218738872984590493e+00 1.131692678353718229e+00 3.410000000000000000e+02
5.903049897355802322e+00 -2.468356930142583394e-01 3.410000000000000000e+02
5.587360921727014151e+00 -1.625364064382234908e+00 3.410000000000000000e+02
5.271671946098225980e+00 -3.003892435750211476e+00 3.410000000000000000e+02
4.955982970469437809e+00 -4.382420807118188932e+00 3.410000000000000000e+02
4.640293994840649638e+00 -5.760949178486165501e+00 3.410000000000000000e+02
4.324605019211861467e+00 -7.139477549854142069e+00 3.410000000000000000e+02
4.008916043583073296e+00 -8.518005921222119525e+00 3.410000000000000000e+02
3.693227067954284681e+00 -9.896534292590096982e+00 3.410000000000000000e+02
3.377538092325496510e+00 -1.127506266395807089e+01 3.410000000000000000e+02
5.371630199486207680e+00 6.002729804841235861e-01 3.420000000000000000e+02
5.055941223857419509e+00 -7.782553908838520940e-01 3.420000000000000000e+02
4.740252248228631338e+00 -2.156783762251829106e+00 3.420000000000000000e+02
4.424563272599843167e+00 -3.535312133619806119e+00 3.420000000000000000e+02
4.108874296971054996e+00 -4.913840504987782687e+00 3.420000000000000000e+02
3.793185321342266825e+00 -6.292368876355759255e+00 3.420000000000000000e+02
3.477496345713478654e+00 -7.670897247723736712e+00 3.420000000000000000e+02
3.161807370084690483e+00 -9.049425619091714168e+00 3.420000000000000000e+02
2.846118394455902312e+00 -1.042795399045969162e+01 3.420000000000000000e+02
5.371630199486207680e+00 6.002729804841235861e-01 3.430000000000000000e+02
5.055941223857419509e+00 -7.782553908838520940e-01 3.430000000000000000e+02
4.740252248228631338e+00 -2.156783762251829106e+00 3.430000000000000000e+02
4.424563272599843167e+00 -3.535312133619806119e+00 3.430000000000000000e+02
4.108874296971054996e+00 -4.913840504987782687e+00 3.430000000000000000e+02
3.793185321342266825e+00 -6.292368876355759255e+00 3.430000000000000000e+02
3.477496345713478654e+00 -7.670897247723736712e+00 3.430000000000000000e+02
3.161807370084690483e+00 -9.049425619091714168e+00 3.430000000000000000e+02
2.846118394455902312e+00 -1.042795399045969162e+01 3.430000000000000000e+02
5.371630199486207680e+00 6.002729804841235861e-01 3.440000000000000000e+02
5.055941223857419509e+00 -7.782553908838520940e-01 3.440000000000000000e+02
4.740252248228631338e+00 -2.156783762251829106e+00 3.440000000000000000e+02
4.424563272599843167e+00 -3.535312133619806119e+00 3.440000000000000000e+02
4.108874296971054996e+00 -4.913840504987782687e+00 3.440000000000000000e+02
3.793185321342266825e+00 -6.292368876355759255e+00 3.440000000000000000e+02
3.477496345713478654e+00 -7.670897247723736712e+00 3.440000000000000000e+02
3.161807370084690483e+00 -9.049425619091714168e+00 3.440000000000000000e+02
2.846118394455902312e+00 -1.042795399045969162e+01 3.440000000000000000e+02
5.371630199486207680e+00 6.002729804841235861e-01 3.450000000000000000e+02
5.055941223857419509e+00 -7.782553908838520940e-01 3.450000000000000000e+02
4.740252248228631338e+00 -2.156783762251829106e+00 3.450000000000000000e+02
4.424563272599843167e+00 -3.535312133619806119e+00 3.450000000000000000e+02
4.108874296971054996e+00 -4.913840504987782687e+00 3.450000000000000000e+02
3.793185321342266825e+00 -6.292368876355759255e+00 3.450000000000000000e+02
3.477496345713478654e+00 -7.670897247723736712e+00 3.450000000000000000e+02
3.161807370084690483e+00 -9.049425619091714168e+00 3.450000000000000000e+02
2.846118394455902312e+00 -1.042795399045969162e+01 3.450000000000000000e+02
5.371630199486207680e+00 6.002729804841235861e-01 3.460000000000000000e+02
5.055941223857419509e+00 -7.782553908838520940e-01 3.460000000000000000e+02
4.740252248228631338e+00 -2.156783762251829106e+00 3.460000000000000000e+02
4.424563272599843167e+00 -3.535312133619806119e+00 3.460000000000000000e+02
4.108874296971054996e+00 -4.913840504987782687e+00 3.460000000000000000e+02
3.793185321342266825e+00 -6.292368876355759255e+00 3.460000000000000000e+02
3.477496345713478654e+00 -7.670897247723736712e+00 3.460000000000000000e+02
3.161807370084690483e+00 -9.049425619091714168e+00 3.460000000000000000e+02
2.846118394455902312e+00 -1.042795399045969162e+01 3.460000000000000000e+02
6.218738872984590493e+00 1.131692678353718229e+00 3.470000000000000000e+02
5.903049897355802322e+00 -2.468356930142583394e-01 3.470000000000000000e+02
5.587360921727014151e+00 -1.625364064382234908e+00 3.470000000000000000e+02
5.271671946098225980e+00 -3.003892435750211476e+00 3.470000000000000000e+02
4.955982970469437809e+00 -4.382420807118188932e+00 3.470000000000000000e+02
4.640293994840649638e+00 -5.760949178486165501e+00 3.470000000000000000e+02
4.324605019211861467e+00 -7.139477549854142069e+00 3.470000000000000000e+02
4.008916043583073296e+00 -8.518005921222119525e+00 3.470000000000000000e+02
3.693227067954284681e+00 -9.896534292590096982e+00 3.470000000000000000e+02
6.218738872984590493e+00 1.131692678353718229e+00 3.480000000000000000e+02
5.903049897355802322e+00 -2.468356930142583394e-01 3.480000000000000000e+02
5.587360921727014151e+00 -1.625364064382234908e+00 3.480000000000000000e+02
5.271671946098225980e+00 -3.003892435750211476e+00 3.480000000000000000e+02
4.955982970469437809e+00 -4.382420807118188932e+00 3.480000000000000000e+02
4.640293994840649638e+00 -5.760949178486165501e+00 3.480000000000000000e+02
4.324605019211861467e+00 -7.139477549854142069e+00 3.480000000000000000e+02
4.008916043583073296e+00 -8.518005921222119525e+00 3.480000000000000000e+02
3.693227067954284681e+00 -9.896534292590096982e+00 3.480000000000000000e+02
3.377538092325496510e+00 -1.127506266395807089e+01 3.480000000000000000e+02
6.218738872984590493e+00 1.131692678353718229e+00 3.490000000000000000e+02
5.903049897355802322e+00 -2.468356930142583394e-01 3.490000000000000000e+02
5.587360921727014151e+00 -1.625364064382234908e+00 3.490000000000000000e+02
5.271671946098225980e+00 -3.003892435750211476e+00 3.490000000000000000e+02
4.955982970469437809e+00 -4.382420807118188932e+00 3.490000000000000000e+02
4.640293994840649638e+00 -5.760949178486165501e+00 3.490000000000000000e+02
4.324605019211861467e+00 -7.139477549854142069e+00 3.490000000000000000e+02
4.008916043583073296e+00 -8.518005921222119525e+00 3.490000000000000000e+02
3.693227067954284681e+00 -9.896534292590096982e+00 3.490000000000000000e+02
3.377538092325496510e+00 -1.127506266395807089e+01 3.490000000000000000e+02
5.371630199486207680e+00 6.002729804841235861e-01 3.500000000000000000e+02
5.055941223857419509e+00 -7.782553908838520940e-01 3.500000000000000000e+02
4.740252248228631338e+00 -2.156783762251829106e+00 3.500000000000000000e+02
4.424563272599843167e+00 -3.535312133619806119e+00 3.500000000000000000e+02
4.108874296971054996e+00 -4.913840504987782687e+00 3.500000000000000000e+02
3.793185321342266825e+00 -6.292368876355759255e+00 3.500000000000000000e+02
3.477496345713478654e+00 -7.670897247723736712e+00 3.500000000000000000e+02
3.161807370084690483e+00 -9.049425619091714168e+00 3.500000000000000000e+02
2.846118394455902312e+00 -1.042795399045969162e+01 3.500000000000000000e+02
5.371630199486207680e+00 6.002729804841235861e-01 3.510000000000000000e+02
5.055941223857419509e+00 -7.782553908838520940e-01 3.510000000000000000e+02
4.740252248228631338e+00 -2.156783762251829106e+00 3.510000000000000000e+02
4.424563272599843167e+00 -3.535312133619806119e+00 3.510000000000000000e+02
4.108874296971054996e+00 -4.913840504987782687e+00 3.510000000000000000e+02
3.793185321342266825e+00 -6.292368876355759255e+00 3.510000000000000000e+02
3.477496345713478654e+00 -7.670897247723736712e+00 3.510000000000000000e+02
3.161807370084690483e+00 -9.049425619091714168e+00 3.510000000000000000e+02
2.846118394455902312e+00 -1.042795399045969162e+01 3.510000000000000000e+02
5.371630199486207680e+00 6.002729804841235861e-01 3.520000000000000000e+02
5.055941223857419509e+00 -7.782553908838520940e-01 3.520000000000000000e+02
4.740252248228631338e+00 -2.156783762251829106e+00 3.520000000000000000e+02
4.424563272599843167e+00 -3.535312133619806119e+00 3.520000000000000000e+02
4.108874296971054996e+00 -4.913840504987782687e+00 3.520000000000000000e+02
3.793185321342266825e+00 -6.292368876355759255e+00 3.520000000000000000e+02
3.477496345713478654e+00 -7.670897247723736712e+00 3.520000000000000000e+02
3.161807370084690483e+00 -9.049425619091714168e+00 3.520000000000000000e+02
2.846118394455902312e+00 -1.042795399045969162e+01 3.520000000000000000e+02
6.218738872984590493e+00 1.131692678353718229e+00 3.530000000000000000e+02
5.903049897355802322e+00 -2.468356930142583394e-01 3.530000000000000000e+02
5.587360921727014151e+00 -1.625364064382234908e+00 3.530000000000000000e+02
5.271671946098225980e+00 -3.003892435750211476e+00 3.530000000000000000e+02
4.955982970469437809e+00 -4.382420807118188932e+00 3.530000000000000000e+02
4.640293994840649638e+00 -5.760949178486165501e+00 3.530000000000000000e+02
4.324605019211861467e+00 -7.139477549854142069e+00 3.530000000000000000e+02
4.008916043583073296e+00 -8.518005921222119525e+00 3.530000000000000000e+02
3.693227067954284681e+00 -9.896534292590096982e+00 3.530000000000000000e+02
3.377538092325496510e+00 -1.127506266395807089e+01 3.530000000000000000e+02
5.371630199486207680e+00 6.002729804841235861e-01 3.540000000000000000e+02
5.055941223857419509e+00 -7.782553908838520940e-01 3.540000000000000000e+02
4.740252248228631338e+00 -2.156783762251829106e+00 3.540000000000000000e+02
4.424563272599843167e+00 -3.535312133619806119e+00 3.540000000000000000e+02
4.108874296971054996e+00 -4.913840504987782687e+00 3.540000000000000000e+02
3.793185321342266825e+00 -6.292368876355759255e+00 3.540000000000000000e+02
3.477496345713478654e+00 -7.670897247723736712e+00 3.540000000000000000e+02
3.161807370084690483e+00 -9.049425619091714168e+00 3.540000000000000000e+02
2.846118394455902312e+00 -1.042795399045969162e+01 3.540000000000000000e+02
5.371630199486207680e+00 6.002729804841235861e-01 3.550000000000000000e+02
5.055941223857419509e+00 -7.782553908838520940e-01 3.550000000000000000e+02
4.740252248228631338e+00 -2.156783762251829106e+00 3.550000000000000000e+02
4.424563272599843167e+00 -3.535312133619806119e+00 3.550000000000000000e+02
4.108874296971054996e+00 -4.913840504987782687e+00 3.550000000000000000e+02
3.793185321342266825e+00 -6.292368876355759255e+00 3.550000000000000000e+02
3.477496345713478654e+00 -7.670897247723736712e+00 3.550000000000000000e+02
3.161807370084690483e+00 -9.049425619091714168e+00 3.550000000000000000e+02
2.846118394455902312e+00 -1.042795399045969162e+01 3.550000000000000000e+02
5.371630199486207680e+00 6.002729804841235861e-01 3.560000000000000000e+02
5.055941223857419509e+00 -7.782553908838520940e-01 3.560000000000000000e+02
4.740252248228631338e+00 -2.156783762251829106e+00 3.560000000000000000e+02
4.424563272599843167e+00 -3.535312133619806119e+00 3.560000000000000000e+02
4.108874296971054996e+00 -4.913840504987782687e+00 3.560000000000000000e+02
3.793185321342266825e+00 -6.292368876355759255e+00 3.560000000000000000e+02
3.477496345713478654e+00 -7.670897247723736712e+00 3.560000000000000000e+02
3.161807370084690483e+00 -9.049425619091714168e+00 3.560000000000000000e+02
2.846118394455902312e+00 -1.042795399045969162e+01 3.560000000000000000e+02
5.371630199486207680e+00 6.002729804841235861e-01 3.570000000000000000e+02
5.055941223857419509e+00 -7.782553908838520940e-01 3.570000000000000000e+02
4.740252248228631338e+00 -2.156783762251829106e+00 3.570000000000000000e+02
4.424563272599843167e+00 -3.535312133619806119e+00 3.570000000000000000e+02
4.108874296971054996e+00 -4.913840504987782687e+00 3.570000000000000000e+02
3.793185321342266825e+00 -6.292368876355759255e+00 3.570000000000000000e+02
3.477496345713478654e+00 -7.670897247723736712e+00 3.570000000000000000e+02
3.161807370084690483e+00 -9.049425619091714168e+00 3.570000000000000000e+02
2.846118394455902312e+00 -1.042795399045969162e+01 3.570000000000000000e+02
5.371630199486207680e+00 6.002729804841235861e-01 3.580000000000000000e+02
5.055941223857419509e+00 -7.782553908838520940e-01 3.580000000000000000e+02
4.740252248228631338e+00 -2.156783762251829106e+00 3.580000000000000000e+02
4.424563272599843167e+00 -3.535312133619806119e+00 3.580000000000000000e+02
4.108874296971054996e+00 -4.913840504987782687e+00 3.580000000000000000e+02
3.793185321342266825e+00 -6.292368876355759255e+00 3.580000000000000000e+02
3.477496345713478654e+00 -7.670897247723736712e+00 3.580000000000000000e+02
3.161807370084690483e+00 -9.049425619091714168e+00 3.580000000000000000e+02
2.846118394455902312e+00 -1.042795399045969162e+01 3.580000000000000000e+02
5.371630199486207680e+00 6.002729804841235861e-01 3.590000000000000000e+02
5.055941223857419509e+00 -7.782553908838520940e-01 3.590000000000000000e+02
4.740252248228631338e+00 -2.156783762251829106e+00 3.590000000000000000e+02
4.424563272599843167e+00 -3.535312133619806119e+00 3.590000000000000000e+02
4.108874296971054996e+00 -4.913840504987782687e+00 3.590000000000000000e+02
3.793185321342266825e+00 -6.292368876355759255e+00 3.590000000000000000e+02
3.477496345713478654e+00 -7.670897247723736712e+00 3.590000000000000000e+02
3.161807370084690483e+00 -9.049425619091714168e+00 3.590000000000000000e+02
2.846118394455902312e+00 -1.042795399045969162e+01 3.590000000000000000e+02
5.371630199486207680e+00 6.002729804841235861e-01 3.600000000000000000e+02
5.055941223857419509e+00 -7.782553908838520940e-01 3.600000000000000000e+02
4.740252248228631338e+00 -2.156783762251829106e+00 3.600000000000000000e+02
4.424563272599843167e+00 -3.535312133619806119e+00 3.600000000000000000e+02
4.108874296971054996e+00 -4.913840504987782687e+00 3.600000000000000000e+02
3.793185321342266825e+00 -6.292368876355759255e+00 3.600000000000000000e+02
3.477496345713478654e+00 -7.670897247723736712e+00 3.600000000000000000e+02
3.161807370084690483e+00 -9.049425619091714168e+00 3.600000000000000000e+02
2.846118394455902312e+00 -1.042795399045969162e+01 3.600000000000000000e+02
5.371630199486207680e+00 6.002729804841235861e-01 3.610000000000000000e+02
5.055941223857419509e+00 -7.782553908838520940e-01 3.610000000000000000e+02
4.740252248228631338e+00 -2.156783762251829106e+00 3.610000000000000000e+02
4.424563272599843167e+00 -3.535312133619806119e+00 3.610000000000000000e+02
4.108874296971054996e+00 -4.913840504987782687e+00 3.610000000000000000e+02
3.793185321342266825e+00 -6.292368876355759255e+00 3.610000000000000000e+02
3.477496345713478654e+00 -7.670897247723736712e+00 3.610000000000000000e+02
3.161807370084690483e+00 -9.049425619091714168e+00 3.610000000000000000e+02
2.846118394455902312e+00 -1.042795399045969162e+01 3.610000000000000000e+02
5.371630199486207680e+00 6.002729804841235861e-01 3.620000000000000000e+02
5.055941223857419509e+00 -7.782553908838520940e-01 3.620000000000000000e+02
4.740252248228631338e+00 -2.156783762251829106e+00 3.620000000000000000e+02
4.424563272599843167e+00 -3.535312133619806119e+00 3.620000000000000000e+02
4.108874296971054996e+00 -4.913840504987782687e+00 3.620000000000000000e+02
3.793185321342266825e+00 -6.292368876355759255e+00 3.620000000000000000e+02
3.477496345713478654e+00 -7.670897247723736712e+00 3.620000000000000000e+02
3.161807370084690483e+00 -9.049425619091714168e+00 3.620000000000000000e+02
2.846118394455902312e+00 -1.042795399045969162e+01 3.620000000000000000e+02
5.371630199486207680e+00 6.002729804841235861e-01 3.630000000000000000e+02
5.055941223857419509e+00 -7.782553908838520940e-01 3.630000000000000000e+02
4.740252248228631338e+00 -2.156783762251829106e+00 3.630000000000000000e+02
4.424563272599843167e+00 -3.535312133619806119e+00 3.630000000000000000e+02
4.108874296971054996e+00 -4.913840504987782687e+00 3.630000000000000000e+02
3.793185321342266825e+00 -6.292368876355759255e+00 3.630000000000000000e+02
3.477496345713478654e+00 -7.670897247723736712e+00 3.630000000000000000e+02
3.161807370084690483e+00 -9.049425619091714168e+00 3.630000000000000000e+02
2.846118394455902312e+00 -1.042795399045969162e+01 3.630000000000000000e+02
5.371630199486207680e+00 6.002729804841235861e-01 3.640000000000000000e+02
5.055941223857419509e+00 -7.782553908838520940e-01 3.640000000000000000e+02
4.740252248228631338e+00 -2.156783762251829106e+00 3.640000000000000000e+02
4.424563272599843167e+00 -3.535312133619806119e+00 3.640000000000000000e+02
4.108874296971054996e+00 -4.913840504987782687e+00 3.640000000000000000e+02
3.793185321342266825e+00 -6.292368876355759255e+00 3.640000000000000000e+02
3.477496345713478654e+00 -7.670897247723736712e+00 3.640000000000000000e+02
3.161807370084690483e+00 -9.049425619091714168e+00 3.640000000000000000e+02
2.846118394455902312e+00 -1.042795399045969162e+01 3.640000000000000000e+02
5.371630199486207680e+00 6.002729804841235861e-01 3.650000000000000000e+02
5.055941223857419509e+00 -7.782553908838520940e-01 3.650000000000000000e+02
4.740252248228631338e+00 -2.156783762251829106e+00 3.650000000000000000e+02
4.424563272599843167e+00 -3.535312133619806119e+00 3.650000000000000000e+02
4.108874296971054996e+00 -4.913840504987782687e+00 3.650000000000000000e+02
3.793185321342266825e+00 -6.292368876355759255e+00 3.650000000000000000e+02
3.477496345713478654e+00 -7.670897247723736712e+00 3.650000000000000000e+02
3.161807370084690483e+00 -9.049425619091714168e+00 3.650000000000000000e+02
2.846118394455902312e+00 -1.042795399045969162e+01 3.650000000000000000e+02
5.371630199486207680e+00 6.002729804841235861e-01 3.660000000000000000e+02
5.055941223857419509e+00 -7.782553908838520940e-01 3.660000000000000000e+02
4.740252248228631338e+00 -2.156783762251829106e+00 3.660000000000000000e+02
4.424563272599843167e+00 -3.535312133619806119e+00 3.660000000000000000e+02
4.108874296971054996e+00 -4.913840504987782687e+00 3.660000000000000000e+02
3.793185321342266825e+00 -6.292368876355759255e+00 3.660000000000000000e+02
3.477496345713478654e+00 -7.670897247723736712e+00 3.660000000000000000e+02
3.161807370084690483e+00 -9.049425619091714168e+00 3.660000000000000000e+02
2.846118394455902312e+00 -1.042795399045969162e+01 3.660000000000000000e+02
5.371630199486207680e+00 6.002729804841235861e-01 3.670000000000000000e+02
5.055941223857419509e+00 -7.782553908838520940e-01 3.670000000000000000e+02
4.740252248228631338e+00 -2.156783762251829106e+00 3.670000000000000000e+02
4.424563272599843167e+00 -3.535312133619806119e+00 3.670000000000000000e+02
4.108874296971054996e+00 -4.913840504987782687e+00 3.670000000000000000e+02
3.793185321342266825e+00 -6.292368876355759255e+00 3.670000000000000000e+02
3.477496345713478654e+00 -7.670897247723736712e+00 3.670000000000000000e+02
3.161807370084690483e+00 -9.049425619091714168e+00 3.670000000000000000e+02
2.846118394455902312e+00 -1.042795399045969162e+01 3.670000000000000000e+02
5.371630199486207680e+00 6.002729804841235861e-01 3.680000000000000000e+02
5.055941223857419509e+00 -7.782553908838520940e-01 3.680000000000000000e+02
4.740252248228631338e+00 -2.156783762251829106e+00 3.680000000000000000e+02
4.424563272599843167e+00 -3.535312133619806119e+00 3.680000000000000000e+02
4.108874296971054996e+00 -4.913840504987782687e+00 3.680000000000000000e+02
3.793185321342266825e+00 -6.292368876355759255e+00 3.680000000000000000e+02
3.477496345713478654e+00 -7.670897247723736712e+00 3.680000000000000000e+02
3.161807370084690483e+00 -9.049425619091714168e+00 3.680000000000000000e+02
2.846118394455902312e+00 -1.042795399045969162e+01 3.680000000000000000e+02
2.530429418827113697e+00 -1.180648236182766553e+01 3.680000000000000000e+02
5.371630199486207680e+00 6.002729804841235861e-01 3.690000000000000000e+02
5.055941223857419509e+00 -7.782553908838520940e-01 3.690000000000000000e+02
4.740252248228631338e+00 -2.156783762251829106e+00 3.690000000000000000e+02
4.424563272599843167e+00 -3.535312133619806119e+00 3.690000000000000000e+02
4.108874296971054996e+00 -4.913840504987782687e+00 3.690000000000000000e+02
3.793185321342266825e+00 -6.292368876355759255e+00 3.690000000000000000e+02
3.477496345713478654e+00 -7.670897247723736712e+00 3.690000000000000000e+02
3.161807370084690483e+00 -9.049425619091714168e+00 3.690000000000000000e+02
2.846118394455902312e+00 -1.042795399045969162e+01 3.690000000000000000e+02
2.530429418827113697e+00 -1.180648236182766553e+01 3.690000000000000000e+02
5.371630199486207680e+00 6.002729804841235861e-01 3.700000000000000000e+02
5.055941223857419509e+00 -7.782553908838520940e-01 3.700000000000000000e+02
4.740252248228631338e+00 -2.156783762251829106e+00 3.700000000000000000e+02
4.424563272599843167e+00 -3.535312133619806119e+00 3.700000000000000000e+02
4.108874296971054996e+00 -4.913840504987782687e+00 3.700000000000000000e+02
3.793185321342266825e+00 -6.292368876355759255e+00 3.700000000000000000e+02
3.477496345713478654e+00 -7.670897247723736712e+00 3.700000000000000000e+02
3.161807370084690483e+00 -9.049425619091714168e+00 3.700000000000000000e+02
2.846118394455902312e+00 -1.042795399045969162e+01 3.700000000000000000e+02
2.530429418827113697e+00 -1.180648236182766553e+01 3.700000000000000000e+02
5.371630199486207680e+00 6.002729804841235861e-01 3.710000000000000000e+02
5.055941223857419509e+00 -7.782553908838520940e-01 3.710000000000000000e+02
4.740252248228631338e+00 -2.156783762251829106e+00 3.710000000000000000e+02
4.424563272599843167e+00 -3.535312133619806119e+00 3.710000000000000000e+02
4.108874296971054996e+00 -4.913840504987782687e+00 3.710000000000000000e+02
3.793185321342266825e+00 -6.292368876355759255e+00 3.710000000000000000e+02
3.477496345713478654e+00 -7.670897247723736712e+00 3.710000000000000000e+02
3.161807370084690483e+00 -9.049425619091714168e+00 3.710000000000000000e+02
2.846118394455902312e+00 -1.042795399045969162e+01 3.710000000000000000e+02
2.530429418827113697e+00 -1.180648236182766553e+01 3.710000000000000000e+02
5.371630199486207680e+00 6.002729804841235861e-01 3.720000000000000000e+02
5.055941223857419509e+00 -7.782553908838520940e-01 3.720000000000000000e+02
4.740252248228631338e+00 -2.156783762251829106e+00 3.720000000000000000e+02
4.424563272599843167e+00 -3.535312133619806119e+00 3.720000000000000000e+02
4.108874296971054996e+00 -4.913840504987782687e+00 3.720000000000000000e+02
3.793185321342266825e+00 -6.292368876355759255e+00 3.720000000000000000e+02
3.477496345713478654e+00 -7.670897247723736712e+00 3.720000000000000000e+02
3.161807370084690483e+00 -9.049425619091714168e+00 3.720000000000000000e+02
2.846118394455902312e+00 -1.042795399045969162e+01 3.720000000000000000e+02
2.530429418827113697e+00 -1.180648236182766553e+01 3.720000000000000000e+02
5.371630199486207680e+00 6.002729804841235861e-01 3.730000000000000000e+02
5.055941223857419509e+00 -7.782553908838520940e-01 3.730000000000000000e+02
4.740252248228631338e+00 -2.156783762251829106e+00 3.730000000000000000e+02
4.424563272599843167e+00 -3.535312133619806119e+00 3.730000000000000000e+02
4.108874296971054996e+00 -4.913840504987782687e+00 3.730000000000000000e+02
3.793185321342266825e+00 -6.292368876355759255e+00 3.730000000000000000e+02
3.477496345713478654e+00 -7.670897247723736712e+00 3.730000000000000000e+02
3.161807370084690483e+00 -9.049425619091714168e+00 3.730000000000000000e+02
2.846118394455902312e+00 -1.042795399045969162e+01 3.730000000000000000e+02
5.371630199486207680e+00 6.002729804841235861e-01 3.740000000000000000e+02
5.055941223857419509e+00 -7.782553908838520940e-01 3.740000000000000000e+02
4.740252248228631338e+00 -2.156783762251829106e+00 3.740000000000000000e+02
4.424563272599843167e+00 -3.535312133619806119e+00 3.740000000000000000e+02
4.108874296971054996e+00 -4.913840504987782687e+00 3.740000000000000000e+02
3.793185321342266825e+00 -6.292368876355759255e+00 3.740000000000000000e+02
3.477496345713478654e+00 -7.670897247723736712e+00 3.740000000000000000e+02
3.161807370084690483e+00 -9.049425619091714168e+00 3.740000000000000000e+02
2.846118394455902312e+00 -1.042795399045969162e+01 3.740000000000000000e+02
5.371630199486207680e+00 6.002729804841235861e-01 3.750000000000000000e+02
5.055941223857419509e+00 -7.782553908838520940e-01 3.750000000000000000e+02
4.740252248228631338e+00 -2.156783762251829106e+00 3.750000000000000000e+02
4.424563272599843167e+00 -3.535312133619806119e+00 3.750000000000000000e+02
4.108874296971054996e+00 -4.913840504987782687e+00 3.750000000000000000e+02
3.793185321342266825e+00 -6.292368876355759255e+00 3.750000000000000000e+02
3.477496345713478654e+00 -7.670897247723736712e+00 3.750000000000000000e+02
3.161807370084690483e+00 -9.049425619091714168e+00 3.750000000000000000e+02
2.846118394455902312e+00 -1.042795399045969162e+01 3.750000000000000000e+02
5.371630199486207680e+00 6.002729804841235861e-01 3.760000000000000000e+02
5.055941223857419509e+00 -7.782553908838520940e-01 3.760000000000000000e+02
4.740252248228631338e+00 -2.156783762251829106e+00 3.760000000000000000e+02
4.424563272599843167e+00 -3.535312133619806119e+00 3.760000000000000000e+02
4.108874296971054996e+00 -4.913840504987782687e+00 3.760000000000000000e+02
3.793185321342266825e+00 -6.292368876355759255e+00 3.760000000000000000e+02
3.477496345713478654e+00 -7.670897247723736712e+00 3.760000000000000000e+02
3.161807370084690483e+00 -9.049425619091714168e+00 3.760000000000000000e+02
5.371630199486207680e+00 6.002729804841235861e-01 3.770000000000000000e+02
5.055941223857419509e+00 -7.782553908838520940e-01 3.770000000000000000e+02
4.740252248228631338e+00 -2.156783762251829106e+00 3.770000000000000000e+02
4.424563272599843167e+00 -3.535312133619806119e+00 3.770000000000000000e+02
4.108874296971054996e+00 -4.913840504987782687e+00 3.770000000000000000e+02
3.793185321342266825e+00 -6.292368876355759255e+00 3.770000000000000000e+02
3.477496345713478654e+00 -7.670897247723736712e+00 3.770000000000000000e+02
3.161807370084690483e+00 -9.049425619091714168e+00 3.770000000000000000e+02
2.846118394455902312e+00 -1.042795399045969162e+01 3.770000000000000000e+02
5.371630199486207680e+00 6.002729804841235861e-01 3.780000000000000000e+02
5.055941223857419509e+00 -7.782553908838520940e-01 3.780000000000000000e+02
4.740252248228631338e+00 -2.156783762251829106e+00 3.780000000000000000e+02
4.424563272599843167e+00 -3.535312133619806119e+00 3.780000000000000000e+02
4.108874296971054996e+00 -4.913840504987782687e+00 3.780000000000000000e+02
3.793185321342266825e+00 -6.292368876355759255e+00 3.780000000000000000e+02
3.477496345713478654e+00 -7.670897247723736712e+00 3.780000000000000000e+02
3.161807370084690483e+00 -9.049425619091714168e+00 3.780000000000000000e+02
2.846118394455902312e+00 -1.042795399045969162e+01 3.780000000000000000e+02
5.371630199486207680e+00 6.002729804841235861e-01 3.790000000000000000e+02
5.055941223857419509e+00 -7.782553908838520940e-01 3.790000000000000000e+02
4.740252248228631338e+00 -2.156783762251829106e+00 3.790000000000000000e+02
4.424563272599843167e+00 -3.535312133619806119e+00 3.790000000000000000e+02
4.108874296971054996e+00 -4.913840504987782687e+00 3.790000000000000000e+02
3.793185321342266825e+00 -6.292368876355759255e+00 3.790000000000000000e+02
3.477496345713478654e+00 -7.670897247723736712e+00 3.790000000000000000e+02
3.161807370084690483e+00 -9.049425619091714168e+00 3.790000000000000000e+02
2.846118394455902312e+00 -1.042795399045969162e+01 3.790000000000000000e+02
5.371630199486207680e+00 6.002729804841235861e-01 3.800000000000000000e+02
5.055941223857419509e+00 -7.782553908838520940e-01 3.800000000000000000e+02
4.740252248228631338e+00 -2.156783762251829106e+00 3.800000000000000000e+02
4.424563272599843167e+00 -3.535312133619806119e+00 3.800000000000000000e+02
4.108874296971054996e+00 -4.913840504987782687e+00 3.800000000000000000e+02
3.793185321342266825e+00 -6.292368876355759255e+00 3.800000000000000000e+02
3.477496345713478654e+00 -7.670897247723736712e+00 3.800000000000000000e+02
3.161807370084690483e+00 -9.049425619091714168e+00 3.800000000000000000e+02
2.846118394455902312e+00 -1.042795399045969162e+01 3.800000000000000000e+02
5.371630199486207680e+00 6.002729804841235861e-01 3.810000000000000000e+02
5.055941223857419509e+00 -7.782553908838520940e-01 3.810000000000000000e+02
4.740252248228631338e+00 -2.156783762251829106e+00 3.810000000000000000e+02
4.424563272599843167e+00 -3.535312133619806119e+00 3.810000000000000000e+02
4.108874296971054996e+00 -4.913840504987782687e+00 3.810000000000000000e+02
3.793185321342266825e+00 -6.292368876355759255e+00 3.810000000000000000e+02
3.477496345713478654e+00 -7.670897247723736712e+00 3.810000000000000000e+02
3.161807370084690483e+00 -9.049425619091714168e+00 3.810000000000000000e+02
2.846118394455902312e+00 -1.042795399045969162e+01 3.810000000000000000e+02
5.371630199486207680e+00 6.002729804841235861e-01 3.820000000000000000e+02
5.055941223857419509e+00 -7.782553908838520940e-01 3.820000000000000000e+02
4.740252248228631338e+00 -2.156783762251829106e+00 3.820000000000000000e+02
4.424563272599843167e+00 -3.535312133619806119e+00 3.820000000000000000e+02
4.108874296971054996e+00 -4.913840504987782687e+00 3.820000000000000000e+02
3.793185321342266825e+00 -6.292368876355759255e+00 3.820000000000000000e+02
3.477496345713478654e+00 -7.670897247723736712e+00 3.820000000000000000e+02
3.161807370084690483e+00 -9.049425619091714168e+00 3.820000000000000000e+02
2.846118394455902312e+00 -1.042795399045969162e+01 3.820000000000000000e+02
5.371630199486207680e+00 6.002729804841235861e-01 3.830000000000000000e+02
5.055941223857419509e+00 -7.782553908838520940e-01 3.830000000000000000e+02
4.740252248228631338e+00 -2.156783762251829106e+00 3.830000000000000000e+02
4.424563272599843167e+00 -3.535312133619806119e+00 3.830000000000000000e+02
4.108874296971054996e+00 -4.913840504987782687e+00 3.830000000000000000e+02
3.793185321342266825e+00 -6.292368876355759255e+00 3.830000000000000000e+02
3.477496345713478654e+00 -7.670897247723736712e+00 3.830000000000000000e+02
3.161807370084690483e+00 -9.049425619091714168e+00 3.830000000000000000e+02
2.846118394455902312e+00 -1.042795399045969162e+01 3.830000000000000000e+02
5.371630199486207680e+00 6.002729804841235861e-01 3.840000000000000000e+02
5.055941223857419509e+00 -7.782553908838520940e-01 3.840000000000000000e+02
4.740252248228631338e+00 -2.156783762251829106e+00 3.840000000000000000e+02
4.424563272599843167e+00 -3.535312133619806119e+00 3.840000000000000000e+02
4.108874296971054996e+00 -4.913840504987782687e+00 3.840000000000000000e+02
3.793185321342266825e+00 -6.292368876355759255e+00 3.840000000000000000e+02
3.477496345713478654e+00 -7.670897247723736712e+00 3.840000000000000000e+02
3.161807370084690483e+00 -9.049425619091714168e+00 3.840000000000000000e+02
2.846118394455902312e+00 -1.042795399045969162e+01 3.840000000000000000e+02
5.371630199486207680e+00 6.002729804841235861e-01 3.850000000000000000e+02
5.055941223857419509e+00 -7.782553908838520940e-01 3.850000000000000000e+02
4.740252248228631338e+00 -2.156783762251829106e+00 3.850000000000000000e+02
4.424563272599843167e+00 -3.535312133619806119e+00 3.850000000000000000e+02
4.108874296971054996e+00 -4.913840504987782687e+00 3.850000000000000000e+02
3.793185321342266825e+00 -6.292368876355759255e+00 3.850000000000000000e+02
3.477496345713478654e+00 -7.670897247723736712e+00 3.850000000000000000e+02
3.161807370084690483e+00 -9.049425619091714168e+00 3.850000000000000000e+02
2.846118394455902312e+00 -1.042795399045969162e+01 3.850000000000000000e+02
5.371630199486207680e+00 6.002729804841235861e-01 3.860000000000000000e+02
5.055941223857419509e+00 -7.782553908838520940e-01 3.860000000000000000e+02
4.740252248228631338e+00 -2.156783762251829106e+00 3.860000000000000000e+02
4.424563272599843167e+00 -3.535312133619806119e+00 3.860000000000000000e+02
4.108874296971054996e+00 -4.913840504987782687e+00 3.860000000000000000e+02
3.793185321342266825e+00 -6.292368876355759255e+00 3.860000000000000000e+02
3.477496345713478654e+00 -7.670897247723736712e+00 3.860000000000000000e+02
3.161807370084690483e+00 -9.049425619091714168e+00 3.860000000000000000e+02
2.846118394455902312e+00 -1.042795399045969162e+01 3.860000000000000000e+02
5.371630199486207680e+00 6.002729804841235861e-01 3.870000000000000000e+02
5.055941223857419509e+00 -7.782553908838520940e-01 3.870000000000000000e+02
4.740252248228631338e+00 -2.156783762251829106e+00 3.870000000000000000e+02
4.424563272599843167e+00 -3.535312133619806119e+00 3.870000000000000000e+02
4.108874296971054996e+00 -4.913840504987782687e+00 3.870000000000000000e+02
3.793185321342266825e+00 -6.292368876355759255e+00 3.870000000000000000e+02
3.477496345713478654e+00 -7.670897247723736712e+00 3.870000000000000000e+02
3.161807370084690483e+00 -9.049425619091714168e+00 3.870000000000000000e+02
2.846118394455902312e+00 -1.042795399045969162e+01 3.870000000000000000e+02
5.371630199486207680e+00 6.002729804841235861e-01 3.880000000000000000e+02
5.055941223857419509e+00 -7.782553908838520940e-01 3.880000000000000000e+02
4.740252248228631338e+00 -2.156783762251829106e+00 3.880000000000000000e+02
4.424563272599843167e+00 -3.535312133619806119e+00 3.880000000000000000e+02
4.108874296971054996e+00 -4.913840504987782687e+00 3.880000000000000000e+02
3.793185321342266825e+00 -6.292368876355759255e+00 3.880000000000000000e+02
3.477496345713478654e+00 -7.670897247723736712e+00 3.880000000000000000e+02
3.161807370084690483e+00 -9.049425619091714168e+00 3.880000000000000000e+02
2.846118394455902312e+00 -1.042795399045969162e+01 3.880000000000000000e+02
5.371630199486207680e+00 6.002729804841235861e-01 3.890000000000000000e+02
5.055941223857419509e+00 -7.782553908838520940e-01 3.890000000000000000e+02
4.740252248228631338e+00 -2.156783762251829106e+00 3.890000000000000000e+02
4.424563272599843167e+00 -3.535312133619806119e+00 3.890000000000000000e+02
4.108874296971054996e+00 -4.913840504987782687e+00 3.890000000000000000e+02
3.793185321342266825e+00 -6.292368876355759255e+00 3.890000000000000000e+02
3.477496345713478654e+00 -7.670897247723736712e+00 3.890000000000000000e+02
3.161807370084690483e+00 -9.049425619091714168e+00 3.890000000000000000e+02
2.846118394455902312e+00 -1.042795399045969162e+01 3.890000000000000000e+02
5.371630199486207680e+00 6.002729804841235861e-01 3.900000000000000000e+02
5.055941223857419509e+00 -7.782553908838520940e-01 3.900000000000000000e+02
4.740252248228631338e+00 -2.156783762251829106e+00 3.900000000000000000e+02
4.424563272599843167e+00 -3.535312133619806119e+00 3.900000000000000000e+02
4.108874296971054996e+00 -4.913840504987782687e+00 3.900000000000000000e+02
3.793185321342266825e+00 -6.292368876355759255e+00 3.900000000000000000e+02
3.477496345713478654e+00 -7.670897247723736712e+00 3.900000000000000000e+02
