4.158754801314712424e+00 7.634665946686521920e+01 2.850000000000000000e+02
4.331099589807024586e+00 7.494298668666338870e+01 2.850000000000000000e+02
4.503444378299337636e+00 7.353931390646155819e+01 2.850000000000000000e+02
4.675789166791650686e+00 7.213564112625972768e+01 2.850000000000000000e+02
4.848133955283963736e+00 7.073196834605789718e+01 2.850000000000000000e+02
5.020478743776276787e+00 6.932829556585606667e+01 2.850000000000000000e+02
5.192823532268589837e+00 6.792462278565423617e+01 2.850000000000000000e+02
4.429729220184845495e+00 7.994201381161596487e+01 2.860000000000000000e+02
4.602074008677158545e+00 7.853834103141412015e+01 2.860000000000000000e+02
4.774418797169471596e+00 7.713466825121228965e+01 2.860000000000000000e+02
4.946763585661784646e+00 7.573099547101045914e+01 2.860000000000000000e+02
5.119108374154096808e+00 7.432732269080862864e+01 2.860000000000000000e+02
5.291453162646409858e+00 7.292364991060679813e+01 2.860000000000000000e+02
5.463797951138722908e+00 7.151997713040496762e+01 2.860000000000000000e+02
5.636142739631035958e+00 7.011630435020313712e+01 2.860000000000000000e+02
5.808487528123349009e+00 6.871263157000130661e+01 2.860000000000000000e+02
5.980832316615662059e+00 6.730895878979947611e+01 2.860000000000000000e+02
4.429729220184845495e+00 7.994201381161596487e+01 2.870000000000000000e+02
4.602074008677158545e+00 7.853834103141412015e+01 2.870000000000000000e+02
4.774418797169471596e+00 7.713466825121228965e+01 2.870000000000000000e+02
4.946763585661784646e+00 7.573099547101045914e+01 2.870000000000000000e+02
5.119108374154096808e+00 7.432732269080862864e+01 2.870000000000000000e+02
5.291453162646409858e+00 7.292364991060679813e+01 2.870000000000000000e+02
5.463797951138722908e+00 7.151997713040496762e+01 2.870000000000000000e+02
5.636142739631035958e+00 7.011630435020313712e+01 2.870000000000000000e+02
5.808487528123349009e+00 6.871263157000130661e+01 2.870000000000000000e+02
5.980832316615662059e+00 6.730895878979947611e+01 2.870000000000000000e+02
4.429729220184845495e+00 7.994201381161596487e+01 2.880000000000000000e+02
4.602074008677158545e+00 7.853834103141412015e+01 2.880000000000000000e+02
4.774418797169471596e+00 7.713466825121228965e+01 2.880000000000000000e+02
4.946763585661784646e+00 7.573099547101045914e+01 2.880000000000000000e+02
5.119108374154096808e+00 7.432732269080862864e+01 2.880000000000000000e+02
5.291453162646409858e+00 7.292364991060679813e+01 2.880000000000000000e+02
5.463797951138722908e+00 7.151997713040496762e+01 2.880000000000000000e+02
5.636142739631035958e+00 7.011630435020313712e+01 2.880000000000000000e+02
5.808487528123349009e+00 6.871263157000130661e+01 2.880000000000000000e+02
5.980832316615662059e+00 6.730895878979947611e+01 2.880000000000000000e+02
4.429729220184845495e+00 7.994201381161596487e+01 2.890000000000000000e+02
4.602074008677158545e+00 7.853834103141412015e+01 2.890000000000000000e+02
4.774418797169471596e+00 7.713466825121228965e+01 2.890000000000000000e+02
4.946763585661784646e+00 7.573099547101045914e+01 2.890000000000000000e+02
5.119108374154096808e+00 7.432732269080862864e+01 2.890000000000000000e+02
5.291453162646409858e+00 7.292364991060679813e+01 2.890000000000000000e+02
5.463797951138722908e+00 7.151997713040496762e+01 2.890000000000000000e+02
5.636142739631035958e+00 7.011630435020313712e+01 2.890000000000000000e+02
5.808487528123349009e+00 6.871263157000130661e+01 2.890000000000000000e+02
5.980832316615662059e+00 6.730895878979947611e+01 2.890000000000000000e+02
4.429729220184845495e+00 7.994201381161596487e+01 2.900000000000000000e+02
4.602074008677158545e+00 7.853834103141412015e+01 2.900000000000000000e+02
4.774418797169471596e+00 7.713466825121228965e+01 2.900000000000000000e+02
4.946763585661784646e+00 7.573099547101045914e+01 2.900000000000000000e+02
5.119108374154096808e+00 7.432732269080862864e+01 2.900000000000000000e+02
5.291453162646409858e+00 7.292364991060679813e+01 2.900000000000000000e+02
5.463797951138722908e+00 7.151997713040496762e+01 2.900000000000000000e+02
5.636142739631035958e+00 7.011630435020313712e+01 2.900000000000000000e+02
5.808487528123349009e+00 6.871263157000130661e+01 2.900000000000000000e+02
5.980832316615662059e+00 6.730895878979947611e+01 2.900000000000000000e+02
3.814065224330086323e+00 7.915400502726888021e+01 2.910000000000000000e+02
3.986410012822399374e+00 7.775033224706704971e+01 2.910000000000000000e+02
4.158754801314712424e+00 7.634665946686521920e+01 2.910000000000000000e+02
4.331099589807024586e+00 7.494298668666338870e+01 2.910000000000000000e+02
4.503444378299337636e+00 7.353931390646155819e+01 2.910000000000000000e+02
4.675789166791650686e+00 7.213564112625972768e+01 2.910000000000000000e+02
4.848133955283963736e+00 7.073196834605789718e+01 2.910000000000000000e+02
5.020478743776276787e+00 6.932829556585606667e+01 2.910000000000000000e+02
5.192823532268589837e+00 6.792462278565423617e+01 2.910000000000000000e+02
3.814065224330086323e+00 7.915400502726888021e+01 2.920000000000000000e+02
3.986410012822399374e+00 7.775033224706704971e+01 2.920000000000000000e+02
4.158754801314712424e+00 7.634665946686521920e+01 2.920000000000000000e+02
4.331099589807024586e+00 7.494298668666338870e+01 2.920000000000000000e+02
4.503444378299337636e+00 7.353931390646155819e+01 2.920000000000000000e+02
4.675789166791650686e+00 7.213564112625972768e+01 2.920000000000000000e+02
4.848133955283963736e+00 7.073196834605789718e+01 2.920000000000000000e+02
5.020478743776276787e+00 6.932829556585606667e+01 2.920000000000000000e+02
5.192823532268589837e+00 6.792462278565423617e+01 2.920000000000000000e+02
4.429729220184845495e+00 7.994201381161596487e+01 2.930000000000000000e+02
4.602074008677158545e+00 7.853834103141412015e+01 2.930000000000000000e+02
4.774418797169471596e+00 7.713466825121228965e+01 2.930000000000000000e+02
4.946763585661784646e+00 7.573099547101045914e+01 2.930000000000000000e+02
5.119108374154096808e+00 7.432732269080862864e+01 2.930000000000000000e+02
5.291453162646409858e+00 7.292364991060679813e+01 2.930000000000000000e+02
5.463797951138722908e+00 7.151997713040496762e+01 2.930000000000000000e+02
5.636142739631035958e+00 7.011630435020313712e+01 2.930000000000000000e+02
5.808487528123349009e+00 6.871263157000130661e+01 2.930000000000000000e+02
5.980832316615662059e+00 6.730895878979947611e+01 2.930000000000000000e+02
4.429729220184845495e+00 7.994201381161596487e+01 2.940000000000000000e+02
4.602074008677158545e+00 7.853834103141412015e+01 2.940000000000000000e+02
4.774418797169471596e+00 7.713466825121228965e+01 2.940000000000000000e+02
4.946763585661784646e+00 7.573099547101045914e+01 2.940000000000000000e+02
5.119108374154096808e+00 7.432732269080862864e+01 2.940000000000000000e+02
5.291453162646409858e+00 7.292364991060679813e+01 2.940000000000000000e+02
5.463797951138722908e+00 7.151997713040496762e+01 2.940000000000000000e+02
5.636142739631035958e+00 7.011630435020313712e+01 2.940000000000000000e+02
5.808487528123349009e+00 6.871263157000130661e+01 2.940000000000000000e+02
5.980832316615662059e+00 6.730895878979947611e+01 2.940000000000000000e+02
4.429729220184845495e+00 7.994201381161596487e+01 2.950000000000000000e+02
4.602074008677158545e+00 7.853834103141412015e+01 2.950000000000000000e+02
4.774418797169471596e+00 7.713466825121228965e+01 2.950000000000000000e+02
4.946763585661784646e+00 7.573099547101045914e+01 2.950000000000000000e+02
5.119108374154096808e+00 7.432732269080862864e+01 2.950000000000000000e+02
5.291453162646409858e+00 7.292364991060679813e+01 2.950000000000000000e+02
5.463797951138722908e+00 7.151997713040496762e+01 2.950000000000000000e+02
5.636142739631035958e+00 7.011630435020313712e+01 2.950000000000000000e+02
5.808487528123349009e+00 6.871263157000130661e+01 2.950000000000000000e+02
5.980832316615662059e+00 6.730895878979947611e+01 2.950000000000000000e+02
3.814065224330086323e+00 7.915400502726888021e+01 2.960000000000000000e+02
3.986410012822399374e+00 7.775033224706704971e+01 2.960000000000000000e+02
4.158754801314712424e+00 7.634665946686521920e+01 2.960000000000000000e+02
4.331099589807024586e+00 7.494298668666338870e+01 2.960000000000000000e+02
4.503444378299337636e+00 7.353931390646155819e+01 2.960000000000000000e+02
4.675789166791650686e+00 7.213564112625972768e+01 2.960000000000000000e+02
4.848133955283963736e+00 7.073196834605789718e+01 2.960000000000000000e+02
5.020478743776276787e+00 6.932829556585606667e+01 2.960000000000000000e+02
5.192823532268589837e+00 6.792462278565423617e+01 2.960000000000000000e+02
3.814065224330086323e+00 7.915400502726888021e+01 2.970000000000000000e+02
3.986410012822399374e+00 7.775033224706704971e+01 2.970000000000000000e+02
4.158754801314712424e+00 7.634665946686521920e+01 2.970000000000000000e+02
4.331099589807024586e+00 7.494298668666338870e+01 2.970000000000000000e+02
4.503444378299337636e+00 7.353931390646155819e+01 2.970000000000000000e+02
4.675789166791650686e+00 7.213564112625972768e+01 2.970000000000000000e+02
4.848133955283963736e+00 7.073196834605789718e+01 2.970000000000000000e+02
5.020478743776276787e+00 6.932829556585606667e+01 2.970000000000000000e+02
5.192823532268589837e+00 6.792462278565423617e+01 2.970000000000000000e+02
3.814065224330086323e+00 7.915400502726888021e+01 2.980000000000000000e+02
3.986410012822399374e+00 7.775033224706704971e+01 2.980000000000000000e+02
4.158754801314712424e+00 7.634665946686521920e+01 2.980000000000000000e+02
4.331099589807024586e+00 7.494298668666338870e+01 2.980000000000000000e+02
4.503444378299337636e+00 7.353931390646155819e+01 2.980000000000000000e+02
4.675789166791650686e+00 7.213564112625972768e+01 2.980000000000000000e+02
4.848133955283963736e+00 7.073196834605789718e+01 2.980000000000000000e+02
5.020478743776276787e+00 6.932829556585606667e+01 2.980000000000000000e+02
5.192823532268589837e+00 6.792462278565423617e+01 2.980000000000000000e+02
4.429729220184845495e+00 7.994201381161596487e+01 2.990000000000000000e+02
4.602074008677158545e+00 7.853834103141412015e+01 2.990000000000000000e+02
4.774418797169471596e+00 7.713466825121228965e+01 2.990000000000000000e+02
4.946763585661784646e+00 7.573099547101045914e+01 2.990000000000000000e+02
5.119108374154096808e+00 7.432732269080862864e+01 2.990000000000000000e+02
5.291453162646409858e+00 7.292364991060679813e+01 2.990000000000000000e+02
5.463797951138722908e+00 7.151997713040496762e+01 2.990000000000000000e+02
5.636142739631035958e+00 7.011630435020313712e+01 2.990000000000000000e+02
5.808487528123349009e+00 6.871263157000130661e+01 2.990000000000000000e+02
5.980832316615662059e+00 6.730895878979947611e+01 2.990000000000000000e+02
6.153177105107975109e+00 6.590528600959764560e+01 2.990000000000000000e+02
4.429729220184845495e+00 7.994201381161596487e+01 3.000000000000000000e+02
4.602074008677158545e+00 7.853834103141412015e+01 3.000000000000000000e+02
4.774418797169471596e+00 7.713466825121228965e+01 3.000000000000000000e+02
4.946763585661784646e+00 7.573099547101045914e+01 3.000000000000000000e+02
5.119108374154096808e+00 7.432732269080862864e+01 3.000000000000000000e+02
5.291453162646409858e+00 7.292364991060679813e+01 3.000000000000000000e+02
5.463797951138722908e+00 7.151997713040496762e+01 3.000000000000000000e+02
5.636142739631035958e+00 7.011630435020313712e+01 3.000000000000000000e+02
5.808487528123349009e+00 6.871263157000130661e+01 3.000000000000000000e+02
5.980832316615662059e+00 6.730895878979947611e+01 3.000000000000000000e+02
3.814065224330086323e+00 7.915400502726888021e+01 3.010000000000000000e+02
3.986410012822399374e+00 7.775033224706704971e+01 3.010000000000000000e+02
4.158754801314712424e+00 7.634665946686521920e+01 3.010000000000000000e+02
4.331099589807024586e+00 7.494298668666338870e+01 3.010000000000000000e+02
4.503444378299337636e+00 7.353931390646155819e+01 3.010000000000000000e+02
4.675789166791650686e+00 7.213564112625972768e+01 3.010000000000000000e+02
4.848133955283963736e+00 7.073196834605789718e+01 3.010000000000000000e+02
5.020478743776276787e+00 6.932829556585606667e+01 3.010000000000000000e+02
5.192823532268589837e+00 6.792462278565423617e+01 3.010000000000000000e+02
3.814065224330086323e+00 7.915400502726888021e+01 3.020000000000000000e+02
3.986410012822399374e+00 7.775033224706704971e+01 3.020000000000000000e+02
4.158754801314712424e+00 7.634665946686521920e+01 3.020000000000000000e+02
4.331099589807024586e+00 7.494298668666338870e+01 3.020000000000000000e+02
4.503444378299337636e+00 7.353931390646155819e+01 3.020000000000000000e+02
4.675789166791650686e+00 7.213564112625972768e+01 3.020000000000000000e+02
4.848133955283963736e+00 7.073196834605789718e+01 3.020000000000000000e+02
5.020478743776276787e+00 6.932829556585606667e+01 3.020000000000000000e+02
5.192823532268589837e+00 6.792462278565423617e+01 3.020000000000000000e+02
5.365168320760902887e+00 6.652095000545240566e+01 3.020000000000000000e+02
3.814065224330086323e+00 7.915400502726888021e+01 3.030000000000000000e+02
3.986410012822399374e+00 7.775033224706704971e+01 3.030000000000000000e+02
4.158754801314712424e+00 7.634665946686521920e+01 3.030000000000000000e+02
4.331099589807024586e+00 7.494298668666338870e+01 3.030000000000000000e+02
4.503444378299337636e+00 7.353931390646155819e+01 3.030000000000000000e+02
4.675789166791650686e+00 7.213564112625972768e+01 3.030000000000000000e+02
4.848133955283963736e+00 7.073196834605789718e+01 3.030000000000000000e+02
5.020478743776276787e+00 6.932829556585606667e+01 3.030000000000000000e+02
5.192823532268589837e+00 6.792462278565423617e+01 3.030000000000000000e+02
3.814065224330086323e+00 7.915400502726888021e+01 3.040000000000000000e+02
3.986410012822399374e+00 7.775033224706704971e+01 3.040000000000000000e+02
4.158754801314712424e+00 7.634665946686521920e+01 3.040000000000000000e+02
4.331099589807024586e+00 7.494298668666338870e+01 3.040000000000000000e+02
4.503444378299337636e+00 7.353931390646155819e+01 3.040000000000000000e+02
4.675789166791650686e+00 7.213564112625972768e+01 3.040000000000000000e+02
4.848133955283963736e+00 7.073196834605789718e+01 3.040000000000000000e+02
5.020478743776276787e+00 6.932829556585606667e+01 3.040000000000000000e+02
5.192823532268589837e+00 6.792462278565423617e+01 3.040000000000000000e+02
5.365168320760902887e+00 6.652095000545240566e+01 3.040000000000000000e+02
4.429729220184845495e+00 7.994201381161596487e+01 3.050000000000000000e+02
4.602074008677158545e+00 7.853834103141412015e+01 3.050000000000000000e+02
4.774418797169471596e+00 7.713466825121228965e+01 3.050000000000000000e+02
4.946763585661784646e+00 7.573099547101045914e+01 3.050000000000000000e+02
5.119108374154096808e+00 7.432732269080862864e+01 3.050000000000000000e+02
5.291453162646409858e+00 7.292364991060679813e+01 3.050000000000000000e+02
5.463797951138722908e+00 7.151997713040496762e+01 3.050000000000000000e+02
5.636142739631035958e+00 7.011630435020313712e+01 3.050000000000000000e+02
5.808487528123349009e+00 6.871263157000130661e+01 3.050000000000000000e+02
5.980832316615662059e+00 6.730895878979947611e+01 3.050000000000000000e+02
3.814065224330086323e+00 7.915400502726888021e+01 3.060000000000000000e+02
3.986410012822399374e+00 7.775033224706704971e+01 3.060000000000000000e+02
4.158754801314712424e+00 7.634665946686521920e+01 3.060000000000000000e+02
4.331099589807024586e+00 7.494298668666338870e+01 3.060000000000000000e+02
4.503444378299337636e+00 7.353931390646155819e+01 3.060000000000000000e+02
4.675789166791650686e+00 7.213564112625972768e+01 3.060000000000000000e+02
4.848133955283963736e+00 7.073196834605789718e+01 3.060000000000000000e+02
5.020478743776276787e+00 6.932829556585606667e+01 3.060000000000000000e+02
5.192823532268589837e+00 6.792462278565423617e+01 3.060000000000000000e+02
3.814065224330086323e+00 7.915400502726888021e+01 3.070000000000000000e+02
3.986410012822399374e+00 7.775033224706704971e+01 3.070000000000000000e+02
4.158754801314712424e+00 7.634665946686521920e+01 3.070000000000000000e+02
4.331099589807024586e+00 7.494298668666338870e+01 3.070000000000000000e+02
4.503444378299337636e+00 7.353931390646155819e+01 3.070000000000000000e+02
4.675789166791650686e+00 7.213564112625972768e+01 3.070000000000000000e+02
4.848133955283963736e+00 7.073196834605789718e+01 3.070000000000000000e+02
5.020478743776276787e+00 6.932829556585606667e+01 3.070000000000000000e+02
5.192823532268589837e+00 6.792462278565423617e+01 3.070000000000000000e+02
3.814065224330086323e+00 7.915400502726888021e+01 3.080000000000000000e+02
3.986410012822399374e+00 7.775033224706704971e+01 3.080000000000000000e+02
4.158754801314712424e+00 7.634665946686521920e+01 3.080000000000000000e+02
4.331099589807024586e+00 7.494298668666338870e+01 3.080000000000000000e+02
4.503444378299337636e+00 7.353931390646155819e+01 3.080000000000000000e+02
4.675789166791650686e+00 7.213564112625972768e+01 3.080000000000000000e+02
4.848133955283963736e+00 7.073196834605789718e+01 3.080000000000000000e+02
5.020478743776276787e+00 6.932829556585606667e+01 3.080000000000000000e+02
5.192823532268589837e+00 6.792462278565423617e+01 3.080000000000000000e+02
3.814065224330086323e+00 7.915400502726888021e+01 3.090000000000000000e+02
3.986410012822399374e+00 7.775033224706704971e+01 3.090000000000000000e+02
4.158754801314712424e+00 7.634665946686521920e+01 3.090000000000000000e+02
4.331099589807024586e+00 7.494298668666338870e+01 3.090000000000000000e+02
4.503444378299337636e+00 7.353931390646155819e+01 3.090000000000000000e+02
4.675789166791650686e+00 7.213564112625972768e+01 3.090000000000000000e+02
4.848133955283963736e+00 7.073196834605789718e+01 3.090000000000000000e+02
5.020478743776276787e+00 6.932829556585606667e+01 3.090000000000000000e+02
5.192823532268589837e+00 6.792462278565423617e+01 3.090000000000000000e+02
3.814065224330086323e+00 7.915400502726888021e+01 3.100000000000000000e+02
3.986410012822399374e+00 7.775033224706704971e+01 3.100000000000000000e+02
4.158754801314712424e+00 7.634665946686521920e+01 3.100000000000000000e+02
4.331099589807024586e+00 7.494298668666338870e+01 3.100000000000000000e+02
4.503444378299337636e+00 7.353931390646155819e+01 3.100000000000000000e+02
4.675789166791650686e+00 7.213564112625972768e+01 3.100000000000000000e+02
4.848133955283963736e+00 7.073196834605789718e+01 3.100000000000000000e+02
5.020478743776276787e+00 6.932829556585606667e+01 3.100000000000000000e+02
5.192823532268589837e+00 6.792462278565423617e+01 3.100000000000000000e+02
4.429729220184845495e+00 7.994201381161596487e+01 3.110000000000000000e+02
4.602074008677158545e+00 7.853834103141412015e+01 3.110000000000000000e+02
4.774418797169471596e+00 7.713466825121228965e+01 3.110000000000000000e+02
4.946763585661784646e+00 7.573099547101045914e+01 3.110000000000000000e+02
5.119108374154096808e+00 7.432732269080862864e+01 3.110000000000000000e+02
5.291453162646409858e+00 7.292364991060679813e+01 3.110000000000000000e+02
5.463797951138722908e+00 7.151997713040496762e+01 3.110000000000000000e+02
5.636142739631035958e+00 7.011630435020313712e+01 3.110000000000000000e+02
5.808487528123349009e+00 6.871263157000130661e+01 3.110000000000000000e+02
5.980832316615662059e+00 6.730895878979947611e+01 3.110000000000000000e+02
3.814065224330086323e+00 7.915400502726888021e+01 3.120000000000000000e+02
3.986410012822399374e+00 7.775033224706704971e+01 3.120000000000000000e+02
4.158754801314712424e+00 7.634665946686521920e+01 3.120000000000000000e+02
4.331099589807024586e+00 7.494298668666338870e+01 3.120000000000000000e+02
4.503444378299337636e+00 7.353931390646155819e+01 3.120000000000000000e+02
4.675789166791650686e+00 7.213564112625972768e+01 3.120000000000000000e+02
4.848133955283963736e+00 7.073196834605789718e+01 3.120000000000000000e+02
5.020478743776276787e+00 6.932829556585606667e+01 3.120000000000000000e+02
5.192823532268589837e+00 6.792462278565423617e+01 3.120000000000000000e+02
3.814065224330086323e+00 7.915400502726888021e+01 3.130000000000000000e+02
3.986410012822399374e+00 7.775033224706704971e+01 3.130000000000000000e+02
4.158754801314712424e+00 7.634665946686521920e+01 3.130000000000000000e+02
4.331099589807024586e+00 7.494298668666338870e+01 3.130000000000000000e+02
4.503444378299337636e+00 7.353931390646155819e+01 3.130000000000000000e+02
4.675789166791650686e+00 7.213564112625972768e+01 3.130000000000000000e+02
4.848133955283963736e+00 7.073196834605789718e+01 3.130000000000000000e+02
5.020478743776276787e+00 6.932829556585606667e+01 3.130000000000000000e+02
5.192823532268589837e+00 6.792462278565423617e+01 3.130000000000000000e+02
3.814065224330086323e+00 7.915400502726888021e+01 3.140000000000000000e+02
3.986410012822399374e+00 7.775033224706704971e+01 3.140000000000000000e+02
4.158754801314712424e+00 7.634665946686521920e+01 3.140000000000000000e+02
4.331099589807024586e+00 7.494298668666338870e+01 3.140000000000000000e+02
4.503444378299337636e+00 7.353931390646155819e+01 3.140000000000000000e+02
4.675789166791650686e+00 7.213564112625972768e+01 3.140000000000000000e+02
4.848133955283963736e+00 7.073196834605789718e+01 3.140000000000000000e+02
5.020478743776276787e+00 6.932829556585606667e+01 3.140000000000000000e+02
5.192823532268589837e+00 6.792462278565423617e+01 3.140000000000000000e+02
3.814065224330086323e+00 7.915400502726888021e+01 3.150000000000000000e+02
3.986410012822399374e+00 7.775033224706704971e+01 3.150000000000000000e+02
4.158754801314712424e+00 7.634665946686521920e+01 3.150000000000000000e+02
4.331099589807024586e+00 7.494298668666338870e+01 3.150000000000000000e+02
4.503444378299337636e+00 7.353931390646155819e+01 3.150000000000000000e+02
4.675789166791650686e+00 7.213564112625972768e+01 3.150000000000000000e+02
4.848133955283963736e+00 7.073196834605789718e+01 3.150000000000000000e+02
5.020478743776276787e+00 6.932829556585606667e+01 3.150000000000000000e+02
5.192823532268589837e+00 6.792462278565423617e+01 3.150000000000000000e+02
4.429729220184845495e+00 7.994201381161596487e+01 3.160000000000000000e+02
4.602074008677158545e+00 7.853834103141412015e+01 3.160000000000000000e+02
4.774418797169471596e+00 7.713466825121228965e+01 3.160000000000000000e+02
4.946763585661784646e+00 7.573099547101045914e+01 3.160000000000000000e+02
5.119108374154096808e+00 7.432732269080862864e+01 3.160000000000000000e+02
5.291453162646409858e+00 7.292364991060679813e+01 3.160000000000000000e+02
5.463797951138722908e+00 7.151997713040496762e+01 3.160000000000000000e+02
5.636142739631035958e+00 7.011630435020313712e+01 3.160000000000000000e+02
5.808487528123349009e+00 6.871263157000130661e+01 3.160000000000000000e+02
5.980832316615662059e+00 6.730895878979947611e+01 3.160000000000000000e+02
3.814065224330086323e+00 7.915400502726888021e+01 3.170000000000000000e+02
3.986410012822399374e+00 7.775033224706704971e+01 3.170000000000000000e+02
4.158754801314712424e+00 7.634665946686521920e+01 3.170000000000000000e+02
4.331099589807024586e+00 7.494298668666338870e+01 3.170000000000000000e+02
4.503444378299337636e+00 7.353931390646155819e+01 3.170000000000000000e+02
4.675789166791650686e+00 7.213564112625972768e+01 3.170000000000000000e+02
4.848133955283963736e+00 7.073196834605789718e+01 3.170000000000000000e+02
5.020478743776276787e+00 6.932829556585606667e+01 3.170000000000000000e+02
5.192823532268589837e+00 6.792462278565423617e+01 3.170000000000000000e+02
5.365168320760902887e+00 6.652095000545240566e+01 3.170000000000000000e+02
3.814065224330086323e+00 7.915400502726888021e+01 3.180000000000000000e+02
3.986410012822399374e+00 7.775033224706704971e+01 3.180000000000000000e+02
4.158754801314712424e+00 7.634665946686521920e+01 3.180000000000000000e+02
4.331099589807024586e+00 7.494298668666338870e+01 3.180000000000000000e+02
4.503444378299337636e+00 7.353931390646155819e+01 3.180000000000000000e+02
4.675789166791650686e+00 7.213564112625972768e+01 3.180000000000000000e+02
4.848133955283963736e+00 7.073196834605789718e+01 3.180000000000000000e+02
5.020478743776276787e+00 6.932829556585606667e+01 3.180000000000000000e+02
5.192823532268589837e+00 6.792462278565423617e+01 3.180000000000000000e+02
5.365168320760902887e+00 6.652095000545240566e+01 3.180000000000000000e+02
3.814065224330086323e+00 7.915400502726888021e+01 3.190000000000000000e+02
3.986410012822399374e+00 7.775033224706704971e+01 3.190000000000000000e+02
4.158754801314712424e+00 7.634665946686521920e+01 3.190000000000000000e+02
4.331099589807024586e+00 7.494298668666338870e+01 3.190000000000000000e+02
4.503444378299337636e+00 7.353931390646155819e+01 3.190000000000000000e+02
4.675789166791650686e+00 7.213564112625972768e+01 3.190000000000000000e+02
4.848133955283963736e+00 7.073196834605789718e+01 3.190000000000000000e+02
5.020478743776276787e+00 6.932829556585606667e+01 3.190000000000000000e+02
5.192823532268589837e+00 6.792462278565423617e+01 3.190000000000000000e+02
5.365168320760902887e+00 6.652095000545240566e+01 3.190000000000000000e+02
3.814065224330086323e+00 7.915400502726888021e+01 3.200000000000000000e+02
3.986410012822399374e+00 7.775033224706704971e+01 3.200000000000000000e+02
4.158754801314712424e+00 7.634665946686521920e+01 3.200000000000000000e+02
4.331099589807024586e+00 7.494298668666338870e+01 3.200000000000000000e+02
4.503444378299337636e+00 7.353931390646155819e+01 3.200000000000000000e+02
4.675789166791650686e+00 7.213564112625972768e+01 3.200000000000000000e+02
4.848133955283963736e+00 7.073196834605789718e+01 3.200000000000000000e+02
5.020478743776276787e+00 6.932829556585606667e+01 3.200000000000000000e+02
5.192823532268589837e+00 6.792462278565423617e+01 3.200000000000000000e+02
3.814065224330086323e+00 7.915400502726888021e+01 3.210000000000000000e+02
3.986410012822399374e+00 7.775033224706704971e+01 3.210000000000000000e+02
4.158754801314712424e+00 7.634665946686521920e+01 3.210000000000000000e+02
4.331099589807024586e+00 7.494298668666338870e+01 3.210000000000000000e+02
4.503444378299337636e+00 7.353931390646155819e+01 3.210000000000000000e+02
4.675789166791650686e+00 7.213564112625972768e+01 3.210000000000000000e+02
4.848133955283963736e+00 7.073196834605789718e+01 3.210000000000000000e+02
5.020478743776276787e+00 6.932829556585606667e+01 3.210000000000000000e+02
5.192823532268589837e+00 6.792462278565423617e+01 3.210000000000000000e+02
3.814065224330086323e+00 7.915400502726888021e+01 3.220000000000000000e+02
3.986410012822399374e+00 7.775033224706704971e+01 3.220000000000000000e+02
4.158754801314712424e+00 7.634665946686521920e+01 3.220000000000000000e+02
4.331099589807024586e+00 7.494298668666338870e+01 3.220000000000000000e+02
4.503444378299337636e+00 7.353931390646155819e+01 3.220000000000000000e+02
4.675789166791650686e+00 7.213564112625972768e+01 3.220000000000000000e+02
4.848133955283963736e+00 7.073196834605789718e+01 3.220000000000000000e+02
5.020478743776276787e+00 6.932829556585606667e+01 3.220000000000000000e+02
5.192823532268589837e+00 6.792462278565423617e+01 3.220000000000000000e+02
3.814065224330086323e+00 7.915400502726888021e+01 3.230000000000000000e+02
3.986410012822399374e+00 7.775033224706704971e+01 3.230000000000000000e+02
4.158754801314712424e+00 7.634665946686521920e+01 3.230000000000000000e+02
4.331099589807024586e+00 7.494298668666338870e+01 3.230000000000000000e+02
4.503444378299337636e+00 7.353931390646155819e+01 3.230000000000000000e+02
4.675789166791650686e+00 7.213564112625972768e+01 3.230000000000000000e+02
4.848133955283963736e+00 7.073196834605789718e+01 3.230000000000000000e+02
5.020478743776276787e+00 6.932829556585606667e+01 3.230000000000000000e+02
5.192823532268589837e+00 6.792462278565423617e+01 3.230000000000000000e+02
5.365168320760902887e+00 6.652095000545240566e+01 3.230000000000000000e+02
3.814065224330086323e+00 7.915400502726888021e+01 3.240000000000000000e+02
3.986410012822399374e+00 7.775033224706704971e+01 3.240000000000000000e+02
4.158754801314712424e+00 7.634665946686521920e+01 3.240000000000000000e+02
4.331099589807024586e+00 7.494298668666338870e+01 3.240000000000000000e+02
4.503444378299337636e+00 7.353931390646155819e+01 3.240000000000000000e+02
4.675789166791650686e+00 7.213564112625972768e+01 3.240000000000000000e+02
4.848133955283963736e+00 7.073196834605789718e+01 3.240000000000000000e+02
5.020478743776276787e+00 6.932829556585606667e+01 3.240000000000000000e+02
5.192823532268589837e+00 6.792462278565423617e+01 3.240000000000000000e+02
5.365168320760902887e+00 6.652095000545240566e+01 3.240000000000000000e+02
3.814065224330086323e+00 7.915400502726888021e+01 3.250000000000000000e+02
3.986410012822399374e+00 7.775033224706704971e+01 3.250000000000000000e+02
4.158754801314712424e+00 7.634665946686521920e+01 3.250000000000000000e+02
4.331099589807024586e+00 7.494298668666338870e+01 3.250000000000000000e+02
4.503444378299337636e+00 7.353931390646155819e+01 3.250000000000000000e+02
4.675789166791650686e+00 7.213564112625972768e+01 3.250000000000000000e+02
4.848133955283963736e+00 7.073196834605789718e+01 3.250000000000000000e+02
5.020478743776276787e+00 6.932829556585606667e+01 3.250000000000000000e+02
5.192823532268589837e+00 6.792462278565423617e+01 3.250000000000000000e+02
3.814065224330086323e+00 7.915400502726888021e+01 3.260000000000000000e+02
3.986410012822399374e+00 7.775033224706704971e+01 3.260000000000000000e+02
4.158754801314712424e+00 7.634665946686521920e+01 3.260000000000000000e+02
4.331099589807024586e+00 7.494298668666338870e+01 3.260000000000000000e+02
4.503444378299337636e+00 7.353931390646155819e+01 3.260000000000000000e+02
4.675789166791650686e+00 7.213564112625972768e+01 3.260000000000000000e+02
4.848133955283963736e+00 7.073196834605789718e+01 3.260000000000000000e+02
5.020478743776276787e+00 6.932829556585606667e+01 3.260000000000000000e+02
5.192823532268589837e+00 6.792462278565423617e+01 3.260000000000000000e+02
4.429729220184845495e+00 7.994201381161596487e+01 3.270000000000000000e+02
4.602074008677158545e+00 7.853834103141412015e+01 3.270000000000000000e+02
4.774418797169471596e+00 7.713466825121228965e+01 3.270000000000000000e+02
4.946763585661784646e+00 7.573099547101045914e+01 3.270000000000000000e+02
5.119108374154096808e+00 7.432732269080862864e+01 3.270000000000000000e+02
5.291453162646409858e+00 7.292364991060679813e+01 3.270000000000000000e+02
5.463797951138722908e+00 7.151997713040496762e+01 3.270000000000000000e+02
5.636142739631035958e+00 7.011630435020313712e+01 3.270000000000000000e+02
5.808487528123349009e+00 6.871263157000130661e+01 3.270000000000000000e+02
5.980832316615662059e+00 6.730895878979947611e+01 3.270000000000000000e+02
3.814065224330086323e+00 7.915400502726888021e+01 3.280000000000000000e+02
3.986410012822399374e+00 7.775033224706704971e+01 3.280000000000000000e+02
4.158754801314712424e+00 7.634665946686521920e+01 3.280000000000000000e+02
4.331099589807024586e+00 7.494298668666338870e+01 3.280000000000000000e+02
4.503444378299337636e+00 7.353931390646155819e+01 3.280000000000000000e+02
4.675789166791650686e+00 7.213564112625972768e+01 3.280000000000000000e+02
4.848133955283963736e+00 7.073196834605789718e+01 3.280000000000000000e+02
5.020478743776276787e+00 6.932829556585606667e+01 3.280000000000000000e+02
5.192823532268589837e+00 6.792462278565423617e+01 3.280000000000000000e+02
5.365168320760902887e+00 6.652095000545240566e+01 3.280000000000000000e+02
3.814065224330086323e+00 7.915400502726888021e+01 3.290000000000000000e+02
3.986410012822399374e+00 7.775033224706704971e+01 3.290000000000000000e+02
4.158754801314712424e+00 7.634665946686521920e+01 3.290000000000000000e+02
4.331099589807024586e+00 7.494298668666338870e+01 3.290000000000000000e+02
4.503444378299337636e+00 7.353931390646155819e+01 3.290000000000000000e+02
4.675789166791650686e+00 7.213564112625972768e+01 3.290000000000000000e+02
4.848133955283963736e+00 7.073196834605789718e+01 3.290000000000000000e+02
5.020478743776276787e+00 6.932829556585606667e+01 3.290000000000000000e+02
5.192823532268589837e+00 6.792462278565423617e+01 3.290000000000000000e+02
5.365168320760902887e+00 6.652095000545240566e+01 3.290000000000000000e+02
3.814065224330086323e+00 7.915400502726888021e+01 3.300000000000000000e+02
3.986410012822399374e+00 7.775033224706704971e+01 3.300000000000000000e+02
4.158754801314712424e+00 7.634665946686521920e+01 3.300000000000000000e+02
4.331099589807024586e+00 7.494298668666338870e+01 3.300000000000000000e+02
4.503444378299337636e+00 7.353931390646155819e+01 3.300000000000000000e+02
4.675789166791650686e+00 7.213564112625972768e+01 3.300000000000000000e+02
4.848133955283963736e+00 7.073196834605789718e+01 3.300000000000000000e+02
5.020478743776276787e+00 6.932829556585606667e+01 3.300000000000000000e+02
5.192823532268589837e+00 6.792462278565423617e+01 3.300000000000000000e+02
3.814065224330086323e+00 7.915400502726888021e+01 3.310000000000000000e+02
3.986410012822399374e+00 7.775033224706704971e+01 3.310000000000000000e+02
4.158754801314712424e+00 7.634665946686521920e+01 3.310000000000000000e+02
4.331099589807024586e+00 7.494298668666338870e+01 3.310000000000000000e+02
4.503444378299337636e+00 7.353931390646155819e+01 3.310000000000000000e+02
4.675789166791650686e+00 7.213564112625972768e+01 3.310000000000000000e+02
4.848133955283963736e+00 7.073196834605789718e+01 3.310000000000000000e+02
5.020478743776276787e+00 6.932829556585606667e+01 3.310000000000000000e+02
5.192823532268589837e+00 6.792462278565423617e+01 3.310000000000000000e+02
3.814065224330086323e+00 7.915400502726888021e+01 3.320000000000000000e+02
3.986410012822399374e+00 7.775033224706704971e+01 3.320000000000000000e+02
4.158754801314712424e+00 7.634665946686521920e+01 3.320000000000000000e+02
4.331099589807024586e+00 7.494298668666338870e+01 3.320000000000000000e+02
4.503444378299337636e+00 7.353931390646155819e+01 3.320000000000000000e+02
4.675789166791650686e+00 7.213564112625972768e+01 3.320000000000000000e+02
4.848133955283963736e+00 7.073196834605789718e+01 3.320000000000000000e+02
5.020478743776276787e+00 6.932829556585606667e+01 3.320000000000000000e+02
5.192823532268589837e+00 6.792462278565423617e+01 3.320000000000000000e+02
3.814065224330086323e+00 7.915400502726888021e+01 3.330000000000000000e+02
3.986410012822399374e+00 7.775033224706704971e+01 3.330000000000000000e+02
4.158754801314712424e+00 7.634665946686521920e+01 3.330000000000000000e+02
4.331099589807024586e+00 7.494298668666338870e+01 3.330000000000000000e+02
4.503444378299337636e+00 7.353931390646155819e+01 3.330000000000000000e+02
4.675789166791650686e+00 7.213564112625972768e+01 3.330000000000000000e+02
4.848133955283963736e+00 7.073196834605789718e+01 3.330000000000000000e+02
5.020478743776276787e+00 6.932829556585606667e+01 3.330000000000000000e+02
5.192823532268589837e+00 6.792462278565423617e+01 3.330000000000000000e+02
5.365168320760902887e+00 6.652095000545240566e+01 3.330000000000000000e+02
3.814065224330086323e+00 7.915400502726888021e+01 3.340000000000000000e+02
3.986410012822399374e+00 7.775033224706704971e+01 3.340000000000000000e+02
4.158754801314712424e+00 7.634665946686521920e+01 3.340000000000000000e+02
4.331099589807024586e+00 7.494298668666338870e+01 3.340000000000000000e+02
4.503444378299337636e+00 7.353931390646155819e+01 3.340000000000000000e+02
4.675789166791650686e+00 7.213564112625972768e+01 3.340000000000000000e+02
4.848133955283963736e+00 7.073196834605789718e+01 3.340000000000000000e+02
5.020478743776276787e+00 6.932829556585606667e+01 3.340000000000000000e+02
5.192823532268589837e+00 6.792462278565423617e+01 3.340000000000000000e+02
3.814065224330086323e+00 7.915400502726888021e+01 3.350000000000000000e+02
3.986410012822399374e+00 7.775033224706704971e+01 3.350000000000000000e+02
4.158754801314712424e+00 7.634665946686521920e+01 3.350000000000000000e+02
4.331099589807024586e+00 7.494298668666338870e+01 3.350000000000000000e+02
4.503444378299337636e+00 7.353931390646155819e+01 3.350000000000000000e+02
4.675789166791650686e+00 7.213564112625972768e+01 3.350000000000000000e+02
4.848133955283963736e+00 7.073196834605789718e+01 3.350000000000000000e+02
5.020478743776276787e+00 6.932829556585606667e+01 3.350000000000000000e+02
5.192823532268589837e+00 6.792462278565423617e+01 3.350000000000000000e+02
3.814065224330086323e+00 7.915400502726888021e+01 3.360000000000000000e+02
3.986410012822399374e+00 7.775033224706704971e+01 3.360000000000000000e+02
4.158754801314712424e+00 7.634665946686521920e+01 3.360000000000000000e+02
4.331099589807024586e+00 7.494298668666338870e+01 3.360000000000000000e+02
4.503444378299337636e+00 7.353931390646155819e+01 3.360000000000000000e+02
4.675789166791650686e+00 7.213564112625972768e+01 3.360000000000000000e+02
4.848133955283963736e+00 7.073196834605789718e+01 3.360000000000000000e+02
5.020478743776276787e+00 6.932829556585606667e+01 3.360000000000000000e+02
5.192823532268589837e+00 6.792462278565423617e+01 3.360000000000000000e+02
5.365168320760902887e+00 6.652095000545240566e+01 3.360000000000000000e+02
3.814065224330086323e+00 7.915400502726888021e+01 3.370000000000000000e+02
3.986410012822399374e+00 7.775033224706704971e+01 3.370000000000000000e+02
4.158754801314712424e+00 7.634665946686521920e+01 3.370000000000000000e+02
4.331099589807024586e+00 7.494298668666338870e+01 3.370000000000000000e+02
4.503444378299337636e+00 7.353931390646155819e+01 3.370000000000000000e+02
4.675789166791650686e+00 7.213564112625972768e+01 3.370000000000000000e+02
4.848133955283963736e+00 7.073196834605789718e+01 3.370000000000000000e+02
5.020478743776276787e+00 6.932829556585606667e+01 3.370000000000000000e+02
5.192823532268589837e+00 6.792462278565423617e+01 3.370000000000000000e+02
3.814065224330086323e+00 7.915400502726888021e+01 3.380000000000000000e+02
3.986410012822399374e+00 7.775033224706704971e+01 3.380000000000000000e+02
4.158754801314712424e+00 7.634665946686521920e+01 3.380000000000000000e+02
4.331099589807024586e+00 7.494298668666338870e+01 3.380000000000000000e+02
4.503444378299337636e+00 7.353931390646155819e+01 3.380000000000000000e+02
4.675789166791650686e+00 7.213564112625972768e+01 3.380000000000000000e+02
4.848133955283963736e+00 7.073196834605789718e+01 3.380000000000000000e+02
5.020478743776276787e+00 6.932829556585606667e+01 3.380000000000000000e+02
5.192823532268589837e+00 6.792462278565423617e+01 3.380000000000000000e+02
3.814065224330086323e+00 7.915400502726888021e+01 3.390000000000000000e+02
3.986410012822399374e+00 7.775033224706704971e+01 3.390000000000000000e+02
4.158754801314712424e+00 7.634665946686521920e+01 3.390000000000000000e+02
4.331099589807024586e+00 7.494298668666338870e+01 3.390000000000000000e+02
4.503444378299337636e+00 7.353931390646155819e+01 3.390000000000000000e+02
4.675789166791650686e+00 7.213564112625972768e+01 3.390000000000000000e+02
4.848133955283963736e+00 7.073196834605789718e+01 3.390000000000000000e+02
5.020478743776276787e+00 6.932829556585606667e+01 3.390000000000000000e+02
5.192823532268589837e+00 6.792462278565423617e+01 3.390000000000000000e+02
3.814065224330086323e+00 7.915400502726888021e+01 3.400000000000000000e+02
3.986410012822399374e+00 7.775033224706704971e+01 3.400000000000000000e+02
4.158754801314712424e+00 7.634665946686521920e+01 3.400000000000000000e+02
4.331099589807024586e+00 7.494298668666338870e+01 3.400000000000000000e+02
4.503444378299337636e+00 7.353931390646155819e+01 3.400000000000000000e+02
4.675789166791650686e+00 7.213564112625972768e+01 3.400000000000000000e+02
4.848133955283963736e+00 7.073196834605789718e+01 3.400000000000000000e+02
5.020478743776276787e+00 6.932829556585606667e+01 3.400000000000000000e+02
5.192823532268589837e+00 6.792462278565423617e+01 3.400000000000000000e+02
4.429729220184845495e+00 7.994201381161596487e+01 3.410000000000000000e+02
4.602074008677158545e+00 7.853834103141412015e+01 3.410000000000000000e+02
4.774418797169471596e+00 7.713466825121228965e+01 3.410000000000000000e+02
4.946763585661784646e+00 7.573099547101045914e+01 3.410000000000000000e+02
5.119108374154096808e+00 7.432732269080862864e+01 3.410000000000000000e+02
5.291453162646409858e+00 7.292364991060679813e+01 3.410000000000000000e+02
5.463797951138722908e+00 7.151997713040496762e+01 3.410000000000000000e+02
5.636142739631035958e+00 7.011630435020313712e+01 3.410000000000000000e+02
5.808487528123349009e+00 6.871263157000130661e+01 3.410000000000000000e+02
5.980832316615662059e+00 6.730895878979947611e+01 3.410000000000000000e+02
4.429729220184845495e+00 7.994201381161596487e+01 3.420000000000000000e+02
4.602074008677158545e+00 7.853834103141412015e+01 3.420000000000000000e+02
4.774418797169471596e+00 7.713466825121228965e+01 3.420000000000000000e+02
4.946763585661784646e+00 7.573099547101045914e+01 3.420000000000000000e+02
5.119108374154096808e+00 7.432732269080862864e+01 3.420000000000000000e+02
5.291453162646409858e+00 7.292364991060679813e+01 3.420000000000000000e+02
5.463797951138722908e+00 7.151997713040496762e+01 3.420000000000000000e+02
5.636142739631035958e+00 7.011630435020313712e+01 3.420000000000000000e+02
5.808487528123349009e+00 6.871263157000130661e+01 3.420000000000000000e+02
5.980832316615662059e+00 6.730895878979947611e+01 3.420000000000000000e+02
3.814065224330086323e+00 7.915400502726888021e+01 3.430000000000000000e+02
3.986410012822399374e+00 7.775033224706704971e+01 3.430000000000000000e+02
4.158754801314712424e+00 7.634665946686521920e+01 3.430000000000000000e+02
4.331099589807024586e+00 7.494298668666338870e+01 3.430000000000000000e+02
4.503444378299337636e+00 7.353931390646155819e+01 3.430000000000000000e+02
4.675789166791650686e+00 7.213564112625972768e+01 3.430000000000000000e+02
4.848133955283963736e+00 7.073196834605789718e+01 3.430000000000000000e+02
5.020478743776276787e+00 6.932829556585606667e+01 3.430000000000000000e+02
5.192823532268589837e+00 6.792462278565423617e+01 3.430000000000000000e+02
5.365168320760902887e+00 6.652095000545240566e+01 3.430000000000000000e+02
3.814065224330086323e+00 7.915400502726888021e+01 3.440000000000000000e+02
3.986410012822399374e+00 7.775033224706704971e+01 3.440000000000000000e+02
4.158754801314712424e+00 7.634665946686521920e+01 3.440000000000000000e+02
4.331099589807024586e+00 7.494298668666338870e+01 3.440000000000000000e+02
4.503444378299337636e+00 7.353931390646155819e+01 3.440000000000000000e+02
4.675789166791650686e+00 7.213564112625972768e+01 3.440000000000000000e+02
4.848133955283963736e+00 7.073196834605789718e+01 3.440000000000000000e+02
5.020478743776276787e+00 6.932829556585606667e+01 3.440000000000000000e+02
5.192823532268589837e+00 6.792462278565423617e+01 3.440000000000000000e+02
4.429729220184845495e+00 7.994201381161596487e+01 3.450000000000000000e+02
4.602074008677158545e+00 7.853834103141412015e+01 3.450000000000000000e+02
4.774418797169471596e+00 7.713466825121228965e+01 3.450000000000000000e+02
4.946763585661784646e+00 7.573099547101045914e+01 3.450000000000000000e+02
5.119108374154096808e+00 7.432732269080862864e+01 3.450000000000000000e+02
5.291453162646409858e+00 7.292364991060679813e+01 3.450000000000000000e+02
5.463797951138722908e+00 7.151997713040496762e+01 3.450000000000000000e+02
5.636142739631035958e+00 7.011630435020313712e+01 3.450000000000000000e+02
5.808487528123349009e+00 6.871263157000130661e+01 3.450000000000000000e+02
5.980832316615662059e+00 6.730895878979947611e+01 3.450000000000000000e+02
4.429729220184845495e+00 7.994201381161596487e+01 3.460000000000000000e+02
4.602074008677158545e+00 7.853834103141412015e+01 3.460000000000000000e+02
4.774418797169471596e+00 7.713466825121228965e+01 3.460000000000000000e+02
4.946763585661784646e+00 7.573099547101045914e+01 3.460000000000000000e+02
5.119108374154096808e+00 7.432732269080862864e+01 3.460000000000000000e+02
5.291453162646409858e+00 7.292364991060679813e+01 3.460000000000000000e+02
5.463797951138722908e+00 7.151997713040496762e+01 3.460000000000000000e+02
5.636142739631035958e+00 7.011630435020313712e+01 3.460000000000000000e+02
5.808487528123349009e+00 6.871263157000130661e+01 3.460000000000000000e+02
5.980832316615662059e+00 6.730895878979947611e+01 3.460000000000000000e+02
4.429729220184845495e+00 7.994201381161596487e+01 3.470000000000000000e+02
4.602074008677158545e+00 7.853834103141412015e+01 3.470000000000000000e+02
4.774418797169471596e+00 7.713466825121228965e+01 3.470000000000000000e+02
4.946763585661784646e+00 7.573099547101045914e+01 3.470000000000000000e+02
5.119108374154096808e+00 7.432732269080862864e+01 3.470000000000000000e+02
5.291453162646409858e+00 7.292364991060679813e+01 3.470000000000000000e+02
5.463797951138722908e+00 7.151997713040496762e+01 3.470000000000000000e+02
5.636142739631035958e+00 7.011630435020313712e+01 3.470000000000000000e+02
5.808487528123349009e+00 6.871263157000130661e+01 3.470000000000000000e+02
5.980832316615662059e+00 6.730895878979947611e+01 3.470000000000000000e+02
4.429729220184845495e+00 7.994201381161596487e+01 3.480000000000000000e+02
4.602074008677158545e+00 7.853834103141412015e+01 3.480000000000000000e+02
4.774418797169471596e+00 7.713466825121228965e+01 3.480000000000000000e+02
4.946763585661784646e+00 7.573099547101045914e+01 3.480000000000000000e+02
5.119108374154096808e+00 7.432732269080862864e+01 3.480000000000000000e+02
5.291453162646409858e+00 7.292364991060679813e+01 3.480000000000000000e+02
5.463797951138722908e+00 7.151997713040496762e+01 3.480000000000000000e+02
5.636142739631035958e+00 7.011630435020313712e+01 3.480000000000000000e+02
5.808487528123349009e+00 6.871263157000130661e+01 3.480000000000000000e+02
5.980832316615662059e+00 6.730895878979947611e+01 3.480000000000000000e+02
6.153177105107975109e+00 6.590528600959764560e+01 3.480000000000000000e+02
4.429729220184845495e+00 7.994201381161596487e+01 3.490000000000000000e+02
4.602074008677158545e+00 7.853834103141412015e+01 3.490000000000000000e+02
4.774418797169471596e+00 7.713466825121228965e+01 3.490000000000000000e+02
4.946763585661784646e+00 7.573099547101045914e+01 3.490000000000000000e+02
5.119108374154096808e+00 7.432732269080862864e+01 3.490000000000000000e+02
5.291453162646409858e+00 7.292364991060679813e+01 3.490000000000000000e+02
5.463797951138722908e+00 7.151997713040496762e+01 3.490000000000000000e+02
5.636142739631035958e+00 7.011630435020313712e+01 3.490000000000000000e+02
5.808487528123349009e+00 6.871263157000130661e+01 3.490000000000000000e+02
5.980832316615662059e+00 6.730895878979947611e+01 3.490000000000000000e+02
6.153177105107975109e+00 6.590528600959764560e+01 3.490000000000000000e+02
3.814065224330086323e+00 7.915400502726888021e+01 3.500000000000000000e+02
3.986410012822399374e+00 7.775033224706704971e+01 3.500000000000000000e+02
4.158754801314712424e+00 7.634665946686521920e+01 3.500000000000000000e+02
4.331099589807024586e+00 7.494298668666338870e+01 3.500000000000000000e+02
4.503444378299337636e+00 7.353931390646155819e+01 3.500000000000000000e+02
4.675789166791650686e+00 7.213564112625972768e+01 3.500000000000000000e+02
4.848133955283963736e+00 7.073196834605789718e+01 3.500000000000000000e+02
5.020478743776276787e+00 6.932829556585606667e+01 3.500000000000000000e+02
5.192823532268589837e+00 6.792462278565423617e+01 3.500000000000000000e+02
3.814065224330086323e+00 7.915400502726888021e+01 3.510000000000000000e+02
3.986410012822399374e+00 7.775033224706704971e+01 3.510000000000000000e+02
4.158754801314712424e+00 7.634665946686521920e+01 3.510000000000000000e+02
4.331099589807024586e+00 7.494298668666338870e+01 3.510000000000000000e+02
4.503444378299337636e+00 7.353931390646155819e+01 3.510000000000000000e+02
4.675789166791650686e+00 7.213564112625972768e+01 3.510000000000000000e+02
4.848133955283963736e+00 7.073196834605789718e+01 3.510000000000000000e+02
5.020478743776276787e+00 6.932829556585606667e+01 3.510000000000000000e+02
5.192823532268589837e+00 6.792462278565423617e+01 3.510000000000000000e+02
3.814065224330086323e+00 7.915400502726888021e+01 3.520000000000000000e+02
3.986410012822399374e+00 7.775033224706704971e+01 3.520000000000000000e+02
4.158754801314712424e+00 7.634665946686521920e+01 3.520000000000000000e+02
