-3.555453270410315447e+00 -2.445842605317168239e+00 3.200000000000000000e+02
-4.641034779562281720e+00 -3.352216031112154937e+00 3.200000000000000000e+02
2.958035784501480858e+00 2.992397949452750616e+00 3.210000000000000000e+02
1.872454275349514585e+00 2.086024523657764362e+00 3.210000000000000000e+02
7.868727661975484233e-01 1.179651097862777887e+00 3.210000000000000000e+02
-2.987087429544177941e-01 2.732776720677911886e-01 3.210000000000000000e+02
-1.384290252106383790e+00 -6.330957537271952873e-01 3.210000000000000000e+02
-2.469871761258349618e+00 -1.539469179522181541e+00 3.210000000000000000e+02
-3.555453270410315447e+00 -2.445842605317168239e+00 3.210000000000000000e+02
-4.641034779562281720e+00 -3.352216031112154937e+00 3.210000000000000000e+02
2.958035784501480858e+00 2.992397949452750616e+00 3.220000000000000000e+02
1.872454275349514585e+00 2.086024523657764362e+00 3.220000000000000000e+02
7.868727661975484233e-01 1.179651097862777887e+00 3.220000000000000000e+02
-2.987087429544177941e-01 2.732776720677911886e-01 3.220000000000000000e+02
-1.384290252106383790e+00 -6.330957537271952873e-01 3.220000000000000000e+02
-2.469871761258349618e+00 -1.539469179522181541e+00 3.220000000000000000e+02
-3.555453270410315447e+00 -2.445842605317168239e+00 3.220000000000000000e+02
-4.641034779562281720e+00 -3.352216031112154937e+00 3.220000000000000000e+02
2.958035784501480858e+00 2.992397949452750616e+00 3.230000000000000000e+02
1.872454275349514585e+00 2.086024523657764362e+00 3.230000000000000000e+02
7.868727661975484233e-01 1.179651097862777887e+00 3.230000000000000000e+02
-2.987087429544177941e-01 2.732776720677911886e-01 3.230000000000000000e+02
-1.384290252106383790e+00 -6.330957537271952873e-01 3.230000000000000000e+02
-2.469871761258349618e+00 -1.539469179522181541e+00 3.230000000000000000e+02
-3.555453270410315447e+00 -2.445842605317168239e+00 3.230000000000000000e+02
-4.641034779562281720e+00 -3.352216031112154937e+00 3.230000000000000000e+02
2.958035784501480858e+00 2.992397949452750616e+00 3.240000000000000000e+02
1.872454275349514585e+00 2.086024523657764362e+00 3.240000000000000000e+02
7.868727661975484233e-01 1.179651097862777887e+00 3.240000000000000000e+02
-2.987087429544177941e-01 2.732776720677911886e-01 3.240000000000000000e+02
-1.384290252106383790e+00 -6.330957537271952873e-01 3.240000000000000000e+02
-2.469871761258349618e+00 -1.539469179522181541e+00 3.240000000000000000e+02
-3.555453270410315447e+00 -2.445842605317168239e+00 3.240000000000000000e+02
-4.641034779562281720e+00 -3.352216031112154937e+00 3.240000000000000000e+02
2.958035784501480858e+00 2.992397949452750616e+00 3.250000000000000000e+02
1.872454275349514585e+00 2.086024523657764362e+00 3.250000000000000000e+02
7.868727661975484233e-01 1.179651097862777887e+00 3.250000000000000000e+02
-2.987087429544177941e-01 2.732776720677911886e-01 3.250000000000000000e+02
-1.384290252106383790e+00 -6.330957537271952873e-01 3.250000000000000000e+02
-2.469871761258349618e+00 -1.539469179522181541e+00 3.250000000000000000e+02
-3.555453270410315447e+00 -2.445842605317168239e+00 3.250000000000000000e+02
-4.641034779562281720e+00 -3.352216031112154937e+00 3.250000000000000000e+02
2.958035784501480858e+00 2.992397949452750616e+00 3.260000000000000000e+02
1.872454275349514585e+00 2.086024523657764362e+00 3.260000000000000000e+02
7.868727661975484233e-01 1.179651097862777887e+00 3.260000000000000000e+02
-2.987087429544177941e-01 2.732776720677911886e-01 3.260000000000000000e+02
-1.384290252106383790e+00 -6.330957537271952873e-01 3.260000000000000000e+02
-2.469871761258349618e+00 -1.539469179522181541e+00 3.260000000000000000e+02
-3.555453270410315447e+00 -2.445842605317168239e+00 3.260000000000000000e+02
-4.641034779562281720e+00 -3.352216031112154937e+00 3.260000000000000000e+02
2.958035784501480858e+00 2.992397949452750616e+00 3.270000000000000000e+02
1.872454275349514585e+00 2.086024523657764362e+00 3.270000000000000000e+02
7.868727661975484233e-01 1.179651097862777887e+00 3.270000000000000000e+02
-2.987087429544177941e-01 2.732776720677911886e-01 3.270000000000000000e+02
-1.384290252106383790e+00 -6.330957537271952873e-01 3.270000000000000000e+02
-2.469871761258349618e+00 -1.539469179522181541e+00 3.270000000000000000e+02
-3.555453270410315447e+00 -2.445842605317168239e+00 3.270000000000000000e+02
-4.641034779562281720e+00 -3.352216031112154937e+00 3.270000000000000000e+02
2.958035784501480858e+00 2.992397949452750616e+00 3.280000000000000000e+02
1.872454275349514585e+00 2.086024523657764362e+00 3.280000000000000000e+02
7.868727661975484233e-01 1.179651097862777887e+00 3.280000000000000000e+02
-2.987087429544177941e-01 2.732776720677911886e-01 3.280000000000000000e+02
-1.384290252106383790e+00 -6.330957537271952873e-01 3.280000000000000000e+02
-2.469871761258349618e+00 -1.539469179522181541e+00 3.280000000000000000e+02
-3.555453270410315447e+00 -2.445842605317168239e+00 3.280000000000000000e+02
-4.641034779562281720e+00 -3.352216031112154937e+00 3.280000000000000000e+02
2.958035784501480858e+00 2.992397949452750616e+00 3.290000000000000000e+02
1.872454275349514585e+00 2.086024523657764362e+00 3.290000000000000000e+02
7.868727661975484233e-01 1.179651097862777887e+00 3.290000000000000000e+02
-2.987087429544177941e-01 2.732776720677911886e-01 3.290000000000000000e+02
-1.384290252106383790e+00 -6.330957537271952873e-01 3.290000000000000000e+02
-2.469871761258349618e+00 -1.539469179522181541e+00 3.290000000000000000e+02
-3.555453270410315447e+00 -2.445842605317168239e+00 3.290000000000000000e+02
-4.641034779562281720e+00 -3.352216031112154937e+00 3.290000000000000000e+02
2.958035784501480858e+00 2.992397949452750616e+00 3.300000000000000000e+02
1.872454275349514585e+00 2.086024523657764362e+00 3.300000000000000000e+02
7.868727661975484233e-01 1.179651097862777887e+00 3.300000000000000000e+02
-2.987087429544177941e-01 2.732776720677911886e-01 3.300000000000000000e+02
-1.384290252106383790e+00 -6.330957537271952873e-01 3.300000000000000000e+02
-2.469871761258349618e+00 -1.539469179522181541e+00 3.300000000000000000e+02
-3.555453270410315447e+00 -2.445842605317168239e+00 3.300000000000000000e+02
-4.641034779562281720e+00 -3.352216031112154937e+00 3.300000000000000000e+02
2.958035784501480858e+00 2.992397949452750616e+00 3.310000000000000000e+02
1.872454275349514585e+00 2.086024523657764362e+00 3.310000000000000000e+02
7.868727661975484233e-01 1.179651097862777887e+00 3.310000000000000000e+02
-2.987087429544177941e-01 2.732776720677911886e-01 3.310000000000000000e+02
-1.384290252106383790e+00 -6.330957537271952873e-01 3.310000000000000000e+02
-2.469871761258349618e+00 -1.539469179522181541e+00 3.310000000000000000e+02
-3.555453270410315447e+00 -2.445842605317168239e+00 3.310000000000000000e+02
-4.641034779562281720e+00 -3.352216031112154937e+00 3.310000000000000000e+02
-5.726616288714248881e+00 -4.258589456907142079e+00 3.310000000000000000e+02
2.958035784501480858e+00 2.992397949452750616e+00 3.320000000000000000e+02
1.872454275349514585e+00 2.086024523657764362e+00 3.320000000000000000e+02
7.868727661975484233e-01 1.179651097862777887e+00 3.320000000000000000e+02
-2.987087429544177941e-01 2.732776720677911886e-01 3.320000000000000000e+02
-1.384290252106383790e+00 -6.330957537271952873e-01 3.320000000000000000e+02
-2.469871761258349618e+00 -1.539469179522181541e+00 3.320000000000000000e+02
-3.555453270410315447e+00 -2.445842605317168239e+00 3.320000000000000000e+02
-4.641034779562281720e+00 -3.352216031112154937e+00 3.320000000000000000e+02
2.958035784501480858e+00 2.992397949452750616e+00 3.330000000000000000e+02
1.872454275349514585e+00 2.086024523657764362e+00 3.330000000000000000e+02
7.868727661975484233e-01 1.179651097862777887e+00 3.330000000000000000e+02
-2.987087429544177941e-01 2.732776720677911886e-01 3.330000000000000000e+02
-1.384290252106383790e+00 -6.330957537271952873e-01 3.330000000000000000e+02
-2.469871761258349618e+00 -1.539469179522181541e+00 3.330000000000000000e+02
-3.555453270410315447e+00 -2.445842605317168239e+00 3.330000000000000000e+02
-4.641034779562281720e+00 -3.352216031112154937e+00 3.330000000000000000e+02
2.958035784501480858e+00 2.992397949452750616e+00 3.340000000000000000e+02
1.872454275349514585e+00 2.086024523657764362e+00 3.340000000000000000e+02
7.868727661975484233e-01 1.179651097862777887e+00 3.340000000000000000e+02
-2.987087429544177941e-01 2.732776720677911886e-01 3.340000000000000000e+02
-1.384290252106383790e+00 -6.330957537271952873e-01 3.340000000000000000e+02
-2.469871761258349618e+00 -1.539469179522181541e+00 3.340000000000000000e+02
-3.555453270410315447e+00 -2.445842605317168239e+00 3.340000000000000000e+02
-4.641034779562281720e+00 -3.352216031112154937e+00 3.340000000000000000e+02
2.958035784501480858e+00 2.992397949452750616e+00 3.350000000000000000e+02
1.872454275349514585e+00 2.086024523657764362e+00 3.350000000000000000e+02
7.868727661975484233e-01 1.179651097862777887e+00 3.350000000000000000e+02
-2.987087429544177941e-01 2.732776720677911886e-01 3.350000000000000000e+02
-1.384290252106383790e+00 -6.330957537271952873e-01 3.350000000000000000e+02
-2.469871761258349618e+00 -1.539469179522181541e+00 3.350000000000000000e+02
-3.555453270410315447e+00 -2.445842605317168239e+00 3.350000000000000000e+02
-4.641034779562281720e+00 -3.352216031112154937e+00 3.350000000000000000e+02
2.958035784501480858e+00 2.992397949452750616e+00 3.360000000000000000e+02
1.872454275349514585e+00 2.086024523657764362e+00 3.360000000000000000e+02
7.868727661975484233e-01 1.179651097862777887e+00 3.360000000000000000e+02
-2.987087429544177941e-01 2.732776720677911886e-01 3.360000000000000000e+02
-1.384290252106383790e+00 -6.330957537271952873e-01 3.360000000000000000e+02
-2.469871761258349618e+00 -1.539469179522181541e+00 3.360000000000000000e+02
-3.555453270410315447e+00 -2.445842605317168239e+00 3.360000000000000000e+02
-4.641034779562281720e+00 -3.352216031112154937e+00 3.360000000000000000e+02
2.958035784501480858e+00 2.992397949452750616e+00 3.370000000000000000e+02
1.872454275349514585e+00 2.086024523657764362e+00 3.370000000000000000e+02
7.868727661975484233e-01 1.179651097862777887e+00 3.370000000000000000e+02
-2.987087429544177941e-01 2.732776720677911886e-01 3.370000000000000000e+02
-1.384290252106383790e+00 -6.330957537271952873e-01 3.370000000000000000e+02
-2.469871761258349618e+00 -1.539469179522181541e+00 3.370000000000000000e+02
-3.555453270410315447e+00 -2.445842605317168239e+00 3.370000000000000000e+02
-4.641034779562281720e+00 -3.352216031112154937e+00 3.370000000000000000e+02
2.958035784501480858e+00 2.992397949452750616e+00 3.380000000000000000e+02
1.872454275349514585e+00 2.086024523657764362e+00 3.380000000000000000e+02
7.868727661975484233e-01 1.179651097862777887e+00 3.380000000000000000e+02
-2.987087429544177941e-01 2.732776720677911886e-01 3.380000000000000000e+02
-1.384290252106383790e+00 -6.330957537271952873e-01 3.380000000000000000e+02
-2.469871761258349618e+00 -1.539469179522181541e+00 3.380000000000000000e+02
-3.555453270410315447e+00 -2.445842605317168239e+00 3.380000000000000000e+02
-4.641034779562281720e+00 -3.352216031112154937e+00 3.380000000000000000e+02
2.958035784501480858e+00 2.992397949452750616e+00 3.390000000000000000e+02
1.872454275349514585e+00 2.086024523657764362e+00 3.390000000000000000e+02
7.868727661975484233e-01 1.179651097862777887e+00 3.390000000000000000e+02
-2.987087429544177941e-01 2.732776720677911886e-01 3.390000000000000000e+02
-1.384290252106383790e+00 -6.330957537271952873e-01 3.390000000000000000e+02
-2.469871761258349618e+00 -1.539469179522181541e+00 3.390000000000000000e+02
-3.555453270410315447e+00 -2.445842605317168239e+00 3.390000000000000000e+02
-4.641034779562281720e+00 -3.352216031112154937e+00 3.390000000000000000e+02
2.958035784501480858e+00 2.992397949452750616e+00 3.400000000000000000e+02
1.872454275349514585e+00 2.086024523657764362e+00 3.400000000000000000e+02
7.868727661975484233e-01 1.179651097862777887e+00 3.400000000000000000e+02
-2.987087429544177941e-01 2.732776720677911886e-01 3.400000000000000000e+02
-1.384290252106383790e+00 -6.330957537271952873e-01 3.400000000000000000e+02
-2.469871761258349618e+00 -1.539469179522181541e+00 3.400000000000000000e+02
-3.555453270410315447e+00 -2.445842605317168239e+00 3.400000000000000000e+02
-4.641034779562281720e+00 -3.352216031112154937e+00 3.400000000000000000e+02
2.958035784501480858e+00 2.992397949452750616e+00 3.410000000000000000e+02
1.872454275349514585e+00 2.086024523657764362e+00 3.410000000000000000e+02
7.868727661975484233e-01 1.179651097862777887e+00 3.410000000000000000e+02
-2.987087429544177941e-01 2.732776720677911886e-01 3.410000000000000000e+02
-1.384290252106383790e+00 -6.330957537271952873e-01 3.410000000000000000e+02
-2.469871761258349618e+00 -1.539469179522181541e+00 3.410000000000000000e+02
-3.555453270410315447e+00 -2.445842605317168239e+00 3.410000000000000000e+02
-4.641034779562281720e+00 -3.352216031112154937e+00 3.410000000000000000e+02
2.958035784501480858e+00 2.992397949452750616e+00 3.420000000000000000e+02
1.872454275349514585e+00 2.086024523657764362e+00 3.420000000000000000e+02
7.868727661975484233e-01 1.179651097862777887e+00 3.420000000000000000e+02
-2.987087429544177941e-01 2.732776720677911886e-01 3.420000000000000000e+02
-1.384290252106383790e+00 -6.330957537271952873e-01 3.420000000000000000e+02
-2.469871761258349618e+00 -1.539469179522181541e+00 3.420000000000000000e+02
-3.555453270410315447e+00 -2.445842605317168239e+00 3.420000000000000000e+02
-4.641034779562281720e+00 -3.352216031112154937e+00 3.420000000000000000e+02
2.958035784501480858e+00 2.992397949452750616e+00 3.430000000000000000e+02
1.872454275349514585e+00 2.086024523657764362e+00 3.430000000000000000e+02
7.868727661975484233e-01 1.179651097862777887e+00 3.430000000000000000e+02
-2.987087429544177941e-01 2.732776720677911886e-01 3.430000000000000000e+02
-1.384290252106383790e+00 -6.330957537271952873e-01 3.430000000000000000e+02
-2.469871761258349618e+00 -1.539469179522181541e+00 3.430000000000000000e+02
-3.555453270410315447e+00 -2.445842605317168239e+00 3.430000000000000000e+02
-4.641034779562281720e+00 -3.352216031112154937e+00 3.430000000000000000e+02
2.958035784501480858e+00 2.992397949452750616e+00 3.440000000000000000e+02
1.872454275349514585e+00 2.086024523657764362e+00 3.440000000000000000e+02
7.868727661975484233e-01 1.179651097862777887e+00 3.440000000000000000e+02
-2.987087429544177941e-01 2.732776720677911886e-01 3.440000000000000000e+02
-1.384290252106383790e+00 -6.330957537271952873e-01 3.440000000000000000e+02
-2.469871761258349618e+00 -1.539469179522181541e+00 3.440000000000000000e+02
-3.555453270410315447e+00 -2.445842605317168239e+00 3.440000000000000000e+02
-4.641034779562281720e+00 -3.352216031112154937e+00 3.440000000000000000e+02
2.958035784501480858e+00 2.992397949452750616e+00 3.450000000000000000e+02
1.872454275349514585e+00 2.086024523657764362e+00 3.450000000000000000e+02
7.868727661975484233e-01 1.179651097862777887e+00 3.450000000000000000e+02
-2.987087429544177941e-01 2.732776720677911886e-01 3.450000000000000000e+02
-1.384290252106383790e+00 -6.330957537271952873e-01 3.450000000000000000e+02
-2.469871761258349618e+00 -1.539469179522181541e+00 3.450000000000000000e+02
-3.555453270410315447e+00 -2.445842605317168239e+00 3.450000000000000000e+02
-4.641034779562281720e+00 -3.352216031112154937e+00 3.450000000000000000e+02
2.958035784501480858e+00 2.992397949452750616e+00 3.460000000000000000e+02
1.872454275349514585e+00 2.086024523657764362e+00 3.460000000000000000e+02
7.868727661975484233e-01 1.179651097862777887e+00 3.460000000000000000e+02
-2.987087429544177941e-01 2.732776720677911886e-01 3.460000000000000000e+02
-1.384290252106383790e+00 -6.330957537271952873e-01 3.460000000000000000e+02
-2.469871761258349618e+00 -1.539469179522181541e+00 3.460000000000000000e+02
-3.555453270410315447e+00 -2.445842605317168239e+00 3.460000000000000000e+02
-4.641034779562281720e+00 -3.352216031112154937e+00 3.460000000000000000e+02
1.962058317028004595e+00 3.082001991131240626e+00 3.470000000000000000e+02
8.764768078760382108e-01 2.175628565336253928e+00 3.470000000000000000e+02
-2.091047012759280066e-01 1.269255139541267674e+00 3.470000000000000000e+02
-1.294686210427894224e+00 3.628817137462809761e-01 3.470000000000000000e+02
-2.380267719579860053e+00 -5.434917120487054998e-01 3.470000000000000000e+02
-3.465849228731825882e+00 -1.449865137843691754e+00 3.470000000000000000e+02
-4.551430737883792155e+00 -2.356238563638678229e+00 3.470000000000000000e+02
1.962058317028004595e+00 3.082001991131240626e+00 3.480000000000000000e+02
8.764768078760382108e-01 2.175628565336253928e+00 3.480000000000000000e+02
-2.091047012759280066e-01 1.269255139541267674e+00 3.480000000000000000e+02
-1.294686210427894224e+00 3.628817137462809761e-01 3.480000000000000000e+02
-2.380267719579860053e+00 -5.434917120487054998e-01 3.480000000000000000e+02
-3.465849228731825882e+00 -1.449865137843691754e+00 3.480000000000000000e+02
-4.551430737883792155e+00 -2.356238563638678229e+00 3.480000000000000000e+02
1.962058317028004595e+00 3.082001991131240626e+00 3.490000000000000000e+02
8.764768078760382108e-01 2.175628565336253928e+00 3.490000000000000000e+02
-2.091047012759280066e-01 1.269255139541267674e+00 3.490000000000000000e+02
-1.294686210427894224e+00 3.628817137462809761e-01 3.490000000000000000e+02
-2.380267719579860053e+00 -5.434917120487054998e-01 3.490000000000000000e+02
-3.465849228731825882e+00 -1.449865137843691754e+00 3.490000000000000000e+02
-4.551430737883792155e+00 -2.356238563638678229e+00 3.490000000000000000e+02
1.962058317028004595e+00 3.082001991131240626e+00 3.500000000000000000e+02
8.764768078760382108e-01 2.175628565336253928e+00 3.500000000000000000e+02
-2.091047012759280066e-01 1.269255139541267674e+00 3.500000000000000000e+02
-1.294686210427894224e+00 3.628817137462809761e-01 3.500000000000000000e+02
-2.380267719579860053e+00 -5.434917120487054998e-01 3.500000000000000000e+02
-3.465849228731825882e+00 -1.449865137843691754e+00 3.500000000000000000e+02
-4.551430737883792155e+00 -2.356238563638678229e+00 3.500000000000000000e+02
-5.637012247035758428e+00 -3.262611989433664927e+00 3.500000000000000000e+02
1.962058317028004595e+00 3.082001991131240626e+00 3.510000000000000000e+02
8.764768078760382108e-01 2.175628565336253928e+00 3.510000000000000000e+02
-2.091047012759280066e-01 1.269255139541267674e+00 3.510000000000000000e+02
-1.294686210427894224e+00 3.628817137462809761e-01 3.510000000000000000e+02
-2.380267719579860053e+00 -5.434917120487054998e-01 3.510000000000000000e+02
-3.465849228731825882e+00 -1.449865137843691754e+00 3.510000000000000000e+02
-4.551430737883792155e+00 -2.356238563638678229e+00 3.510000000000000000e+02
-5.637012247035758428e+00 -3.262611989433664927e+00 3.510000000000000000e+02
1.962058317028004595e+00 3.082001991131240626e+00 3.520000000000000000e+02
8.764768078760382108e-01 2.175628565336253928e+00 3.520000000000000000e+02
-2.091047012759280066e-01 1.269255139541267674e+00 3.520000000000000000e+02
-1.294686210427894224e+00 3.628817137462809761e-01 3.520000000000000000e+02
-2.380267719579860053e+00 -5.434917120487054998e-01 3.520000000000000000e+02
-3.465849228731825882e+00 -1.449865137843691754e+00 3.520000000000000000e+02
-4.551430737883792155e+00 -2.356238563638678229e+00 3.520000000000000000e+02
-5.637012247035758428e+00 -3.262611989433664927e+00 3.520000000000000000e+02
1.962058317028004595e+00 3.082001991131240626e+00 3.530000000000000000e+02
8.764768078760382108e-01 2.175628565336253928e+00 3.530000000000000000e+02
-2.091047012759280066e-01 1.269255139541267674e+00 3.530000000000000000e+02
-1.294686210427894224e+00 3.628817137462809761e-01 3.530000000000000000e+02
-2.380267719579860053e+00 -5.434917120487054998e-01 3.530000000000000000e+02
-3.465849228731825882e+00 -1.449865137843691754e+00 3.530000000000000000e+02
-4.551430737883792155e+00 -2.356238563638678229e+00 3.530000000000000000e+02
-5.637012247035758428e+00 -3.262611989433664927e+00 3.530000000000000000e+02
2.958035784501480858e+00 2.992397949452750616e+00 3.540000000000000000e+02
1.872454275349514585e+00 2.086024523657764362e+00 3.540000000000000000e+02
7.868727661975484233e-01 1.179651097862777887e+00 3.540000000000000000e+02
-2.987087429544177941e-01 2.732776720677911886e-01 3.540000000000000000e+02
-1.384290252106383790e+00 -6.330957537271952873e-01 3.540000000000000000e+02
-2.469871761258349618e+00 -1.539469179522181541e+00 3.540000000000000000e+02
-3.555453270410315447e+00 -2.445842605317168239e+00 3.540000000000000000e+02
-4.641034779562281720e+00 -3.352216031112154937e+00 3.540000000000000000e+02
2.958035784501480858e+00 2.992397949452750616e+00 3.550000000000000000e+02
1.872454275349514585e+00 2.086024523657764362e+00 3.550000000000000000e+02
7.868727661975484233e-01 1.179651097862777887e+00 3.550000000000000000e+02
-2.987087429544177941e-01 2.732776720677911886e-01 3.550000000000000000e+02
-1.384290252106383790e+00 -6.330957537271952873e-01 3.550000000000000000e+02
-2.469871761258349618e+00 -1.539469179522181541e+00 3.550000000000000000e+02
-3.555453270410315447e+00 -2.445842605317168239e+00 3.550000000000000000e+02
-4.641034779562281720e+00 -3.352216031112154937e+00 3.550000000000000000e+02
2.958035784501480858e+00 2.992397949452750616e+00 3.560000000000000000e+02
1.872454275349514585e+00 2.086024523657764362e+00 3.560000000000000000e+02
7.868727661975484233e-01 1.179651097862777887e+00 3.560000000000000000e+02
-2.987087429544177941e-01 2.732776720677911886e-01 3.560000000000000000e+02
-1.384290252106383790e+00 -6.330957537271952873e-01 3.560000000000000000e+02
-2.469871761258349618e+00 -1.539469179522181541e+00 3.560000000000000000e+02
-3.555453270410315447e+00 -2.445842605317168239e+00 3.560000000000000000e+02
-4.641034779562281720e+00 -3.352216031112154937e+00 3.560000000000000000e+02
2.958035784501480858e+00 2.992397949452750616e+00 3.570000000000000000e+02
1.872454275349514585e+00 2.086024523657764362e+00 3.570000000000000000e+02
7.868727661975484233e-01 1.179651097862777887e+00 3.570000000000000000e+02
-2.987087429544177941e-01 2.732776720677911886e-01 3.570000000000000000e+02
-1.384290252106383790e+00 -6.330957537271952873e-01 3.570000000000000000e+02
-2.469871761258349618e+00 -1.539469179522181541e+00 3.570000000000000000e+02
-3.555453270410315447e+00 -2.445842605317168239e+00 3.570000000000000000e+02
-4.641034779562281720e+00 -3.352216031112154937e+00 3.570000000000000000e+02
2.958035784501480858e+00 2.992397949452750616e+00 3.580000000000000000e+02
1.872454275349514585e+00 2.086024523657764362e+00 3.580000000000000000e+02
7.868727661975484233e-01 1.179651097862777887e+00 3.580000000000000000e+02
-2.987087429544177941e-01 2.732776720677911886e-01 3.580000000000000000e+02
-1.384290252106383790e+00 -6.330957537271952873e-01 3.580000000000000000e+02
-2.469871761258349618e+00 -1.539469179522181541e+00 3.580000000000000000e+02
-3.555453270410315447e+00 -2.445842605317168239e+00 3.580000000000000000e+02
-4.641034779562281720e+00 -3.352216031112154937e+00 3.580000000000000000e+02
2.958035784501480858e+00 2.992397949452750616e+00 3.590000000000000000e+02
1.872454275349514585e+00 2.086024523657764362e+00 3.590000000000000000e+02
7.868727661975484233e-01 1.179651097862777887e+00 3.590000000000000000e+02
-2.987087429544177941e-01 2.732776720677911886e-01 3.590000000000000000e+02
-1.384290252106383790e+00 -6.330957537271952873e-01 3.590000000000000000e+02
-2.469871761258349618e+00 -1.539469179522181541e+00 3.590000000000000000e+02
-3.555453270410315447e+00 -2.445842605317168239e+00 3.590000000000000000e+02
-4.641034779562281720e+00 -3.352216031112154937e+00 3.590000000000000000e+02
1.962058317028004595e+00 3.082001991131240626e+00 3.600000000000000000e+02
8.764768078760382108e-01 2.175628565336253928e+00 3.600000000000000000e+02
-2.091047012759280066e-01 1.269255139541267674e+00 3.600000000000000000e+02
-1.294686210427894224e+00 3.628817137462809761e-01 3.600000000000000000e+02
-2.380267719579860053e+00 -5.434917120487054998e-01 3.600000000000000000e+02
-3.465849228731825882e+00 -1.449865137843691754e+00 3.600000000000000000e+02
-4.551430737883792155e+00 -2.356238563638678229e+00 3.600000000000000000e+02
-5.637012247035758428e+00 -3.262611989433664927e+00 3.600000000000000000e+02
1.962058317028004595e+00 3.082001991131240626e+00 3.610000000000000000e+02
8.764768078760382108e-01 2.175628565336253928e+00 3.610000000000000000e+02
-2.091047012759280066e-01 1.269255139541267674e+00 3.610000000000000000e+02
-1.294686210427894224e+00 3.628817137462809761e-01 3.610000000000000000e+02
-2.380267719579860053e+00 -5.434917120487054998e-01 3.610000000000000000e+02
-3.465849228731825882e+00 -1.449865137843691754e+00 3.610000000000000000e+02
-4.551430737883792155e+00 -2.356238563638678229e+00 3.610000000000000000e+02
-5.637012247035758428e+00 -3.262611989433664927e+00 3.610000000000000000e+02
2.958035784501480858e+00 2.992397949452750616e+00 3.620000000000000000e+02
1.872454275349514585e+00 2.086024523657764362e+00 3.620000000000000000e+02
7.868727661975484233e-01 1.179651097862777887e+00 3.620000000000000000e+02
-2.987087429544177941e-01 2.732776720677911886e-01 3.620000000000000000e+02
-1.384290252106383790e+00 -6.330957537271952873e-01 3.620000000000000000e+02
-2.469871761258349618e+00 -1.539469179522181541e+00 3.620000000000000000e+02
-3.555453270410315447e+00 -2.445842605317168239e+00 3.620000000000000000e+02
-4.641034779562281720e+00 -3.352216031112154937e+00 3.620000000000000000e+02
2.958035784501480858e+00 2.992397949452750616e+00 3.630000000000000000e+02
1.872454275349514585e+00 2.086024523657764362e+00 3.630000000000000000e+02
7.868727661975484233e-01 1.179651097862777887e+00 3.630000000000000000e+02
-2.987087429544177941e-01 2.732776720677911886e-01 3.630000000000000000e+02
-1.384290252106383790e+00 -6.330957537271952873e-01 3.630000000000000000e+02
-2.469871761258349618e+00 -1.539469179522181541e+00 3.630000000000000000e+02
-3.555453270410315447e+00 -2.445842605317168239e+00 3.630000000000000000e+02
-4.641034779562281720e+00 -3.352216031112154937e+00 3.630000000000000000e+02
2.958035784501480858e+00 2.992397949452750616e+00 3.640000000000000000e+02
1.872454275349514585e+00 2.086024523657764362e+00 3.640000000000000000e+02
7.868727661975484233e-01 1.179651097862777887e+00 3.640000000000000000e+02
-2.987087429544177941e-01 2.732776720677911886e-01 3.640000000000000000e+02
-1.384290252106383790e+00 -6.330957537271952873e-01 3.640000000000000000e+02
-2.469871761258349618e+00 -1.539469179522181541e+00 3.640000000000000000e+02
-3.555453270410315447e+00 -2.445842605317168239e+00 3.640000000000000000e+02
-4.641034779562281720e+00 -3.352216031112154937e+00 3.640000000000000000e+02
2.958035784501480858e+00 2.992397949452750616e+00 3.650000000000000000e+02
1.872454275349514585e+00 2.086024523657764362e+00 3.650000000000000000e+02
7.868727661975484233e-01 1.179651097862777887e+00 3.650000000000000000e+02
-2.987087429544177941e-01 2.732776720677911886e-01 3.650000000000000000e+02
-1.384290252106383790e+00 -6.330957537271952873e-01 3.650000000000000000e+02
-2.469871761258349618e+00 -1.539469179522181541e+00 3.650000000000000000e+02
-3.555453270410315447e+00 -2.445842605317168239e+00 3.650000000000000000e+02
-4.641034779562281720e+00 -3.352216031112154937e+00 3.650000000000000000e+02
2.958035784501480858e+00 2.992397949452750616e+00 3.660000000000000000e+02
1.872454275349514585e+00 2.086024523657764362e+00 3.660000000000000000e+02
7.868727661975484233e-01 1.179651097862777887e+00 3.660000000000000000e+02
-2.987087429544177941e-01 2.732776720677911886e-01 3.660000000000000000e+02
-1.384290252106383790e+00 -6.330957537271952873e-01 3.660000000000000000e+02
-2.469871761258349618e+00 -1.539469179522181541e+00 3.660000000000000000e+02
-3.555453270410315447e+00 -2.445842605317168239e+00 3.660000000000000000e+02
-4.641034779562281720e+00 -3.352216031112154937e+00 3.660000000000000000e+02
2.958035784501480858e+00 2.992397949452750616e+00 3.670000000000000000e+02
1.872454275349514585e+00 2.086024523657764362e+00 3.670000000000000000e+02
7.868727661975484233e-01 1.179651097862777887e+00 3.670000000000000000e+02
-2.987087429544177941e-01 2.732776720677911886e-01 3.670000000000000000e+02
-1.384290252106383790e+00 -6.330957537271952873e-01 3.670000000000000000e+02
-2.469871761258349618e+00 -1.539469179522181541e+00 3.670000000000000000e+02
-3.555453270410315447e+00 -2.445842605317168239e+00 3.670000000000000000e+02
-4.641034779562281720e+00 -3.352216031112154937e+00 3.670000000000000000e+02
2.958035784501480858e+00 2.992397949452750616e+00 3.680000000000000000e+02
1.872454275349514585e+00 2.086024523657764362e+00 3.680000000000000000e+02
7.868727661975484233e-01 1.179651097862777887e+00 3.680000000000000000e+02
-2.987087429544177941e-01 2.732776720677911886e-01 3.680000000000000000e+02
-1.384290252106383790e+00 -6.330957537271952873e-01 3.680000000000000000e+02
-2.469871761258349618e+00 -1.539469179522181541e+00 3.680000000000000000e+02
-3.555453270410315447e+00 -2.445842605317168239e+00 3.680000000000000000e+02
-4.641034779562281720e+00 -3.352216031112154937e+00 3.680000000000000000e+02
2.958035784501480858e+00 2.992397949452750616e+00 3.690000000000000000e+02
1.872454275349514585e+00 2.086024523657764362e+00 3.690000000000000000e+02
7.868727661975484233e-01 1.179651097862777887e+00 3.690000000000000000e+02
-2.987087429544177941e-01 2.732776720677911886e-01 3.690000000000000000e+02
-1.384290252106383790e+00 -6.330957537271952873e-01 3.690000000000000000e+02
-2.469871761258349618e+00 -1.539469179522181541e+00 3.690000000000000000e+02
-3.555453270410315447e+00 -2.445842605317168239e+00 3.690000000000000000e+02
-4.641034779562281720e+00 -3.352216031112154937e+00 3.690000000000000000e+02
-5.726616288714248881e+00 -4.258589456907142079e+00 3.690000000000000000e+02
2.958035784501480858e+00 2.992397949452750616e+00 3.700000000000000000e+02
1.872454275349514585e+00 2.086024523657764362e+00 3.700000000000000000e+02
7.868727661975484233e-01 1.179651097862777887e+00 3.700000000000000000e+02
-2.987087429544177941e-01 2.732776720677911886e-01 3.700000000000000000e+02
-1.384290252106383790e+00 -6.330957537271952873e-01 3.700000000000000000e+02
-2.469871761258349618e+00 -1.539469179522181541e+00 3.700000000000000000e+02
-3.555453270410315447e+00 -2.445842605317168239e+00 3.700000000000000000e+02
-4.641034779562281720e+00 -3.352216031112154937e+00 3.700000000000000000e+02
-5.726616288714248881e+00 -4.258589456907142079e+00 3.700000000000000000e+02
2.958035784501480858e+00 2.992397949452750616e+00 3.710000000000000000e+02
1.872454275349514585e+00 2.086024523657764362e+00 3.710000000000000000e+02
7.868727661975484233e-01 1.179651097862777887e+00 3.710000000000000000e+02
-2.987087429544177941e-01 2.732776720677911886e-01 3.710000000000000000e+02
-1.384290252106383790e+00 -6.330957537271952873e-01 3.710000000000000000e+02
-2.469871761258349618e+00 -1.539469179522181541e+00 3.710000000000000000e+02
-3.555453270410315447e+00 -2.445842605317168239e+00 3.710000000000000000e+02
-4.641034779562281720e+00 -3.352216031112154937e+00 3.710000000000000000e+02
-5.726616288714248881e+00 -4.258589456907142079e+00 3.710000000000000000e+02
2.958035784501480858e+00 2.992397949452750616e+00 3.720000000000000000e+02
1.872454275349514585e+00 2.086024523657764362e+00 3.720000000000000000e+02
7.868727661975484233e-01 1.179651097862777887e+00 3.720000000000000000e+02
-2.987087429544177941e-01 2.732776720677911886e-01 3.720000000000000000e+02
-1.384290252106383790e+00 -6.330957537271952873e-01 3.720000000000000000e+02
-2.469871761258349618e+00 -1.539469179522181541e+00 3.720000000000000000e+02
-3.555453270410315447e+00 -2.445842605317168239e+00 3.720000000000000000e+02
-4.641034779562281720e+00 -3.352216031112154937e+00 3.720000000000000000e+02
2.958035784501480858e+00 2.992397949452750616e+00 3.730000000000000000e+02
1.872454275349514585e+00 2.086024523657764362e+00 3.730000000000000000e+02
7.868727661975484233e-01 1.179651097862777887e+00 3.730000000000000000e+02
-2.987087429544177941e-01 2.732776720677911886e-01 3.730000000000000000e+02
-1.384290252106383790e+00 -6.330957537271952873e-01 3.730000000000000000e+02
-2.469871761258349618e+00 -1.539469179522181541e+00 3.730000000000000000e+02
-3.555453270410315447e+00 -2.445842605317168239e+00 3.730000000000000000e+02
-4.641034779562281720e+00 -3.352216031112154937e+00 3.730000000000000000e+02
2.958035784501480858e+00 2.992397949452750616e+00 3.740000000000000000e+02
1.872454275349514585e+00 2.086024523657764362e+00 3.740000000000000000e+02
7.868727661975484233e-01 1.179651097862777887e+00 3.740000000000000000e+02
-2.987087429544177941e-01 2.732776720677911886e-01 3.740000000000000000e+02
-1.384290252106383790e+00 -6.330957537271952873e-01 3.740000000000000000e+02
-2.469871761258349618e+00 -1.539469179522181541e+00 3.740000000000000000e+02
-3.555453270410315447e+00 -2.445842605317168239e+00 3.740000000000000000e+02
-4.641034779562281720e+00 -3.352216031112154937e+00 3.740000000000000000e+02
2.958035784501480858e+00 2.992397949452750616e+00 3.750000000000000000e+02
1.872454275349514585e+00 2.086024523657764362e+00 3.750000000000000000e+02
7.868727661975484233e-01 1.179651097862777887e+00 3.750000000000000000e+02
-2.987087429544177941e-01 2.732776720677911886e-01 3.750000000000000000e+02
-1.384290252106383790e+00 -6.330957537271952873e-01 3.750000000000000000e+02
-2.469871761258349618e+00 -1.539469179522181541e+00 3.750000000000000000e+02
-3.555453270410315447e+00 -2.445842605317168239e+00 3.750000000000000000e+02
-4.641034779562281720e+00 -3.352216031112154937e+00 3.750000000000000000e+02
2.958035784501480858e+00 2.992397949452750616e+00 3.760000000000000000e+02
1.872454275349514585e+00 2.086024523657764362e+00 3.760000000000000000e+02
7.868727661975484233e-01 1.179651097862777887e+00 3.760000000000000000e+02
-2.987087429544177941e-01 2.732776720677911886e-01 3.760000000000000000e+02
-1.384290252106383790e+00 -6.330957537271952873e-01 3.760000000000000000e+02
-2.469871761258349618e+00 -1.539469179522181541e+00 3.760000000000000000e+02
-3.555453270410315447e+00 -2.445842605317168239e+00 3.760000000000000000e+02
-4.641034779562281720e+00 -3.352216031112154937e+00 3.760000000000000000e+02
2.958035784501480858e+00 2.992397949452750616e+00 3.770000000000000000e+02
1.872454275349514585e+00 2.086024523657764362e+00 3.770000000000000000e+02
7.868727661975484233e-01 1.179651097862777887e+00 3.770000000000000000e+02
-2.987087429544177941e-01 2.732776720677911886e-01 3.770000000000000000e+02
-1.384290252106383790e+00 -6.330957537271952873e-01 3.770000000000000000e+02
-2.469871761258349618e+00 -1.539469179522181541e+00 3.770000000000000000e+02
-3.555453270410315447e+00 -2.445842605317168239e+00 3.770000000000000000e+02
-4.641034779562281720e+00 -3.352216031112154937e+00 3.770000000000000000e+02
1.962058317028004595e+00 3.082001991131240626e+00 3.780000000000000000e+02
8.764768078760382108e-01 2.175628565336253928e+00 3.780000000000000000e+02
-2.091047012759280066e-01 1.269255139541267674e+00 3.780000000000000000e+02
-1.294686210427894224e+00 3.628817137462809761e-01 3.780000000000000000e+02
-2.380267719579860053e+00 -5.434917120487054998e-01 3.780000000000000000e+02
-3.465849228731825882e+00 -1.449865137843691754e+00 3.780000000000000000e+02
-4.551430737883792155e+00 -2.356238563638678229e+00 3.780000000000000000e+02
1.962058317028004595e+00 3.082001991131240626e+00 3.790000000000000000e+02
8.764768078760382108e-01 2.175628565336253928e+00 3.790000000000000000e+02
-2.091047012759280066e-01 1.269255139541267674e+00 3.790000000000000000e+02
-1.294686210427894224e+00 3.628817137462809761e-01 3.790000000000000000e+02
-2.380267719579860053e+00 -5.434917120487054998e-01 3.790000000000000000e+02
-3.465849228731825882e+00 -1.449865137843691754e+00 3.790000000000000000e+02
-4.551430737883792155e+00 -2.356238563638678229e+00 3.790000000000000000e+02
1.962058317028004595e+00 3.082001991131240626e+00 3.800000000000000000e+02
8.764768078760382108e-01 2.175628565336253928e+00 3.800000000000000000e+02
-2.091047012759280066e-01 1.269255139541267674e+00 3.800000000000000000e+02
-1.294686210427894224e+00 3.628817137462809761e-01 3.800000000000000000e+02
-2.380267719579860053e+00 -5.434917120487054998e-01 3.800000000000000000e+02
-3.465849228731825882e+00 -1.449865137843691754e+00 3.800000000000000000e+02
-4.551430737883792155e+00 -2.356238563638678229e+00 3.800000000000000000e+02
2.958035784501480858e+00 2.992397949452750616e+00 3.810000000000000000e+02
1.872454275349514585e+00 2.086024523657764362e+00 3.810000000000000000e+02
7.868727661975484233e-01 1.179651097862777887e+00 3.810000000000000000e+02
-2.987087429544177941e-01 2.732776720677911886e-01 3.810000000000000000e+02
-1.384290252106383790e+00 -6.330957537271952873e-01 3.810000000000000000e+02
-2.469871761258349618e+00 -1.539469179522181541e+00 3.810000000000000000e+02
-3.555453270410315447e+00 -2.445842605317168239e+00 3.810000000000000000e+02
-4.641034779562281720e+00 -3.352216031112154937e+00 3.810000000000000000e+02
2.958035784501480858e+00 2.992397949452750616e+00 3.820000000000000000e+02
1.872454275349514585e+00 2.086024523657764362e+00 3.820000000000000000e+02
7.868727661975484233e-01 1.179651097862777887e+00 3.820000000000000000e+02
-2.987087429544177941e-01 2.732776720677911886e-01 3.820000000000000000e+02
-1.384290252106383790e+00 -6.330957537271952873e-01 3.820000000000000000e+02
-2.469871761258349618e+00 -1.539469179522181541e+00 3.820000000000000000e+02
-3.555453270410315447e+00 -2.445842605317168239e+00 3.820000000000000000e+02
-4.641034779562281720e+00 -3.352216031112154937e+00 3.820000000000000000e+02
2.958035784501480858e+00 2.992397949452750616e+00 3.830000000000000000e+02
1.872454275349514585e+00 2.086024523657764362e+00 3.830000000000000000e+02
7.868727661975484233e-01 1.179651097862777887e+00 3.830000000000000000e+02
-2.987087429544177941e-01 2.732776720677911886e-01 3.830000000000000000e+02
-1.384290252106383790e+00 -6.330957537271952873e-01 3.830000000000000000e+02
-2.469871761258349618e+00 -1.539469179522181541e+00 3.830000000000000000e+02
-3.555453270410315447e+00 -2.445842605317168239e+00 3.830000000000000000e+02
-4.641034779562281720e+00 -3.352216031112154937e+00 3.830000000000000000e+02
2.958035784501480858e+00 2.992397949452750616e+00 3.840000000000000000e+02
1.872454275349514585e+00 2.086024523657764362e+00 3.840000000000000000e+02
7.868727661975484233e-01 1.179651097862777887e+00 3.840000000000000000e+02
-2.987087429544177941e-01 2.732776720677911886e-01 3.840000000000000000e+02
-1.384290252106383790e+00 -6.330957537271952873e-01 3.840000000000000000e+02
-2.469871761258349618e+00 -1.539469179522181541e+00 3.840000000000000000e+02
-3.555453270410315447e+00 -2.445842605317168239e+00 3.840000000000000000e+02
-4.641034779562281720e+00 -3.352216031112154937e+00 3.840000000000000000e+02
2.958035784501480858e+00 2.992397949452750616e+00 3.850000000000000000e+02
1.872454275349514585e+00 2.086024523657764362e+00 3.850000000000000000e+02
7.868727661975484233e-01 1.179651097862777887e+00 3.850000000000000000e+02
-2.987087429544177941e-01 2.732776720677911886e-01 3.850000000000000000e+02
-1.384290252106383790e+00 -6.330957537271952873e-01 3.850000000000000000e+02
-2.469871761258349618e+00 -1.539469179522181541e+00 3.850000000000000000e+02
-3.555453270410315447e+00 -2.445842605317168239e+00 3.850000000000000000e+02
-4.641034779562281720e+00 -3.352216031112154937e+00 3.850000000000000000e+02
1.962058317028004595e+00 3.082001991131240626e+00 3.860000000000000000e+02
8.764768078760382108e-01 2.175628565336253928e+00 3.860000000000000000e+02
-2.091047012759280066e-01 1.269255139541267674e+00 3.860000000000000000e+02
-1.294686210427894224e+00 3.628817137462809761e-01 3.860000000000000000e+02
-2.380267719579860053e+00 -5.434917120487054998e-01 3.860000000000000000e+02
-3.465849228731825882e+00 -1.449865137843691754e+00 3.860000000000000000e+02
-4.551430737883792155e+00 -2.356238563638678229e+00 3.860000000000000000e+02
1.962058317028004595e+00 3.082001991131240626e+00 3.870000000000000000e+02
8.764768078760382108e-01 2.175628565336253928e+00 3.870000000000000000e+02
-2.091047012759280066e-01 1.269255139541267674e+00 3.870000000000000000e+02
-1.294686210427894224e+00 3.628817137462809761e-01 3.870000000000000000e+02
-2.380267719579860053e+00 -5.434917120487054998e-01 3.870000000000000000e+02
-3.465849228731825882e+00 -1.449865137843691754e+00 3.870000000000000000e+02
-4.551430737883792155e+00 -2.356238563638678229e+00 3.870000000000000000e+02
2.958035784501480858e+00 2.992397949452750616e+00 3.880000000000000000e+02
1.872454275349514585e+00 2.086024523657764362e+00 3.880000000000000000e+02
7.868727661975484233e-01 1.179651097862777887e+00 3.880000000000000000e+02
-2.987087429544177941e-01 2.732776720677911886e-01 3.880000000000000000e+02
-1.384290252106383790e+00 -6.330957537271952873e-01 3.880000000000000000e+02
-2.469871761258349618e+00 -1.539469179522181541e+00 3.880000000000000000e+02
-3.555453270410315447e+00 -2.445842605317168239e+00 3.880000000000000000e+02
-4.641034779562281720e+00 -3.352216031112154937e+00 3.880000000000000000e+02
2.958035784501480858e+00 2.992397949452750616e+00 3.890000000000000000e+02
1.872454275349514585e+00 2.086024523657764362e+00 3.890000000000000000e+02
7.868727661975484233e-01 1.179651097862777887e+00 3.890000000000000000e+02
-2.987087429544177941e-01 2.732776720677911886e-01 3.890000000000000000e+02
-1.384290252106383790e+00 -6.330957537271952873e-01 3.890000000000000000e+02
-2.469871761258349618e+00 -1.539469179522181541e+00 3.890000000000000000e+02
-3.555453270410315447e+00 -2.445842605317168239e+00 3.890000000000000000e+02
-4.641034779562281720e+00 -3.352216031112154937e+00 3.890000000000000000e+02
2.958035784501480858e+00 2.992397949452750616e+00 3.900000000000000000e+02
1.872454275349514585e+00 2.086024523657764362e+00 3.900000000000000000e+02
7.868727661975484233e-01 1.179651097862777887e+00 3.900000000000000000e+02
-2.987087429544177941e-01 2.732776720677911886e-01 3.900000000000000000e+02
-1.384290252106383790e+00 -6.330957537271952873e-01 3.900000000000000000e+02
-2.469871761258349618e+00 -1.539469179522181541e+00 3.900000000000000000e+02
-3.555453270410315447e+00 -2.445842605317168239e+00 3.900000000000000000e+02
-4.641034779562281720e+00 -3.352216031112154937e+00 3.900000000000000000e+02
2.958035784501480858e+00 2.992397949452750616e+00 3.910000000000000000e+02
1.872454275349514585e+00 2.086024523657764362e+00 3.910000000000000000e+02
7.868727661975484233e-01 1.179651097862777887e+00 3.910000000000000000e+02
-2.987087429544177941e-01 2.732776720677911886e-01 3.910000000000000000e+02
-1.384290252106383790e+00 -6.330957537271952873e-01 3.910000000000000000e+02
-2.469871761258349618e+00 -1.539469179522181541e+00 3.910000000000000000e+02
-3.555453270410315447e+00 -2.445842605317168239e+00 3.910000000000000000e+02
-4.641034779562281720e+00 -3.352216031112154937e+00 3.910000000000000000e+02
2.958035784501480858e+00 2.992397949452750616e+00 3.920000000000000000e+02
1.872454275349514585e+00 2.086024523657764362e+00 3.920000000000000000e+02
7.868727661975484233e-01 1.179651097862777887e+00 3.920000000000000000e+02
-2.987087429544177941e-01 2.732776720677911886e-01 3.920000000000000000e+02
-1.384290252106383790e+00 -6.330957537271952873e-01 3.920000000000000000e+02
-2.469871761258349618e+00 -1.539469179522181541e+00 3.920000000000000000e+02
-3.555453270410315447e+00 -2.445842605317168239e+00 3.920000000000000000e+02
-4.641034779562281720e+00 -3.352216031112154937e+00 3.920000000000000000e+02
2.958035784501480858e+00 2.992397949452750616e+00 3.930000000000000000e+02
1.872454275349514585e+00 2.086024523657764362e+00 3.930000000000000000e+02
7.868727661975484233e-01 1.179651097862777887e+00 3.930000000000000000e+02
-2.987087429544177941e-01 2.732776720677911886e-01 3.930000000000000000e+02
-1.384290252106383790e+00 -6.330957537271952873e-01 3.930000000000000000e+02
-2.469871761258349618e+00 -1.539469179522181541e+00 3.930000000000000000e+02
-3.555453270410315447e+00 -2.445842605317168239e+00 3.930000000000000000e+02
-4.641034779562281720e+00 -3.352216031112154937e+00 3.930000000000000000e+02
2.958035784501480858e+00 2.992397949452750616e+00 3.940000000000000000e+02
1.872454275349514585e+00 2.086024523657764362e+00 3.940000000000000000e+02
7.868727661975484233e-01 1.179651097862777887e+00 3.940000000000000000e+02
-2.987087429544177941e-01 2.732776720677911886e-01 3.940000000000000000e+02
-1.384290252106383790e+00 -6.330957537271952873e-01 3.940000000000000000e+02
-2.469871761258349618e+00 -1.539469179522181541e+00 3.940000000000000000e+02
-3.555453270410315447e+00 -2.445842605317168239e+00 3.940000000000000000e+02
-4.641034779562281720e+00 -3.352216031112154937e+00 3.940000000000000000e+02
2.958035784501480858e+00 2.992397949452750616e+00 3.950000000000000000e+02
1.872454275349514585e+00 2.086024523657764362e+00 3.950000000000000000e+02
7.868727661975484233e-01 1.179651097862777887e+00 3.950000000000000000e+02
-2.987087429544177941e-01 2.732776720677911886e-01 3.950000000000000000e+02
-1.384290252106383790e+00 -6.330957537271952873e-01 3.950000000000000000e+02
-2.469871761258349618e+00 -1.539469179522181541e+00 3.950000000000000000e+02
-3.555453270410315447e+00 -2.445842605317168239e+00 3.950000000000000000e+02
-4.641034779562281720e+00 -3.352216031112154937e+00 3.950000000000000000e+02
2.958035784501480858e+00 2.992397949452750616e+00 3.960000000000000000e+02
1.872454275349514585e+00 2.086024523657764362e+00 3.960000000000000000e+02
7.868727661975484233e-01 1.179651097862777887e+00 3.960000000000000000e+02
-2.987087429544177941e-01 2.732776720677911886e-01 3.960000000000000000e+02
-1.384290252106383790e+00 -6.330957537271952873e-01 3.960000000000000000e+02
-2.469871761258349618e+00 -1.539469179522181541e+00 3.960000000000000000e+02
-3.555453270410315447e+00 -2.445842605317168239e+00 3.960000000000000000e+02
-4.641034779562281720e+00 -3.352216031112154937e+00 3.960000000000000000e+02
2.958035784501480858e+00 2.992397949452750616e+00 3.970000000000000000e+02
1.872454275349514585e+00 2.086024523657764362e+00 3.970000000000000000e+02
7.868727661975484233e-01 1.179651097862777887e+00 3.970000000000000000e+02
-2.987087429544177941e-01 2.732776720677911886e-01 3.970000000000000000e+02
-1.384290252106383790e+00 -6.330957537271952873e-01 3.970000000000000000e+02
-2.469871761258349618e+00 -1.539469179522181541e+00 3.970000000000000000e+02
-3.555453270410315447e+00 -2.445842605317168239e+00 3.970000000000000000e+02
-4.641034779562281720e+00 -3.352216031112154937e+00 3.970000000000000000e+02
2.958035784501480858e+00 2.992397949452750616e+00 3.980000000000000000e+02
1.872454275349514585e+00 2.086024523657764362e+00 3.980000000000000000e+02
7.868727661975484233e-01 1.179651097862777887e+00 3.980000000000000000e+02
-2.987087429544177941e-01 2.732776720677911886e-01 3.980000000000000000e+02
-1.384290252106383790e+00 -6.330957537271952873e-01 3.980000000000000000e+02
-2.469871761258349618e+00 -1.539469179522181541e+00 3.980000000000000000e+02
-3.555453270410315447e+00 -2.445842605317168239e+00 3.980000000000000000e+02
-4.641034779562281720e+00 -3.352216031112154937e+00 3.980000000000000000e+02
2.958035784501480858e+00 2.992397949452750616e+00 3.990000000000000000e+02
1.872454275349514585e+00 2.086024523657764362e+00 3.990000000000000000e+02
7.868727661975484233e-01 1.179651097862777887e+00 3.990000000000000000e+02
-2.987087429544177941e-01 2.732776720677911886e-01 3.990000000000000000e+02
-1.384290252106383790e+00 -6.330957537271952873e-01 3.990000000000000000e+02
-2.469871761258349618e+00 -1.539469179522181541e+00 3.990000000000000000e+02
-3.555453270410315447e+00 -2.445842605317168239e+00 3.990000000000000000e+02
-4.641034779562281720e+00 -3.352216031112154937e+00 3.990000000000000000e+02
