-4.058769880439673905e+00 8.226061083274693875e-01 3.780000000000000000e+02
-5.329521272460382875e+00 1.443243602906575385e+00 3.780000000000000000e+02
-6.600272664481092733e+00 2.063881097485682048e+00 3.780000000000000000e+02
-7.871024056501800814e+00 2.684518592064788045e+00 3.780000000000000000e+02
4.836489863705288883e+00 -3.521856353726273703e+00 3.790000000000000000e+02
3.565738471684580357e+00 -2.901218859147167706e+00 3.790000000000000000e+02
2.294987079663871388e+00 -2.280581364568060820e+00 3.790000000000000000e+02
1.024235687643162418e+00 -1.659943869988955267e+00 3.790000000000000000e+02
-2.465157043775467738e-01 -1.039306375409849270e+00 3.790000000000000000e+02
-1.517267096398255743e+00 -4.186688808307431620e-01 3.790000000000000000e+02
-2.788018488418964935e+00 2.019686137483629462e-01 3.790000000000000000e+02
-4.058769880439673905e+00 8.226061083274693875e-01 3.790000000000000000e+02
-5.329521272460382875e+00 1.443243602906575385e+00 3.790000000000000000e+02
-6.600272664481092733e+00 2.063881097485682048e+00 3.790000000000000000e+02
-7.871024056501800814e+00 2.684518592064788045e+00 3.790000000000000000e+02
4.836489863705288883e+00 -3.521856353726273703e+00 3.800000000000000000e+02
3.565738471684580357e+00 -2.901218859147167706e+00 3.800000000000000000e+02
2.294987079663871388e+00 -2.280581364568060820e+00 3.800000000000000000e+02
1.024235687643162418e+00 -1.659943869988955267e+00 3.800000000000000000e+02
-2.465157043775467738e-01 -1.039306375409849270e+00 3.800000000000000000e+02
-1.517267096398255743e+00 -4.186688808307431620e-01 3.800000000000000000e+02
-2.788018488418964935e+00 2.019686137483629462e-01 3.800000000000000000e+02
-4.058769880439673905e+00 8.226061083274693875e-01 3.800000000000000000e+02
-5.329521272460382875e+00 1.443243602906575385e+00 3.800000000000000000e+02
-6.600272664481092733e+00 2.063881097485682048e+00 3.800000000000000000e+02
4.836489863705288883e+00 -3.521856353726273703e+00 3.810000000000000000e+02
3.565738471684580357e+00 -2.901218859147167706e+00 3.810000000000000000e+02
2.294987079663871388e+00 -2.280581364568060820e+00 3.810000000000000000e+02
1.024235687643162418e+00 -1.659943869988955267e+00 3.810000000000000000e+02
-2.465157043775467738e-01 -1.039306375409849270e+00 3.810000000000000000e+02
-1.517267096398255743e+00 -4.186688808307431620e-01 3.810000000000000000e+02
-2.788018488418964935e+00 2.019686137483629462e-01 3.810000000000000000e+02
-4.058769880439673905e+00 8.226061083274693875e-01 3.810000000000000000e+02
-5.329521272460382875e+00 1.443243602906575385e+00 3.810000000000000000e+02
-6.600272664481092733e+00 2.063881097485682048e+00 3.810000000000000000e+02
4.836489863705288883e+00 -3.521856353726273703e+00 3.820000000000000000e+02
3.565738471684580357e+00 -2.901218859147167706e+00 3.820000000000000000e+02
2.294987079663871388e+00 -2.280581364568060820e+00 3.820000000000000000e+02
1.024235687643162418e+00 -1.659943869988955267e+00 3.820000000000000000e+02
-2.465157043775467738e-01 -1.039306375409849270e+00 3.820000000000000000e+02
-1.517267096398255743e+00 -4.186688808307431620e-01 3.820000000000000000e+02
-2.788018488418964935e+00 2.019686137483629462e-01 3.820000000000000000e+02
-4.058769880439673905e+00 8.226061083274693875e-01 3.820000000000000000e+02
-5.329521272460382875e+00 1.443243602906575385e+00 3.820000000000000000e+02
-6.600272664481092733e+00 2.063881097485682048e+00 3.820000000000000000e+02
-7.871024056501800814e+00 2.684518592064788045e+00 3.820000000000000000e+02
4.836489863705288883e+00 -3.521856353726273703e+00 3.830000000000000000e+02
3.565738471684580357e+00 -2.901218859147167706e+00 3.830000000000000000e+02
2.294987079663871388e+00 -2.280581364568060820e+00 3.830000000000000000e+02
1.024235687643162418e+00 -1.659943869988955267e+00 3.830000000000000000e+02
-2.465157043775467738e-01 -1.039306375409849270e+00 3.830000000000000000e+02
-1.517267096398255743e+00 -4.186688808307431620e-01 3.830000000000000000e+02
-2.788018488418964935e+00 2.019686137483629462e-01 3.830000000000000000e+02
-4.058769880439673905e+00 8.226061083274693875e-01 3.830000000000000000e+02
-5.329521272460382875e+00 1.443243602906575385e+00 3.830000000000000000e+02
-6.600272664481092733e+00 2.063881097485682048e+00 3.830000000000000000e+02
-7.871024056501800814e+00 2.684518592064788045e+00 3.830000000000000000e+02
4.836489863705288883e+00 -3.521856353726273703e+00 3.840000000000000000e+02
3.565738471684580357e+00 -2.901218859147167706e+00 3.840000000000000000e+02
2.294987079663871388e+00 -2.280581364568060820e+00 3.840000000000000000e+02
1.024235687643162418e+00 -1.659943869988955267e+00 3.840000000000000000e+02
-2.465157043775467738e-01 -1.039306375409849270e+00 3.840000000000000000e+02
-1.517267096398255743e+00 -4.186688808307431620e-01 3.840000000000000000e+02
-2.788018488418964935e+00 2.019686137483629462e-01 3.840000000000000000e+02
-4.058769880439673905e+00 8.226061083274693875e-01 3.840000000000000000e+02
-5.329521272460382875e+00 1.443243602906575385e+00 3.840000000000000000e+02
-6.600272664481092733e+00 2.063881097485682048e+00 3.840000000000000000e+02
-7.871024056501800814e+00 2.684518592064788045e+00 3.840000000000000000e+02
4.836489863705288883e+00 -3.521856353726273703e+00 3.850000000000000000e+02
3.565738471684580357e+00 -2.901218859147167706e+00 3.850000000000000000e+02
2.294987079663871388e+00 -2.280581364568060820e+00 3.850000000000000000e+02
1.024235687643162418e+00 -1.659943869988955267e+00 3.850000000000000000e+02
-2.465157043775467738e-01 -1.039306375409849270e+00 3.850000000000000000e+02
-1.517267096398255743e+00 -4.186688808307431620e-01 3.850000000000000000e+02
-2.788018488418964935e+00 2.019686137483629462e-01 3.850000000000000000e+02
-4.058769880439673905e+00 8.226061083274693875e-01 3.850000000000000000e+02
-5.329521272460382875e+00 1.443243602906575385e+00 3.850000000000000000e+02
-6.600272664481092733e+00 2.063881097485682048e+00 3.850000000000000000e+02
-7.871024056501800814e+00 2.684518592064788045e+00 3.850000000000000000e+02
4.836489863705288883e+00 -3.521856353726273703e+00 3.860000000000000000e+02
3.565738471684580357e+00 -2.901218859147167706e+00 3.860000000000000000e+02
2.294987079663871388e+00 -2.280581364568060820e+00 3.860000000000000000e+02
1.024235687643162418e+00 -1.659943869988955267e+00 3.860000000000000000e+02
-2.465157043775467738e-01 -1.039306375409849270e+00 3.860000000000000000e+02
-1.517267096398255743e+00 -4.186688808307431620e-01 3.860000000000000000e+02
-2.788018488418964935e+00 2.019686137483629462e-01 3.860000000000000000e+02
-4.058769880439673905e+00 8.226061083274693875e-01 3.860000000000000000e+02
-5.329521272460382875e+00 1.443243602906575385e+00 3.860000000000000000e+02
-6.600272664481092733e+00 2.063881097485682048e+00 3.860000000000000000e+02
-7.871024056501800814e+00 2.684518592064788045e+00 3.860000000000000000e+02
4.836489863705288883e+00 -3.521856353726273703e+00 3.870000000000000000e+02
3.565738471684580357e+00 -2.901218859147167706e+00 3.870000000000000000e+02
2.294987079663871388e+00 -2.280581364568060820e+00 3.870000000000000000e+02
1.024235687643162418e+00 -1.659943869988955267e+00 3.870000000000000000e+02
-2.465157043775467738e-01 -1.039306375409849270e+00 3.870000000000000000e+02
-1.517267096398255743e+00 -4.186688808307431620e-01 3.870000000000000000e+02
-2.788018488418964935e+00 2.019686137483629462e-01 3.870000000000000000e+02
-4.058769880439673905e+00 8.226061083274693875e-01 3.870000000000000000e+02
-5.329521272460382875e+00 1.443243602906575385e+00 3.870000000000000000e+02
-6.600272664481092733e+00 2.063881097485682048e+00 3.870000000000000000e+02
-7.871024056501800814e+00 2.684518592064788045e+00 3.870000000000000000e+02
4.836489863705288883e+00 -3.521856353726273703e+00 3.880000000000000000e+02
3.565738471684580357e+00 -2.901218859147167706e+00 3.880000000000000000e+02
2.294987079663871388e+00 -2.280581364568060820e+00 3.880000000000000000e+02
1.024235687643162418e+00 -1.659943869988955267e+00 3.880000000000000000e+02
-2.465157043775467738e-01 -1.039306375409849270e+00 3.880000000000000000e+02
-1.517267096398255743e+00 -4.186688808307431620e-01 3.880000000000000000e+02
-2.788018488418964935e+00 2.019686137483629462e-01 3.880000000000000000e+02
-4.058769880439673905e+00 8.226061083274693875e-01 3.880000000000000000e+02
-5.329521272460382875e+00 1.443243602906575385e+00 3.880000000000000000e+02
-6.600272664481092733e+00 2.063881097485682048e+00 3.880000000000000000e+02
-7.871024056501800814e+00 2.684518592064788045e+00 3.880000000000000000e+02
4.836489863705288883e+00 -3.521856353726273703e+00 3.890000000000000000e+02
3.565738471684580357e+00 -2.901218859147167706e+00 3.890000000000000000e+02
2.294987079663871388e+00 -2.280581364568060820e+00 3.890000000000000000e+02
1.024235687643162418e+00 -1.659943869988955267e+00 3.890000000000000000e+02
-2.465157043775467738e-01 -1.039306375409849270e+00 3.890000000000000000e+02
-1.517267096398255743e+00 -4.186688808307431620e-01 3.890000000000000000e+02
-2.788018488418964935e+00 2.019686137483629462e-01 3.890000000000000000e+02
-4.058769880439673905e+00 8.226061083274693875e-01 3.890000000000000000e+02
-5.329521272460382875e+00 1.443243602906575385e+00 3.890000000000000000e+02
-6.600272664481092733e+00 2.063881097485682048e+00 3.890000000000000000e+02
-7.871024056501800814e+00 2.684518592064788045e+00 3.890000000000000000e+02
4.836489863705288883e+00 -3.521856353726273703e+00 3.900000000000000000e+02
3.565738471684580357e+00 -2.901218859147167706e+00 3.900000000000000000e+02
2.294987079663871388e+00 -2.280581364568060820e+00 3.900000000000000000e+02
1.024235687643162418e+00 -1.659943869988955267e+00 3.900000000000000000e+02
-2.465157043775467738e-01 -1.039306375409849270e+00 3.900000000000000000e+02
-1.517267096398255743e+00 -4.186688808307431620e-01 3.900000000000000000e+02
-2.788018488418964935e+00 2.019686137483629462e-01 3.900000000000000000e+02
-4.058769880439673905e+00 8.226061083274693875e-01 3.900000000000000000e+02
-5.329521272460382875e+00 1.443243602906575385e+00 3.900000000000000000e+02
-6.600272664481092733e+00 2.063881097485682048e+00 3.900000000000000000e+02
-7.871024056501800814e+00 2.684518592064788045e+00 3.900000000000000000e+02
4.836489863705288883e+00 -3.521856353726273703e+00 3.910000000000000000e+02
3.565738471684580357e+00 -2.901218859147167706e+00 3.910000000000000000e+02
2.294987079663871388e+00 -2.280581364568060820e+00 3.910000000000000000e+02
1.024235687643162418e+00 -1.659943869988955267e+00 3.910000000000000000e+02
-2.465157043775467738e-01 -1.039306375409849270e+00 3.910000000000000000e+02
-1.517267096398255743e+00 -4.186688808307431620e-01 3.910000000000000000e+02
-2.788018488418964935e+00 2.019686137483629462e-01 3.910000000000000000e+02
-4.058769880439673905e+00 8.226061083274693875e-01 3.910000000000000000e+02
-5.329521272460382875e+00 1.443243602906575385e+00 3.910000000000000000e+02
-6.600272664481092733e+00 2.063881097485682048e+00 3.910000000000000000e+02
-7.871024056501800814e+00 2.684518592064788045e+00 3.910000000000000000e+02
4.836489863705288883e+00 -3.521856353726273703e+00 3.920000000000000000e+02
3.565738471684580357e+00 -2.901218859147167706e+00 3.920000000000000000e+02
2.294987079663871388e+00 -2.280581364568060820e+00 3.920000000000000000e+02
1.024235687643162418e+00 -1.659943869988955267e+00 3.920000000000000000e+02
-2.465157043775467738e-01 -1.039306375409849270e+00 3.920000000000000000e+02
-1.517267096398255743e+00 -4.186688808307431620e-01 3.920000000000000000e+02
-2.788018488418964935e+00 2.019686137483629462e-01 3.920000000000000000e+02
-4.058769880439673905e+00 8.226061083274693875e-01 3.920000000000000000e+02
-5.329521272460382875e+00 1.443243602906575385e+00 3.920000000000000000e+02
-6.600272664481092733e+00 2.063881097485682048e+00 3.920000000000000000e+02
-7.871024056501800814e+00 2.684518592064788045e+00 3.920000000000000000e+02
4.836489863705288883e+00 -3.521856353726273703e+00 3.930000000000000000e+02
3.565738471684580357e+00 -2.901218859147167706e+00 3.930000000000000000e+02
2.294987079663871388e+00 -2.280581364568060820e+00 3.930000000000000000e+02
1.024235687643162418e+00 -1.659943869988955267e+00 3.930000000000000000e+02
-2.465157043775467738e-01 -1.039306375409849270e+00 3.930000000000000000e+02
-1.517267096398255743e+00 -4.186688808307431620e-01 3.930000000000000000e+02
-2.788018488418964935e+00 2.019686137483629462e-01 3.930000000000000000e+02
-4.058769880439673905e+00 8.226061083274693875e-01 3.930000000000000000e+02
-5.329521272460382875e+00 1.443243602906575385e+00 3.930000000000000000e+02
-6.600272664481092733e+00 2.063881097485682048e+00 3.930000000000000000e+02
-7.871024056501800814e+00 2.684518592064788045e+00 3.930000000000000000e+02
4.836489863705288883e+00 -3.521856353726273703e+00 3.940000000000000000e+02
3.565738471684580357e+00 -2.901218859147167706e+00 3.940000000000000000e+02
2.294987079663871388e+00 -2.280581364568060820e+00 3.940000000000000000e+02
1.024235687643162418e+00 -1.659943869988955267e+00 3.940000000000000000e+02
-2.465157043775467738e-01 -1.039306375409849270e+00 3.940000000000000000e+02
-1.517267096398255743e+00 -4.186688808307431620e-01 3.940000000000000000e+02
-2.788018488418964935e+00 2.019686137483629462e-01 3.940000000000000000e+02
-4.058769880439673905e+00 8.226061083274693875e-01 3.940000000000000000e+02
-5.329521272460382875e+00 1.443243602906575385e+00 3.940000000000000000e+02
-6.600272664481092733e+00 2.063881097485682048e+00 3.940000000000000000e+02
-7.871024056501800814e+00 2.684518592064788045e+00 3.940000000000000000e+02
4.836489863705288883e+00 -3.521856353726273703e+00 3.950000000000000000e+02
3.565738471684580357e+00 -2.901218859147167706e+00 3.950000000000000000e+02
2.294987079663871388e+00 -2.280581364568060820e+00 3.950000000000000000e+02
1.024235687643162418e+00 -1.659943869988955267e+00 3.950000000000000000e+02
-2.465157043775467738e-01 -1.039306375409849270e+00 3.950000000000000000e+02
-1.517267096398255743e+00 -4.186688808307431620e-01 3.950000000000000000e+02
-2.788018488418964935e+00 2.019686137483629462e-01 3.950000000000000000e+02
-4.058769880439673905e+00 8.226061083274693875e-01 3.950000000000000000e+02
-5.329521272460382875e+00 1.443243602906575385e+00 3.950000000000000000e+02
-6.600272664481092733e+00 2.063881097485682048e+00 3.950000000000000000e+02
4.836489863705288883e+00 -3.521856353726273703e+00 3.960000000000000000e+02
3.565738471684580357e+00 -2.901218859147167706e+00 3.960000000000000000e+02
2.294987079663871388e+00 -2.280581364568060820e+00 3.960000000000000000e+02
1.024235687643162418e+00 -1.659943869988955267e+00 3.960000000000000000e+02
-2.465157043775467738e-01 -1.039306375409849270e+00 3.960000000000000000e+02
-1.517267096398255743e+00 -4.186688808307431620e-01 3.960000000000000000e+02
-2.788018488418964935e+00 2.019686137483629462e-01 3.960000000000000000e+02
-4.058769880439673905e+00 8.226061083274693875e-01 3.960000000000000000e+02
-5.329521272460382875e+00 1.443243602906575385e+00 3.960000000000000000e+02
-6.600272664481092733e+00 2.063881097485682048e+00 3.960000000000000000e+02
4.836489863705288883e+00 -3.521856353726273703e+00 3.970000000000000000e+02
3.565738471684580357e+00 -2.901218859147167706e+00 3.970000000000000000e+02
2.294987079663871388e+00 -2.280581364568060820e+00 3.970000000000000000e+02
1.024235687643162418e+00 -1.659943869988955267e+00 3.970000000000000000e+02
-2.465157043775467738e-01 -1.039306375409849270e+00 3.970000000000000000e+02
-1.517267096398255743e+00 -4.186688808307431620e-01 3.970000000000000000e+02
-2.788018488418964935e+00 2.019686137483629462e-01 3.970000000000000000e+02
-4.058769880439673905e+00 8.226061083274693875e-01 3.970000000000000000e+02
-5.329521272460382875e+00 1.443243602906575385e+00 3.970000000000000000e+02
-6.600272664481092733e+00 2.063881097485682048e+00 3.970000000000000000e+02
-7.871024056501800814e+00 2.684518592064788045e+00 3.970000000000000000e+02
4.836489863705288883e+00 -3.521856353726273703e+00 3.980000000000000000e+02
3.565738471684580357e+00 -2.901218859147167706e+00 3.980000000000000000e+02
2.294987079663871388e+00 -2.280581364568060820e+00 3.980000000000000000e+02
1.024235687643162418e+00 -1.659943869988955267e+00 3.980000000000000000e+02
-2.465157043775467738e-01 -1.039306375409849270e+00 3.980000000000000000e+02
-1.517267096398255743e+00 -4.186688808307431620e-01 3.980000000000000000e+02
-2.788018488418964935e+00 2.019686137483629462e-01 3.980000000000000000e+02
-4.058769880439673905e+00 8.226061083274693875e-01 3.980000000000000000e+02
-5.329521272460382875e+00 1.443243602906575385e+00 3.980000000000000000e+02
-6.600272664481092733e+00 2.063881097485682048e+00 3.980000000000000000e+02
-7.871024056501800814e+00 2.684518592064788045e+00 3.980000000000000000e+02
4.836489863705288883e+00 -3.521856353726273703e+00 3.990000000000000000e+02
3.565738471684580357e+00 -2.901218859147167706e+00 3.990000000000000000e+02
2.294987079663871388e+00 -2.280581364568060820e+00 3.990000000000000000e+02
1.024235687643162418e+00 -1.659943869988955267e+00 3.990000000000000000e+02
-2.465157043775467738e-01 -1.039306375409849270e+00 3.990000000000000000e+02
-1.517267096398255743e+00 -4.186688808307431620e-01 3.990000000000000000e+02
-2.788018488418964935e+00 2.019686137483629462e-01 3.990000000000000000e+02
-4.058769880439673905e+00 8.226061083274693875e-01 3.990000000000000000e+02
-5.329521272460382875e+00 1.443243602906575385e+00 3.990000000000000000e+02
-6.600272664481092733e+00 2.063881097485682048e+00 3.990000000000000000e+02
-7.871024056501800814e+00 2.684518592064788045e+00 3.990000000000000000e+02
4.836489863705288883e+00 -3.521856353726273703e+00 4.000000000000000000e+02
3.565738471684580357e+00 -2.901218859147167706e+00 4.000000000000000000e+02
2.294987079663871388e+00 -2.280581364568060820e+00 4.000000000000000000e+02
1.024235687643162418e+00 -1.659943869988955267e+00 4.000000000000000000e+02
-2.465157043775467738e-01 -1.039306375409849270e+00 4.000000000000000000e+02
-1.517267096398255743e+00 -4.186688808307431620e-01 4.000000000000000000e+02
-2.788018488418964935e+00 2.019686137483629462e-01 4.000000000000000000e+02
-4.058769880439673905e+00 8.226061083274693875e-01 4.000000000000000000e+02
-5.329521272460382875e+00 1.443243602906575385e+00 4.000000000000000000e+02
-6.600272664481092733e+00 2.063881097485682048e+00 4.000000000000000000e+02
-7.871024056501800814e+00 2.684518592064788045e+00 4.000000000000000000e+02
4.836489863705288883e+00 -3.521856353726273703e+00 4.010000000000000000e+02
3.565738471684580357e+00 -2.901218859147167706e+00 4.010000000000000000e+02
2.294987079663871388e+00 -2.280581364568060820e+00 4.010000000000000000e+02
1.024235687643162418e+00 -1.659943869988955267e+00 4.010000000000000000e+02
-2.465157043775467738e-01 -1.039306375409849270e+00 4.010000000000000000e+02
-1.517267096398255743e+00 -4.186688808307431620e-01 4.010000000000000000e+02
-2.788018488418964935e+00 2.019686137483629462e-01 4.010000000000000000e+02
-4.058769880439673905e+00 8.226061083274693875e-01 4.010000000000000000e+02
-5.329521272460382875e+00 1.443243602906575385e+00 4.010000000000000000e+02
-6.600272664481092733e+00 2.063881097485682048e+00 4.010000000000000000e+02
4.836489863705288883e+00 -3.521856353726273703e+00 4.020000000000000000e+02
3.565738471684580357e+00 -2.901218859147167706e+00 4.020000000000000000e+02
2.294987079663871388e+00 -2.280581364568060820e+00 4.020000000000000000e+02
1.024235687643162418e+00 -1.659943869988955267e+00 4.020000000000000000e+02
-2.465157043775467738e-01 -1.039306375409849270e+00 4.020000000000000000e+02
-1.517267096398255743e+00 -4.186688808307431620e-01 4.020000000000000000e+02
-2.788018488418964935e+00 2.019686137483629462e-01 4.020000000000000000e+02
-4.058769880439673905e+00 8.226061083274693875e-01 4.020000000000000000e+02
-5.329521272460382875e+00 1.443243602906575385e+00 4.020000000000000000e+02
-6.600272664481092733e+00 2.063881097485682048e+00 4.020000000000000000e+02
4.836489863705288883e+00 -3.521856353726273703e+00 4.030000000000000000e+02
3.565738471684580357e+00 -2.901218859147167706e+00 4.030000000000000000e+02
2.294987079663871388e+00 -2.280581364568060820e+00 4.030000000000000000e+02
1.024235687643162418e+00 -1.659943869988955267e+00 4.030000000000000000e+02
-2.465157043775467738e-01 -1.039306375409849270e+00 4.030000000000000000e+02
-1.517267096398255743e+00 -4.186688808307431620e-01 4.030000000000000000e+02
-2.788018488418964935e+00 2.019686137483629462e-01 4.030000000000000000e+02
-4.058769880439673905e+00 8.226061083274693875e-01 4.030000000000000000e+02
-5.329521272460382875e+00 1.443243602906575385e+00 4.030000000000000000e+02
-6.600272664481092733e+00 2.063881097485682048e+00 4.030000000000000000e+02
4.836489863705288883e+00 -3.521856353726273703e+00 4.040000000000000000e+02
3.565738471684580357e+00 -2.901218859147167706e+00 4.040000000000000000e+02
2.294987079663871388e+00 -2.280581364568060820e+00 4.040000000000000000e+02
1.024235687643162418e+00 -1.659943869988955267e+00 4.040000000000000000e+02
-2.465157043775467738e-01 -1.039306375409849270e+00 4.040000000000000000e+02
-1.517267096398255743e+00 -4.186688808307431620e-01 4.040000000000000000e+02
-2.788018488418964935e+00 2.019686137483629462e-01 4.040000000000000000e+02
-4.058769880439673905e+00 8.226061083274693875e-01 4.040000000000000000e+02
-5.329521272460382875e+00 1.443243602906575385e+00 4.040000000000000000e+02
-6.600272664481092733e+00 2.063881097485682048e+00 4.040000000000000000e+02
4.836489863705288883e+00 -3.521856353726273703e+00 4.050000000000000000e+02
3.565738471684580357e+00 -2.901218859147167706e+00 4.050000000000000000e+02
2.294987079663871388e+00 -2.280581364568060820e+00 4.050000000000000000e+02
1.024235687643162418e+00 -1.659943869988955267e+00 4.050000000000000000e+02
-2.465157043775467738e-01 -1.039306375409849270e+00 4.050000000000000000e+02
-1.517267096398255743e+00 -4.186688808307431620e-01 4.050000000000000000e+02
-2.788018488418964935e+00 2.019686137483629462e-01 4.050000000000000000e+02
-4.058769880439673905e+00 8.226061083274693875e-01 4.050000000000000000e+02
-5.329521272460382875e+00 1.443243602906575385e+00 4.050000000000000000e+02
-6.600272664481092733e+00 2.063881097485682048e+00 4.050000000000000000e+02
4.836489863705288883e+00 -3.521856353726273703e+00 4.060000000000000000e+02
3.565738471684580357e+00 -2.901218859147167706e+00 4.060000000000000000e+02
2.294987079663871388e+00 -2.280581364568060820e+00 4.060000000000000000e+02
1.024235687643162418e+00 -1.659943869988955267e+00 4.060000000000000000e+02
-2.465157043775467738e-01 -1.039306375409849270e+00 4.060000000000000000e+02
-1.517267096398255743e+00 -4.186688808307431620e-01 4.060000000000000000e+02
-2.788018488418964935e+00 2.019686137483629462e-01 4.060000000000000000e+02
-4.058769880439673905e+00 8.226061083274693875e-01 4.060000000000000000e+02
-5.329521272460382875e+00 1.443243602906575385e+00 4.060000000000000000e+02
-6.600272664481092733e+00 2.063881097485682048e+00 4.060000000000000000e+02
-7.871024056501800814e+00 2.684518592064788045e+00 4.060000000000000000e+02
4.836489863705288883e+00 -3.521856353726273703e+00 4.070000000000000000e+02
3.565738471684580357e+00 -2.901218859147167706e+00 4.070000000000000000e+02
2.294987079663871388e+00 -2.280581364568060820e+00 4.070000000000000000e+02
1.024235687643162418e+00 -1.659943869988955267e+00 4.070000000000000000e+02
-2.465157043775467738e-01 -1.039306375409849270e+00 4.070000000000000000e+02
-1.517267096398255743e+00 -4.186688808307431620e-01 4.070000000000000000e+02
-2.788018488418964935e+00 2.019686137483629462e-01 4.070000000000000000e+02
-4.058769880439673905e+00 8.226061083274693875e-01 4.070000000000000000e+02
-5.329521272460382875e+00 1.443243602906575385e+00 4.070000000000000000e+02
-6.600272664481092733e+00 2.063881097485682048e+00 4.070000000000000000e+02
4.511432914984487397e+00 -2.576161910426366219e+00 4.080000000000000000e+02
3.240681522963778871e+00 -1.955524415847259556e+00 4.080000000000000000e+02
1.969930130943069901e+00 -1.334886921268153781e+00 4.080000000000000000e+02
6.991787389223609317e-01 -7.142494266890477839e-01 4.080000000000000000e+02
-5.715726530983482601e-01 -9.361193210994156466e-02 4.080000000000000000e+02
-1.842324045119057230e+00 5.270255624691644325e-01 4.080000000000000000e+02
-3.113075437139766422e+00 1.147663057048270874e+00 4.080000000000000000e+02
-4.383826829160475391e+00 1.768300551627376871e+00 4.080000000000000000e+02
-5.654578221181184361e+00 2.388938046206483534e+00 4.080000000000000000e+02
4.511432914984487397e+00 -2.576161910426366219e+00 4.090000000000000000e+02
3.240681522963778871e+00 -1.955524415847259556e+00 4.090000000000000000e+02
1.969930130943069901e+00 -1.334886921268153781e+00 4.090000000000000000e+02
6.991787389223609317e-01 -7.142494266890477839e-01 4.090000000000000000e+02
-5.715726530983482601e-01 -9.361193210994156466e-02 4.090000000000000000e+02
-1.842324045119057230e+00 5.270255624691644325e-01 4.090000000000000000e+02
-3.113075437139766422e+00 1.147663057048270874e+00 4.090000000000000000e+02
-4.383826829160475391e+00 1.768300551627376871e+00 4.090000000000000000e+02
-5.654578221181184361e+00 2.388938046206483534e+00 4.090000000000000000e+02
4.511432914984487397e+00 -2.576161910426366219e+00 4.100000000000000000e+02
3.240681522963778871e+00 -1.955524415847259556e+00 4.100000000000000000e+02
1.969930130943069901e+00 -1.334886921268153781e+00 4.100000000000000000e+02
6.991787389223609317e-01 -7.142494266890477839e-01 4.100000000000000000e+02
-5.715726530983482601e-01 -9.361193210994156466e-02 4.100000000000000000e+02
-1.842324045119057230e+00 5.270255624691644325e-01 4.100000000000000000e+02
-3.113075437139766422e+00 1.147663057048270874e+00 4.100000000000000000e+02
-4.383826829160475391e+00 1.768300551627376871e+00 4.100000000000000000e+02
-5.654578221181184361e+00 2.388938046206483534e+00 4.100000000000000000e+02
4.836489863705288883e+00 -3.521856353726273703e+00 4.110000000000000000e+02
3.565738471684580357e+00 -2.901218859147167706e+00 4.110000000000000000e+02
2.294987079663871388e+00 -2.280581364568060820e+00 4.110000000000000000e+02
1.024235687643162418e+00 -1.659943869988955267e+00 4.110000000000000000e+02
-2.465157043775467738e-01 -1.039306375409849270e+00 4.110000000000000000e+02
-1.517267096398255743e+00 -4.186688808307431620e-01 4.110000000000000000e+02
-2.788018488418964935e+00 2.019686137483629462e-01 4.110000000000000000e+02
-4.058769880439673905e+00 8.226061083274693875e-01 4.110000000000000000e+02
-5.329521272460382875e+00 1.443243602906575385e+00 4.110000000000000000e+02
-6.600272664481092733e+00 2.063881097485682048e+00 4.110000000000000000e+02
-7.871024056501800814e+00 2.684518592064788045e+00 4.110000000000000000e+02
4.836489863705288883e+00 -3.521856353726273703e+00 4.120000000000000000e+02
3.565738471684580357e+00 -2.901218859147167706e+00 4.120000000000000000e+02
2.294987079663871388e+00 -2.280581364568060820e+00 4.120000000000000000e+02
1.024235687643162418e+00 -1.659943869988955267e+00 4.120000000000000000e+02
-2.465157043775467738e-01 -1.039306375409849270e+00 4.120000000000000000e+02
-1.517267096398255743e+00 -4.186688808307431620e-01 4.120000000000000000e+02
-2.788018488418964935e+00 2.019686137483629462e-01 4.120000000000000000e+02
-4.058769880439673905e+00 8.226061083274693875e-01 4.120000000000000000e+02
-5.329521272460382875e+00 1.443243602906575385e+00 4.120000000000000000e+02
-6.600272664481092733e+00 2.063881097485682048e+00 4.120000000000000000e+02
-7.871024056501800814e+00 2.684518592064788045e+00 4.120000000000000000e+02
4.836489863705288883e+00 -3.521856353726273703e+00 4.130000000000000000e+02
3.565738471684580357e+00 -2.901218859147167706e+00 4.130000000000000000e+02
2.294987079663871388e+00 -2.280581364568060820e+00 4.130000000000000000e+02
1.024235687643162418e+00 -1.659943869988955267e+00 4.130000000000000000e+02
-2.465157043775467738e-01 -1.039306375409849270e+00 4.130000000000000000e+02
-1.517267096398255743e+00 -4.186688808307431620e-01 4.130000000000000000e+02
-2.788018488418964935e+00 2.019686137483629462e-01 4.130000000000000000e+02
-4.058769880439673905e+00 8.226061083274693875e-01 4.130000000000000000e+02
-5.329521272460382875e+00 1.443243602906575385e+00 4.130000000000000000e+02
-6.600272664481092733e+00 2.063881097485682048e+00 4.130000000000000000e+02
-7.871024056501800814e+00 2.684518592064788045e+00 4.130000000000000000e+02
4.836489863705288883e+00 -3.521856353726273703e+00 4.140000000000000000e+02
3.565738471684580357e+00 -2.901218859147167706e+00 4.140000000000000000e+02
2.294987079663871388e+00 -2.280581364568060820e+00 4.140000000000000000e+02
1.024235687643162418e+00 -1.659943869988955267e+00 4.140000000000000000e+02
-2.465157043775467738e-01 -1.039306375409849270e+00 4.140000000000000000e+02
-1.517267096398255743e+00 -4.186688808307431620e-01 4.140000000000000000e+02
-2.788018488418964935e+00 2.019686137483629462e-01 4.140000000000000000e+02
-4.058769880439673905e+00 8.226061083274693875e-01 4.140000000000000000e+02
-5.329521272460382875e+00 1.443243602906575385e+00 4.140000000000000000e+02
-6.600272664481092733e+00 2.063881097485682048e+00 4.140000000000000000e+02
-7.871024056501800814e+00 2.684518592064788045e+00 4.140000000000000000e+02
4.836489863705288883e+00 -3.521856353726273703e+00 4.150000000000000000e+02
3.565738471684580357e+00 -2.901218859147167706e+00 4.150000000000000000e+02
2.294987079663871388e+00 -2.280581364568060820e+00 4.150000000000000000e+02
1.024235687643162418e+00 -1.659943869988955267e+00 4.150000000000000000e+02
-2.465157043775467738e-01 -1.039306375409849270e+00 4.150000000000000000e+02
-1.517267096398255743e+00 -4.186688808307431620e-01 4.150000000000000000e+02
-2.788018488418964935e+00 2.019686137483629462e-01 4.150000000000000000e+02
-4.058769880439673905e+00 8.226061083274693875e-01 4.150000000000000000e+02
-5.329521272460382875e+00 1.443243602906575385e+00 4.150000000000000000e+02
-6.600272664481092733e+00 2.063881097485682048e+00 4.150000000000000000e+02
-7.871024056501800814e+00 2.684518592064788045e+00 4.150000000000000000e+02
4.836489863705288883e+00 -3.521856353726273703e+00 4.160000000000000000e+02
3.565738471684580357e+00 -2.901218859147167706e+00 4.160000000000000000e+02
2.294987079663871388e+00 -2.280581364568060820e+00 4.160000000000000000e+02
1.024235687643162418e+00 -1.659943869988955267e+00 4.160000000000000000e+02
-2.465157043775467738e-01 -1.039306375409849270e+00 4.160000000000000000e+02
-1.517267096398255743e+00 -4.186688808307431620e-01 4.160000000000000000e+02
-2.788018488418964935e+00 2.019686137483629462e-01 4.160000000000000000e+02
-4.058769880439673905e+00 8.226061083274693875e-01 4.160000000000000000e+02
-5.329521272460382875e+00 1.443243602906575385e+00 4.160000000000000000e+02
-6.600272664481092733e+00 2.063881097485682048e+00 4.160000000000000000e+02
-7.871024056501800814e+00 2.684518592064788045e+00 4.160000000000000000e+02
4.836489863705288883e+00 -3.521856353726273703e+00 4.170000000000000000e+02
3.565738471684580357e+00 -2.901218859147167706e+00 4.170000000000000000e+02
2.294987079663871388e+00 -2.280581364568060820e+00 4.170000000000000000e+02
1.024235687643162418e+00 -1.659943869988955267e+00 4.170000000000000000e+02
-2.465157043775467738e-01 -1.039306375409849270e+00 4.170000000000000000e+02
-1.517267096398255743e+00 -4.186688808307431620e-01 4.170000000000000000e+02
-2.788018488418964935e+00 2.019686137483629462e-01 4.170000000000000000e+02
-4.058769880439673905e+00 8.226061083274693875e-01 4.170000000000000000e+02
-5.329521272460382875e+00 1.443243602906575385e+00 4.170000000000000000e+02
-6.600272664481092733e+00 2.063881097485682048e+00 4.170000000000000000e+02
-7.871024056501800814e+00 2.684518592064788045e+00 4.170000000000000000e+02
4.836489863705288883e+00 -3.521856353726273703e+00 4.180000000000000000e+02
3.565738471684580357e+00 -2.901218859147167706e+00 4.180000000000000000e+02
2.294987079663871388e+00 -2.280581364568060820e+00 4.180000000000000000e+02
1.024235687643162418e+00 -1.659943869988955267e+00 4.180000000000000000e+02
-2.465157043775467738e-01 -1.039306375409849270e+00 4.180000000000000000e+02
-1.517267096398255743e+00 -4.186688808307431620e-01 4.180000000000000000e+02
-2.788018488418964935e+00 2.019686137483629462e-01 4.180000000000000000e+02
-4.058769880439673905e+00 8.226061083274693875e-01 4.180000000000000000e+02
-5.329521272460382875e+00 1.443243602906575385e+00 4.180000000000000000e+02
-6.600272664481092733e+00 2.063881097485682048e+00 4.180000000000000000e+02
-7.871024056501800814e+00 2.684518592064788045e+00 4.180000000000000000e+02
4.836489863705288883e+00 -3.521856353726273703e+00 4.190000000000000000e+02
3.565738471684580357e+00 -2.901218859147167706e+00 4.190000000000000000e+02
2.294987079663871388e+00 -2.280581364568060820e+00 4.190000000000000000e+02
1.024235687643162418e+00 -1.659943869988955267e+00 4.190000000000000000e+02
-2.465157043775467738e-01 -1.039306375409849270e+00 4.190000000000000000e+02
-1.517267096398255743e+00 -4.186688808307431620e-01 4.190000000000000000e+02
-2.788018488418964935e+00 2.019686137483629462e-01 4.190000000000000000e+02
-4.058769880439673905e+00 8.226061083274693875e-01 4.190000000000000000e+02
-5.329521272460382875e+00 1.443243602906575385e+00 4.190000000000000000e+02
-6.600272664481092733e+00 2.063881097485682048e+00 4.190000000000000000e+02
-7.871024056501800814e+00 2.684518592064788045e+00 4.190000000000000000e+02
4.836489863705288883e+00 -3.521856353726273703e+00 4.200000000000000000e+02
3.565738471684580357e+00 -2.901218859147167706e+00 4.200000000000000000e+02
2.294987079663871388e+00 -2.280581364568060820e+00 4.200000000000000000e+02
1.024235687643162418e+00 -1.659943869988955267e+00 4.200000000000000000e+02
-2.465157043775467738e-01 -1.039306375409849270e+00 4.200000000000000000e+02
-1.517267096398255743e+00 -4.186688808307431620e-01 4.200000000000000000e+02
-2.788018488418964935e+00 2.019686137483629462e-01 4.200000000000000000e+02
-4.058769880439673905e+00 8.226061083274693875e-01 4.200000000000000000e+02
-5.329521272460382875e+00 1.443243602906575385e+00 4.200000000000000000e+02
-6.600272664481092733e+00 2.063881097485682048e+00 4.200000000000000000e+02
-7.871024056501800814e+00 2.684518592064788045e+00 4.200000000000000000e+02
4.836489863705288883e+00 -3.521856353726273703e+00 4.210000000000000000e+02
3.565738471684580357e+00 -2.901218859147167706e+00 4.210000000000000000e+02
2.294987079663871388e+00 -2.280581364568060820e+00 4.210000000000000000e+02
1.024235687643162418e+00 -1.659943869988955267e+00 4.210000000000000000e+02
-2.465157043775467738e-01 -1.039306375409849270e+00 4.210000000000000000e+02
-1.517267096398255743e+00 -4.186688808307431620e-01 4.210000000000000000e+02
-2.788018488418964935e+00 2.019686137483629462e-01 4.210000000000000000e+02
-4.058769880439673905e+00 8.226061083274693875e-01 4.210000000000000000e+02
-5.329521272460382875e+00 1.443243602906575385e+00 4.210000000000000000e+02
-6.600272664481092733e+00 2.063881097485682048e+00 4.210000000000000000e+02
-7.871024056501800814e+00 2.684518592064788045e+00 4.210000000000000000e+02
4.836489863705288883e+00 -3.521856353726273703e+00 4.220000000000000000e+02
3.565738471684580357e+00 -2.901218859147167706e+00 4.220000000000000000e+02
2.294987079663871388e+00 -2.280581364568060820e+00 4.220000000000000000e+02
1.024235687643162418e+00 -1.659943869988955267e+00 4.220000000000000000e+02
-2.465157043775467738e-01 -1.039306375409849270e+00 4.220000000000000000e+02
-1.517267096398255743e+00 -4.186688808307431620e-01 4.220000000000000000e+02
-2.788018488418964935e+00 2.019686137483629462e-01 4.220000000000000000e+02
-4.058769880439673905e+00 8.226061083274693875e-01 4.220000000000000000e+02
-5.329521272460382875e+00 1.443243602906575385e+00 4.220000000000000000e+02
-6.600272664481092733e+00 2.063881097485682048e+00 4.220000000000000000e+02
-7.871024056501800814e+00 2.684518592064788045e+00 4.220000000000000000e+02
4.836489863705288883e+00 -3.521856353726273703e+00 4.230000000000000000e+02
3.565738471684580357e+00 -2.901218859147167706e+00 4.230000000000000000e+02
2.294987079663871388e+00 -2.280581364568060820e+00 4.230000000000000000e+02
1.024235687643162418e+00 -1.659943869988955267e+00 4.230000000000000000e+02
-2.465157043775467738e-01 -1.039306375409849270e+00 4.230000000000000000e+02
-1.517267096398255743e+00 -4.186688808307431620e-01 4.230000000000000000e+02
-2.788018488418964935e+00 2.019686137483629462e-01 4.230000000000000000e+02
-4.058769880439673905e+00 8.226061083274693875e-01 4.230000000000000000e+02
-5.329521272460382875e+00 1.443243602906575385e+00 4.230000000000000000e+02
-6.600272664481092733e+00 2.063881097485682048e+00 4.230000000000000000e+02
4.836489863705288883e+00 -3.521856353726273703e+00 4.240000000000000000e+02
3.565738471684580357e+00 -2.901218859147167706e+00 4.240000000000000000e+02
2.294987079663871388e+00 -2.280581364568060820e+00 4.240000000000000000e+02
1.024235687643162418e+00 -1.659943869988955267e+00 4.240000000000000000e+02
-2.465157043775467738e-01 -1.039306375409849270e+00 4.240000000000000000e+02
-1.517267096398255743e+00 -4.186688808307431620e-01 4.240000000000000000e+02
-2.788018488418964935e+00 2.019686137483629462e-01 4.240000000000000000e+02
-4.058769880439673905e+00 8.226061083274693875e-01 4.240000000000000000e+02
-5.329521272460382875e+00 1.443243602906575385e+00 4.240000000000000000e+02
-6.600272664481092733e+00 2.063881097485682048e+00 4.240000000000000000e+02
-7.871024056501800814e+00 2.684518592064788045e+00 4.240000000000000000e+02
4.836489863705288883e+00 -3.521856353726273703e+00 4.250000000000000000e+02
3.565738471684580357e+00 -2.901218859147167706e+00 4.250000000000000000e+02
2.294987079663871388e+00 -2.280581364568060820e+00 4.250000000000000000e+02
1.024235687643162418e+00 -1.659943869988955267e+00 4.250000000000000000e+02
-2.465157043775467738e-01 -1.039306375409849270e+00 4.250000000000000000e+02
-1.517267096398255743e+00 -4.186688808307431620e-01 4.250000000000000000e+02
-2.788018488418964935e+00 2.019686137483629462e-01 4.250000000000000000e+02
-4.058769880439673905e+00 8.226061083274693875e-01 4.250000000000000000e+02
-5.329521272460382875e+00 1.443243602906575385e+00 4.250000000000000000e+02
-6.600272664481092733e+00 2.063881097485682048e+00 4.250000000000000000e+02
-7.871024056501800814e+00 2.684518592064788045e+00 4.250000000000000000e+02
4.836489863705288883e+00 -3.521856353726273703e+00 4.260000000000000000e+02
3.565738471684580357e+00 -2.901218859147167706e+00 4.260000000000000000e+02
2.294987079663871388e+00 -2.280581364568060820e+00 4.260000000000000000e+02
1.024235687643162418e+00 -1.659943869988955267e+00 4.260000000000000000e+02
-2.465157043775467738e-01 -1.039306375409849270e+00 4.260000000000000000e+02
-1.517267096398255743e+00 -4.186688808307431620e-01 4.260000000000000000e+02
-2.788018488418964935e+00 2.019686137483629462e-01 4.260000000000000000e+02
-4.058769880439673905e+00 8.226061083274693875e-01 4.260000000000000000e+02
-5.329521272460382875e+00 1.443243602906575385e+00 4.260000000000000000e+02
-6.600272664481092733e+00 2.063881097485682048e+00 4.260000000000000000e+02
-7.871024056501800814e+00 2.684518592064788045e+00 4.260000000000000000e+02
4.836489863705288883e+00 -3.521856353726273703e+00 4.270000000000000000e+02
3.565738471684580357e+00 -2.901218859147167706e+00 4.270000000000000000e+02
2.294987079663871388e+00 -2.280581364568060820e+00 4.270000000000000000e+02
1.024235687643162418e+00 -1.659943869988955267e+00 4.270000000000000000e+02
-2.465157043775467738e-01 -1.039306375409849270e+00 4.270000000000000000e+02
-1.517267096398255743e+00 -4.186688808307431620e-01 4.270000000000000000e+02
-2.788018488418964935e+00 2.019686137483629462e-01 4.270000000000000000e+02
-4.058769880439673905e+00 8.226061083274693875e-01 4.270000000000000000e+02
-5.329521272460382875e+00 1.443243602906575385e+00 4.270000000000000000e+02
-6.600272664481092733e+00 2.063881097485682048e+00 4.270000000000000000e+02
-7.871024056501800814e+00 2.684518592064788045e+00 4.270000000000000000e+02
4.836489863705288883e+00 -3.521856353726273703e+00 4.280000000000000000e+02
3.565738471684580357e+00 -2.901218859147167706e+00 4.280000000000000000e+02
2.294987079663871388e+00 -2.280581364568060820e+00 4.280000000000000000e+02
1.024235687643162418e+00 -1.659943869988955267e+00 4.280000000000000000e+02
-2.465157043775467738e-01 -1.039306375409849270e+00 4.280000000000000000e+02
-1.517267096398255743e+00 -4.186688808307431620e-01 4.280000000000000000e+02
-2.788018488418964935e+00 2.019686137483629462e-01 4.280000000000000000e+02
-4.058769880439673905e+00 8.226061083274693875e-01 4.280000000000000000e+02
-5.329521272460382875e+00 1.443243602906575385e+00 4.280000000000000000e+02
-6.600272664481092733e+00 2.063881097485682048e+00 4.280000000000000000e+02
-7.871024056501800814e+00 2.684518592064788045e+00 4.280000000000000000e+02
4.836489863705288883e+00 -3.521856353726273703e+00 4.290000000000000000e+02
3.565738471684580357e+00 -2.901218859147167706e+00 4.290000000000000000e+02
2.294987079663871388e+00 -2.280581364568060820e+00 4.290000000000000000e+02
1.024235687643162418e+00 -1.659943869988955267e+00 4.290000000000000000e+02
-2.465157043775467738e-01 -1.039306375409849270e+00 4.290000000000000000e+02
-1.517267096398255743e+00 -4.186688808307431620e-01 4.290000000000000000e+02
-2.788018488418964935e+00 2.019686137483629462e-01 4.290000000000000000e+02
-4.058769880439673905e+00 8.226061083274693875e-01 4.290000000000000000e+02
-5.329521272460382875e+00 1.443243602906575385e+00 4.290000000000000000e+02
-6.600272664481092733e+00 2.063881097485682048e+00 4.290000000000000000e+02
-7.871024056501800814e+00 2.684518592064788045e+00 4.290000000000000000e+02
4.836489863705288883e+00 -3.521856353726273703e+00 4.300000000000000000e+02
3.565738471684580357e+00 -2.901218859147167706e+00 4.300000000000000000e+02
2.294987079663871388e+00 -2.280581364568060820e+00 4.300000000000000000e+02
1.024235687643162418e+00 -1.659943869988955267e+00 4.300000000000000000e+02
-2.465157043775467738e-01 -1.039306375409849270e+00 4.300000000000000000e+02
-1.517267096398255743e+00 -4.186688808307431620e-01 4.300000000000000000e+02
-2.788018488418964935e+00 2.019686137483629462e-01 4.300000000000000000e+02
-4.058769880439673905e+00 8.226061083274693875e-01 4.300000000000000000e+02
-5.329521272460382875e+00 1.443243602906575385e+00 4.300000000000000000e+02
-6.600272664481092733e+00 2.063881097485682048e+00 4.300000000000000000e+02
-7.871024056501800814e+00 2.684518592064788045e+00 4.300000000000000000e+02
4.836489863705288883e+00 -3.521856353726273703e+00 4.310000000000000000e+02
3.565738471684580357e+00 -2.901218859147167706e+00 4.310000000000000000e+02
2.294987079663871388e+00 -2.280581364568060820e+00 4.310000000000000000e+02
1.024235687643162418e+00 -1.659943869988955267e+00 4.310000000000000000e+02
-2.465157043775467738e-01 -1.039306375409849270e+00 4.310000000000000000e+02
-1.517267096398255743e+00 -4.186688808307431620e-01 4.310000000000000000e+02
-2.788018488418964935e+00 2.019686137483629462e-01 4.310000000000000000e+02
-4.058769880439673905e+00 8.226061083274693875e-01 4.310000000000000000e+02
-5.329521272460382875e+00 1.443243602906575385e+00 4.310000000000000000e+02
-6.600272664481092733e+00 2.063881097485682048e+00 4.310000000000000000e+02
-7.871024056501800814e+00 2.684518592064788045e+00 4.310000000000000000e+02
5.161546812426090369e+00 -4.467550797026181186e+00 4.320000000000000000e+02
3.890795420405381844e+00 -3.846913302447075189e+00 4.320000000000000000e+02
2.620044028384672874e+00 -3.226275807867969192e+00 4.320000000000000000e+02
1.349292636363963904e+00 -2.605638313288862307e+00 4.320000000000000000e+02
7.854124434325471249e-02 -1.985000818709756754e+00 4.320000000000000000e+02
-1.192210147677454257e+00 -1.364363324130650756e+00 4.320000000000000000e+02
-2.462961539698163449e+00 -7.437258295515445372e-01 4.320000000000000000e+02
-3.733712931718872419e+00 -1.230883349724385400e-01 4.320000000000000000e+02
-5.004464323739581388e+00 4.975491596066679012e-01 4.320000000000000000e+02
-6.275215715760291246e+00 1.118186654185773454e+00 4.320000000000000000e+02
-7.545967107780999328e+00 1.738824148764880340e+00 4.320000000000000000e+02
-8.816718499801709186e+00 2.359461643343986559e+00 4.320000000000000000e+02
5.161546812426090369e+00 -4.467550797026181186e+00 4.330000000000000000e+02
3.890795420405381844e+00 -3.846913302447075189e+00 4.330000000000000000e+02
2.620044028384672874e+00 -3.226275807867969192e+00 4.330000000000000000e+02
1.349292636363963904e+00 -2.605638313288862307e+00 4.330000000000000000e+02
7.854124434325471249e-02 -1.985000818709756754e+00 4.330000000000000000e+02
-1.192210147677454257e+00 -1.364363324130650756e+00 4.330000000000000000e+02
-2.462961539698163449e+00 -7.437258295515445372e-01 4.330000000000000000e+02
-3.733712931718872419e+00 -1.230883349724385400e-01 4.330000000000000000e+02
-5.004464323739581388e+00 4.975491596066679012e-01 4.330000000000000000e+02
-6.275215715760291246e+00 1.118186654185773454e+00 4.330000000000000000e+02
-7.545967107780999328e+00 1.738824148764880340e+00 4.330000000000000000e+02
-8.816718499801709186e+00 2.359461643343986559e+00 4.330000000000000000e+02
5.161546812426090369e+00 -4.467550797026181186e+00 4.340000000000000000e+02
3.890795420405381844e+00 -3.846913302447075189e+00 4.340000000000000000e+02
2.620044028384672874e+00 -3.226275807867969192e+00 4.340000000000000000e+02
1.349292636363963904e+00 -2.605638313288862307e+00 4.340000000000000000e+02
7.854124434325471249e-02 -1.985000818709756754e+00 4.340000000000000000e+02
-1.192210147677454257e+00 -1.364363324130650756e+00 4.340000000000000000e+02
-2.462961539698163449e+00 -7.437258295515445372e-01 4.340000000000000000e+02
-3.733712931718872419e+00 -1.230883349724385400e-01 4.340000000000000000e+02
-5.004464323739581388e+00 4.975491596066679012e-01 4.340000000000000000e+02
-6.275215715760291246e+00 1.118186654185773454e+00 4.340000000000000000e+02
-7.545967107780999328e+00 1.738824148764880340e+00 4.340000000000000000e+02
-8.816718499801709186e+00 2.359461643343986559e+00 4.340000000000000000e+02
5.161546812426090369e+00 -4.467550797026181186e+00 4.350000000000000000e+02
3.890795420405381844e+00 -3.846913302447075189e+00 4.350000000000000000e+02
2.620044028384672874e+00 -3.226275807867969192e+00 4.350000000000000000e+02
1.349292636363963904e+00 -2.605638313288862307e+00 4.350000000000000000e+02
7.854124434325471249e-02 -1.985000818709756754e+00 4.350000000000000000e+02
-1.192210147677454257e+00 -1.364363324130650756e+00 4.350000000000000000e+02
-2.462961539698163449e+00 -7.437258295515445372e-01 4.350000000000000000e+02
-3.733712931718872419e+00 -1.230883349724385400e-01 4.350000000000000000e+02
-5.004464323739581388e+00 4.975491596066679012e-01 4.350000000000000000e+02
-6.275215715760291246e+00 1.118186654185773454e+00 4.350000000000000000e+02
-7.545967107780999328e+00 1.738824148764880340e+00 4.350000000000000000e+02
-8.816718499801709186e+00 2.359461643343986559e+00 4.350000000000000000e+02
5.486603761146891856e+00 -5.413245240326088670e+00 4.360000000000000000e+02
4.215852369126183774e+00 -4.792607745746982673e+00 4.360000000000000000e+02
2.945100977105474360e+00 -4.171970251167876675e+00 4.360000000000000000e+02
1.674349585084765391e+00 -3.551332756588770678e+00 4.360000000000000000e+02
4.035981930640559767e-01 -2.930695262009663793e+00 4.360000000000000000e+02
-8.671531989566527709e-01 -2.310057767430558240e+00 4.360000000000000000e+02
-2.137904590977361963e+00 -1.689420272851452243e+00 4.360000000000000000e+02
-3.408655982998070932e+00 -1.068782778272346246e+00 4.360000000000000000e+02
-4.679407375018779902e+00 -4.481452836932400263e-01 4.360000000000000000e+02
-5.950158767039489760e+00 1.724922108858661929e-01 4.360000000000000000e+02
-7.220910159060197842e+00 7.931297054649721900e-01 4.360000000000000000e+02
-8.491661551080907699e+00 1.413767200044078853e+00 4.360000000000000000e+02
