4.437821714440059573e+00 7.793085773685560014e+01 3.000000000000000000e+02
4.803842693992933732e+00 7.656483114760956710e+01 3.000000000000000000e+02
5.169863673545808780e+00 7.519880455836353406e+01 3.000000000000000000e+02
5.535884653098682939e+00 7.383277796911750102e+01 3.000000000000000000e+02
5.901905632651557099e+00 7.246675137987146798e+01 3.000000000000000000e+02
6.267926612204431258e+00 7.110072479062543493e+01 3.000000000000000000e+02
6.633947591757305418e+00 6.973469820137940189e+01 3.000000000000000000e+02
6.999968571310179577e+00 6.836867161213336885e+01 3.000000000000000000e+02
3.705779755334311254e+00 8.066291091534768043e+01 3.010000000000000000e+02
4.071800734887185413e+00 7.929688432610163318e+01 3.010000000000000000e+02
4.437821714440059573e+00 7.793085773685560014e+01 3.010000000000000000e+02
4.803842693992933732e+00 7.656483114760956710e+01 3.010000000000000000e+02
5.169863673545808780e+00 7.519880455836353406e+01 3.010000000000000000e+02
5.535884653098682939e+00 7.383277796911750102e+01 3.010000000000000000e+02
5.901905632651557099e+00 7.246675137987146798e+01 3.010000000000000000e+02
6.267926612204431258e+00 7.110072479062543493e+01 3.010000000000000000e+02
6.633947591757305418e+00 6.973469820137940189e+01 3.010000000000000000e+02
6.999968571310179577e+00 6.836867161213336885e+01 3.010000000000000000e+02
3.205776950487730925e+00 7.979688713094822106e+01 3.020000000000000000e+02
3.571797930040605529e+00 7.843086054170218802e+01 3.020000000000000000e+02
3.937818909593479688e+00 7.706483395245615498e+01 3.020000000000000000e+02
4.303839889146353848e+00 7.569880736321012193e+01 3.020000000000000000e+02
4.669860868699228007e+00 7.433278077396408889e+01 3.020000000000000000e+02
5.035881848252102166e+00 7.296675418471804164e+01 3.020000000000000000e+02
5.401902827804976326e+00 7.160072759547200860e+01 3.020000000000000000e+02
5.767923807357851373e+00 7.023470100622597556e+01 3.020000000000000000e+02
6.133944786910724645e+00 6.886867441697994252e+01 3.020000000000000000e+02
3.205776950487730925e+00 7.979688713094822106e+01 3.030000000000000000e+02
3.571797930040605529e+00 7.843086054170218802e+01 3.030000000000000000e+02
3.937818909593479688e+00 7.706483395245615498e+01 3.030000000000000000e+02
4.303839889146353848e+00 7.569880736321012193e+01 3.030000000000000000e+02
4.669860868699228007e+00 7.433278077396408889e+01 3.030000000000000000e+02
5.035881848252102166e+00 7.296675418471804164e+01 3.030000000000000000e+02
5.401902827804976326e+00 7.160072759547200860e+01 3.030000000000000000e+02
5.767923807357851373e+00 7.023470100622597556e+01 3.030000000000000000e+02
6.133944786910724645e+00 6.886867441697994252e+01 3.030000000000000000e+02
3.205776950487730925e+00 7.979688713094822106e+01 3.040000000000000000e+02
3.571797930040605529e+00 7.843086054170218802e+01 3.040000000000000000e+02
3.937818909593479688e+00 7.706483395245615498e+01 3.040000000000000000e+02
4.303839889146353848e+00 7.569880736321012193e+01 3.040000000000000000e+02
4.669860868699228007e+00 7.433278077396408889e+01 3.040000000000000000e+02
5.035881848252102166e+00 7.296675418471804164e+01 3.040000000000000000e+02
5.401902827804976326e+00 7.160072759547200860e+01 3.040000000000000000e+02
5.767923807357851373e+00 7.023470100622597556e+01 3.040000000000000000e+02
6.133944786910724645e+00 6.886867441697994252e+01 3.040000000000000000e+02
3.205776950487730925e+00 7.979688713094822106e+01 3.050000000000000000e+02
3.571797930040605529e+00 7.843086054170218802e+01 3.050000000000000000e+02
3.937818909593479688e+00 7.706483395245615498e+01 3.050000000000000000e+02
4.303839889146353848e+00 7.569880736321012193e+01 3.050000000000000000e+02
4.669860868699228007e+00 7.433278077396408889e+01 3.050000000000000000e+02
5.035881848252102166e+00 7.296675418471804164e+01 3.050000000000000000e+02
5.401902827804976326e+00 7.160072759547200860e+01 3.050000000000000000e+02
5.767923807357851373e+00 7.023470100622597556e+01 3.050000000000000000e+02
6.133944786910724645e+00 6.886867441697994252e+01 3.050000000000000000e+02
3.205776950487730925e+00 7.979688713094822106e+01 3.060000000000000000e+02
3.571797930040605529e+00 7.843086054170218802e+01 3.060000000000000000e+02
3.937818909593479688e+00 7.706483395245615498e+01 3.060000000000000000e+02
4.303839889146353848e+00 7.569880736321012193e+01 3.060000000000000000e+02
4.669860868699228007e+00 7.433278077396408889e+01 3.060000000000000000e+02
5.035881848252102166e+00 7.296675418471804164e+01 3.060000000000000000e+02
5.401902827804976326e+00 7.160072759547200860e+01 3.060000000000000000e+02
5.767923807357851373e+00 7.023470100622597556e+01 3.060000000000000000e+02
6.133944786910724645e+00 6.886867441697994252e+01 3.060000000000000000e+02
3.205776950487730925e+00 7.979688713094822106e+01 3.070000000000000000e+02
3.571797930040605529e+00 7.843086054170218802e+01 3.070000000000000000e+02
3.937818909593479688e+00 7.706483395245615498e+01 3.070000000000000000e+02
4.303839889146353848e+00 7.569880736321012193e+01 3.070000000000000000e+02
4.669860868699228007e+00 7.433278077396408889e+01 3.070000000000000000e+02
5.035881848252102166e+00 7.296675418471804164e+01 3.070000000000000000e+02
5.401902827804976326e+00 7.160072759547200860e+01 3.070000000000000000e+02
5.767923807357851373e+00 7.023470100622597556e+01 3.070000000000000000e+02
6.133944786910724645e+00 6.886867441697994252e+01 3.070000000000000000e+02
3.205776950487730925e+00 7.979688713094822106e+01 3.080000000000000000e+02
3.571797930040605529e+00 7.843086054170218802e+01 3.080000000000000000e+02
3.937818909593479688e+00 7.706483395245615498e+01 3.080000000000000000e+02
4.303839889146353848e+00 7.569880736321012193e+01 3.080000000000000000e+02
4.669860868699228007e+00 7.433278077396408889e+01 3.080000000000000000e+02
5.035881848252102166e+00 7.296675418471804164e+01 3.080000000000000000e+02
5.401902827804976326e+00 7.160072759547200860e+01 3.080000000000000000e+02
5.767923807357851373e+00 7.023470100622597556e+01 3.080000000000000000e+02
6.133944786910724645e+00 6.886867441697994252e+01 3.080000000000000000e+02
3.205776950487730925e+00 7.979688713094822106e+01 3.090000000000000000e+02
3.571797930040605529e+00 7.843086054170218802e+01 3.090000000000000000e+02
3.937818909593479688e+00 7.706483395245615498e+01 3.090000000000000000e+02
4.303839889146353848e+00 7.569880736321012193e+01 3.090000000000000000e+02
4.669860868699228007e+00 7.433278077396408889e+01 3.090000000000000000e+02
5.035881848252102166e+00 7.296675418471804164e+01 3.090000000000000000e+02
5.401902827804976326e+00 7.160072759547200860e+01 3.090000000000000000e+02
5.767923807357851373e+00 7.023470100622597556e+01 3.090000000000000000e+02
6.133944786910724645e+00 6.886867441697994252e+01 3.090000000000000000e+02
2.705774145641150596e+00 7.893086334654876168e+01 3.100000000000000000e+02
3.071795125194025200e+00 7.756483675730272864e+01 3.100000000000000000e+02
3.437816104746899804e+00 7.619881016805669560e+01 3.100000000000000000e+02
3.803837084299773963e+00 7.483278357881066256e+01 3.100000000000000000e+02
4.169858063852648122e+00 7.346675698956462952e+01 3.100000000000000000e+02
4.535879043405522282e+00 7.210073040031859648e+01 3.100000000000000000e+02
4.901900022958396441e+00 7.073470381107256344e+01 3.100000000000000000e+02
5.267921002511270601e+00 6.936867722182653040e+01 3.100000000000000000e+02
3.205776950487730925e+00 7.979688713094822106e+01 3.110000000000000000e+02
3.571797930040605529e+00 7.843086054170218802e+01 3.110000000000000000e+02
3.937818909593479688e+00 7.706483395245615498e+01 3.110000000000000000e+02
4.303839889146353848e+00 7.569880736321012193e+01 3.110000000000000000e+02
4.669860868699228007e+00 7.433278077396408889e+01 3.110000000000000000e+02
5.035881848252102166e+00 7.296675418471804164e+01 3.110000000000000000e+02
5.401902827804976326e+00 7.160072759547200860e+01 3.110000000000000000e+02
5.767923807357851373e+00 7.023470100622597556e+01 3.110000000000000000e+02
6.133944786910724645e+00 6.886867441697994252e+01 3.110000000000000000e+02
3.205776950487730925e+00 7.979688713094822106e+01 3.120000000000000000e+02
3.571797930040605529e+00 7.843086054170218802e+01 3.120000000000000000e+02
3.937818909593479688e+00 7.706483395245615498e+01 3.120000000000000000e+02
4.303839889146353848e+00 7.569880736321012193e+01 3.120000000000000000e+02
4.669860868699228007e+00 7.433278077396408889e+01 3.120000000000000000e+02
5.035881848252102166e+00 7.296675418471804164e+01 3.120000000000000000e+02
5.401902827804976326e+00 7.160072759547200860e+01 3.120000000000000000e+02
5.767923807357851373e+00 7.023470100622597556e+01 3.120000000000000000e+02
6.133944786910724645e+00 6.886867441697994252e+01 3.120000000000000000e+02
3.205776950487730925e+00 7.979688713094822106e+01 3.130000000000000000e+02
3.571797930040605529e+00 7.843086054170218802e+01 3.130000000000000000e+02
3.937818909593479688e+00 7.706483395245615498e+01 3.130000000000000000e+02
4.303839889146353848e+00 7.569880736321012193e+01 3.130000000000000000e+02
4.669860868699228007e+00 7.433278077396408889e+01 3.130000000000000000e+02
5.035881848252102166e+00 7.296675418471804164e+01 3.130000000000000000e+02
5.401902827804976326e+00 7.160072759547200860e+01 3.130000000000000000e+02
5.767923807357851373e+00 7.023470100622597556e+01 3.130000000000000000e+02
6.133944786910724645e+00 6.886867441697994252e+01 3.130000000000000000e+02
3.205776950487730925e+00 7.979688713094822106e+01 3.140000000000000000e+02
3.571797930040605529e+00 7.843086054170218802e+01 3.140000000000000000e+02
3.937818909593479688e+00 7.706483395245615498e+01 3.140000000000000000e+02
4.303839889146353848e+00 7.569880736321012193e+01 3.140000000000000000e+02
4.669860868699228007e+00 7.433278077396408889e+01 3.140000000000000000e+02
5.035881848252102166e+00 7.296675418471804164e+01 3.140000000000000000e+02
5.401902827804976326e+00 7.160072759547200860e+01 3.140000000000000000e+02
5.767923807357851373e+00 7.023470100622597556e+01 3.140000000000000000e+02
6.133944786910724645e+00 6.886867441697994252e+01 3.140000000000000000e+02
3.705779755334311254e+00 8.066291091534768043e+01 3.150000000000000000e+02
4.071800734887185413e+00 7.929688432610163318e+01 3.150000000000000000e+02
4.437821714440059573e+00 7.793085773685560014e+01 3.150000000000000000e+02
4.803842693992933732e+00 7.656483114760956710e+01 3.150000000000000000e+02
5.169863673545808780e+00 7.519880455836353406e+01 3.150000000000000000e+02
5.535884653098682939e+00 7.383277796911750102e+01 3.150000000000000000e+02
5.901905632651557099e+00 7.246675137987146798e+01 3.150000000000000000e+02
6.267926612204431258e+00 7.110072479062543493e+01 3.150000000000000000e+02
6.633947591757305418e+00 6.973469820137940189e+01 3.150000000000000000e+02
6.999968571310179577e+00 6.836867161213336885e+01 3.150000000000000000e+02
3.205776950487730925e+00 7.979688713094822106e+01 3.160000000000000000e+02
3.571797930040605529e+00 7.843086054170218802e+01 3.160000000000000000e+02
3.937818909593479688e+00 7.706483395245615498e+01 3.160000000000000000e+02
4.303839889146353848e+00 7.569880736321012193e+01 3.160000000000000000e+02
4.669860868699228007e+00 7.433278077396408889e+01 3.160000000000000000e+02
5.035881848252102166e+00 7.296675418471804164e+01 3.160000000000000000e+02
5.401902827804976326e+00 7.160072759547200860e+01 3.160000000000000000e+02
5.767923807357851373e+00 7.023470100622597556e+01 3.160000000000000000e+02
6.133944786910724645e+00 6.886867441697994252e+01 3.160000000000000000e+02
3.205776950487730925e+00 7.979688713094822106e+01 3.170000000000000000e+02
3.571797930040605529e+00 7.843086054170218802e+01 3.170000000000000000e+02
3.937818909593479688e+00 7.706483395245615498e+01 3.170000000000000000e+02
4.303839889146353848e+00 7.569880736321012193e+01 3.170000000000000000e+02
4.669860868699228007e+00 7.433278077396408889e+01 3.170000000000000000e+02
5.035881848252102166e+00 7.296675418471804164e+01 3.170000000000000000e+02
5.401902827804976326e+00 7.160072759547200860e+01 3.170000000000000000e+02
5.767923807357851373e+00 7.023470100622597556e+01 3.170000000000000000e+02
6.133944786910724645e+00 6.886867441697994252e+01 3.170000000000000000e+02
3.205776950487730925e+00 7.979688713094822106e+01 3.180000000000000000e+02
3.571797930040605529e+00 7.843086054170218802e+01 3.180000000000000000e+02
3.937818909593479688e+00 7.706483395245615498e+01 3.180000000000000000e+02
4.303839889146353848e+00 7.569880736321012193e+01 3.180000000000000000e+02
4.669860868699228007e+00 7.433278077396408889e+01 3.180000000000000000e+02
5.035881848252102166e+00 7.296675418471804164e+01 3.180000000000000000e+02
5.401902827804976326e+00 7.160072759547200860e+01 3.180000000000000000e+02
5.767923807357851373e+00 7.023470100622597556e+01 3.180000000000000000e+02
6.133944786910724645e+00 6.886867441697994252e+01 3.180000000000000000e+02
3.205776950487730925e+00 7.979688713094822106e+01 3.190000000000000000e+02
3.571797930040605529e+00 7.843086054170218802e+01 3.190000000000000000e+02
3.937818909593479688e+00 7.706483395245615498e+01 3.190000000000000000e+02
4.303839889146353848e+00 7.569880736321012193e+01 3.190000000000000000e+02
4.669860868699228007e+00 7.433278077396408889e+01 3.190000000000000000e+02
5.035881848252102166e+00 7.296675418471804164e+01 3.190000000000000000e+02
5.401902827804976326e+00 7.160072759547200860e+01 3.190000000000000000e+02
5.767923807357851373e+00 7.023470100622597556e+01 3.190000000000000000e+02
6.133944786910724645e+00 6.886867441697994252e+01 3.190000000000000000e+02
3.205776950487730925e+00 7.979688713094822106e+01 3.200000000000000000e+02
3.571797930040605529e+00 7.843086054170218802e+01 3.200000000000000000e+02
3.937818909593479688e+00 7.706483395245615498e+01 3.200000000000000000e+02
4.303839889146353848e+00 7.569880736321012193e+01 3.200000000000000000e+02
4.669860868699228007e+00 7.433278077396408889e+01 3.200000000000000000e+02
5.035881848252102166e+00 7.296675418471804164e+01 3.200000000000000000e+02
5.401902827804976326e+00 7.160072759547200860e+01 3.200000000000000000e+02
5.767923807357851373e+00 7.023470100622597556e+01 3.200000000000000000e+02
6.133944786910724645e+00 6.886867441697994252e+01 3.200000000000000000e+02
6.499965766463599692e+00 6.750264782773390948e+01 3.200000000000000000e+02
3.205776950487730925e+00 7.979688713094822106e+01 3.210000000000000000e+02
3.571797930040605529e+00 7.843086054170218802e+01 3.210000000000000000e+02
3.937818909593479688e+00 7.706483395245615498e+01 3.210000000000000000e+02
4.303839889146353848e+00 7.569880736321012193e+01 3.210000000000000000e+02
4.669860868699228007e+00 7.433278077396408889e+01 3.210000000000000000e+02
5.035881848252102166e+00 7.296675418471804164e+01 3.210000000000000000e+02
5.401902827804976326e+00 7.160072759547200860e+01 3.210000000000000000e+02
5.767923807357851373e+00 7.023470100622597556e+01 3.210000000000000000e+02
6.133944786910724645e+00 6.886867441697994252e+01 3.210000000000000000e+02
6.499965766463599692e+00 6.750264782773390948e+01 3.210000000000000000e+02
3.205776950487730925e+00 7.979688713094822106e+01 3.220000000000000000e+02
3.571797930040605529e+00 7.843086054170218802e+01 3.220000000000000000e+02
3.937818909593479688e+00 7.706483395245615498e+01 3.220000000000000000e+02
4.303839889146353848e+00 7.569880736321012193e+01 3.220000000000000000e+02
4.669860868699228007e+00 7.433278077396408889e+01 3.220000000000000000e+02
5.035881848252102166e+00 7.296675418471804164e+01 3.220000000000000000e+02
5.401902827804976326e+00 7.160072759547200860e+01 3.220000000000000000e+02
5.767923807357851373e+00 7.023470100622597556e+01 3.220000000000000000e+02
6.133944786910724645e+00 6.886867441697994252e+01 3.220000000000000000e+02
3.205776950487730925e+00 7.979688713094822106e+01 3.230000000000000000e+02
3.571797930040605529e+00 7.843086054170218802e+01 3.230000000000000000e+02
3.937818909593479688e+00 7.706483395245615498e+01 3.230000000000000000e+02
4.303839889146353848e+00 7.569880736321012193e+01 3.230000000000000000e+02
4.669860868699228007e+00 7.433278077396408889e+01 3.230000000000000000e+02
5.035881848252102166e+00 7.296675418471804164e+01 3.230000000000000000e+02
5.401902827804976326e+00 7.160072759547200860e+01 3.230000000000000000e+02
5.767923807357851373e+00 7.023470100622597556e+01 3.230000000000000000e+02
6.133944786910724645e+00 6.886867441697994252e+01 3.230000000000000000e+02
2.705774145641150596e+00 7.893086334654876168e+01 3.240000000000000000e+02
3.071795125194025200e+00 7.756483675730272864e+01 3.240000000000000000e+02
3.437816104746899804e+00 7.619881016805669560e+01 3.240000000000000000e+02
3.803837084299773963e+00 7.483278357881066256e+01 3.240000000000000000e+02
4.169858063852648122e+00 7.346675698956462952e+01 3.240000000000000000e+02
4.535879043405522282e+00 7.210073040031859648e+01 3.240000000000000000e+02
4.901900022958396441e+00 7.073470381107256344e+01 3.240000000000000000e+02
5.267921002511270601e+00 6.936867722182653040e+01 3.240000000000000000e+02
2.705774145641150596e+00 7.893086334654876168e+01 3.250000000000000000e+02
3.071795125194025200e+00 7.756483675730272864e+01 3.250000000000000000e+02
3.437816104746899804e+00 7.619881016805669560e+01 3.250000000000000000e+02
3.803837084299773963e+00 7.483278357881066256e+01 3.250000000000000000e+02
4.169858063852648122e+00 7.346675698956462952e+01 3.250000000000000000e+02
4.535879043405522282e+00 7.210073040031859648e+01 3.250000000000000000e+02
4.901900022958396441e+00 7.073470381107256344e+01 3.250000000000000000e+02
5.267921002511270601e+00 6.936867722182653040e+01 3.250000000000000000e+02
2.705774145641150596e+00 7.893086334654876168e+01 3.260000000000000000e+02
3.071795125194025200e+00 7.756483675730272864e+01 3.260000000000000000e+02
3.437816104746899804e+00 7.619881016805669560e+01 3.260000000000000000e+02
3.803837084299773963e+00 7.483278357881066256e+01 3.260000000000000000e+02
4.169858063852648122e+00 7.346675698956462952e+01 3.260000000000000000e+02
4.535879043405522282e+00 7.210073040031859648e+01 3.260000000000000000e+02
4.901900022958396441e+00 7.073470381107256344e+01 3.260000000000000000e+02
5.267921002511270601e+00 6.936867722182653040e+01 3.260000000000000000e+02
5.633941982064145648e+00 6.800265063258048315e+01 3.260000000000000000e+02
3.205776950487730925e+00 7.979688713094822106e+01 3.270000000000000000e+02
3.571797930040605529e+00 7.843086054170218802e+01 3.270000000000000000e+02
3.937818909593479688e+00 7.706483395245615498e+01 3.270000000000000000e+02
4.303839889146353848e+00 7.569880736321012193e+01 3.270000000000000000e+02
4.669860868699228007e+00 7.433278077396408889e+01 3.270000000000000000e+02
5.035881848252102166e+00 7.296675418471804164e+01 3.270000000000000000e+02
5.401902827804976326e+00 7.160072759547200860e+01 3.270000000000000000e+02
5.767923807357851373e+00 7.023470100622597556e+01 3.270000000000000000e+02
6.133944786910724645e+00 6.886867441697994252e+01 3.270000000000000000e+02
6.499965766463599692e+00 6.750264782773390948e+01 3.270000000000000000e+02
3.205776950487730925e+00 7.979688713094822106e+01 3.280000000000000000e+02
3.571797930040605529e+00 7.843086054170218802e+01 3.280000000000000000e+02
3.937818909593479688e+00 7.706483395245615498e+01 3.280000000000000000e+02
4.303839889146353848e+00 7.569880736321012193e+01 3.280000000000000000e+02
4.669860868699228007e+00 7.433278077396408889e+01 3.280000000000000000e+02
5.035881848252102166e+00 7.296675418471804164e+01 3.280000000000000000e+02
5.401902827804976326e+00 7.160072759547200860e+01 3.280000000000000000e+02
5.767923807357851373e+00 7.023470100622597556e+01 3.280000000000000000e+02
6.133944786910724645e+00 6.886867441697994252e+01 3.280000000000000000e+02
6.499965766463599692e+00 6.750264782773390948e+01 3.280000000000000000e+02
3.205776950487730925e+00 7.979688713094822106e+01 3.290000000000000000e+02
3.571797930040605529e+00 7.843086054170218802e+01 3.290000000000000000e+02
3.937818909593479688e+00 7.706483395245615498e+01 3.290000000000000000e+02
4.303839889146353848e+00 7.569880736321012193e+01 3.290000000000000000e+02
4.669860868699228007e+00 7.433278077396408889e+01 3.290000000000000000e+02
5.035881848252102166e+00 7.296675418471804164e+01 3.290000000000000000e+02
5.401902827804976326e+00 7.160072759547200860e+01 3.290000000000000000e+02
5.767923807357851373e+00 7.023470100622597556e+01 3.290000000000000000e+02
6.133944786910724645e+00 6.886867441697994252e+01 3.290000000000000000e+02
3.205776950487730925e+00 7.979688713094822106e+01 3.300000000000000000e+02
3.571797930040605529e+00 7.843086054170218802e+01 3.300000000000000000e+02
3.937818909593479688e+00 7.706483395245615498e+01 3.300000000000000000e+02
4.303839889146353848e+00 7.569880736321012193e+01 3.300000000000000000e+02
4.669860868699228007e+00 7.433278077396408889e+01 3.300000000000000000e+02
5.035881848252102166e+00 7.296675418471804164e+01 3.300000000000000000e+02
5.401902827804976326e+00 7.160072759547200860e+01 3.300000000000000000e+02
5.767923807357851373e+00 7.023470100622597556e+01 3.300000000000000000e+02
6.133944786910724645e+00 6.886867441697994252e+01 3.300000000000000000e+02
6.499965766463599692e+00 6.750264782773390948e+01 3.300000000000000000e+02
3.205776950487730925e+00 7.979688713094822106e+01 3.310000000000000000e+02
3.571797930040605529e+00 7.843086054170218802e+01 3.310000000000000000e+02
3.937818909593479688e+00 7.706483395245615498e+01 3.310000000000000000e+02
4.303839889146353848e+00 7.569880736321012193e+01 3.310000000000000000e+02
4.669860868699228007e+00 7.433278077396408889e+01 3.310000000000000000e+02
5.035881848252102166e+00 7.296675418471804164e+01 3.310000000000000000e+02
5.401902827804976326e+00 7.160072759547200860e+01 3.310000000000000000e+02
5.767923807357851373e+00 7.023470100622597556e+01 3.310000000000000000e+02
6.133944786910724645e+00 6.886867441697994252e+01 3.310000000000000000e+02
6.499965766463599692e+00 6.750264782773390948e+01 3.310000000000000000e+02
3.205776950487730925e+00 7.979688713094822106e+01 3.320000000000000000e+02
3.571797930040605529e+00 7.843086054170218802e+01 3.320000000000000000e+02
3.937818909593479688e+00 7.706483395245615498e+01 3.320000000000000000e+02
4.303839889146353848e+00 7.569880736321012193e+01 3.320000000000000000e+02
4.669860868699228007e+00 7.433278077396408889e+01 3.320000000000000000e+02
5.035881848252102166e+00 7.296675418471804164e+01 3.320000000000000000e+02
5.401902827804976326e+00 7.160072759547200860e+01 3.320000000000000000e+02
5.767923807357851373e+00 7.023470100622597556e+01 3.320000000000000000e+02
6.133944786910724645e+00 6.886867441697994252e+01 3.320000000000000000e+02
3.205776950487730925e+00 7.979688713094822106e+01 3.330000000000000000e+02
3.571797930040605529e+00 7.843086054170218802e+01 3.330000000000000000e+02
3.937818909593479688e+00 7.706483395245615498e+01 3.330000000000000000e+02
4.303839889146353848e+00 7.569880736321012193e+01 3.330000000000000000e+02
4.669860868699228007e+00 7.433278077396408889e+01 3.330000000000000000e+02
5.035881848252102166e+00 7.296675418471804164e+01 3.330000000000000000e+02
5.401902827804976326e+00 7.160072759547200860e+01 3.330000000000000000e+02
5.767923807357851373e+00 7.023470100622597556e+01 3.330000000000000000e+02
6.133944786910724645e+00 6.886867441697994252e+01 3.330000000000000000e+02
3.205776950487730925e+00 7.979688713094822106e+01 3.340000000000000000e+02
3.571797930040605529e+00 7.843086054170218802e+01 3.340000000000000000e+02
3.937818909593479688e+00 7.706483395245615498e+01 3.340000000000000000e+02
4.303839889146353848e+00 7.569880736321012193e+01 3.340000000000000000e+02
4.669860868699228007e+00 7.433278077396408889e+01 3.340000000000000000e+02
5.035881848252102166e+00 7.296675418471804164e+01 3.340000000000000000e+02
5.401902827804976326e+00 7.160072759547200860e+01 3.340000000000000000e+02
5.767923807357851373e+00 7.023470100622597556e+01 3.340000000000000000e+02
6.133944786910724645e+00 6.886867441697994252e+01 3.340000000000000000e+02
3.205776950487730925e+00 7.979688713094822106e+01 3.350000000000000000e+02
3.571797930040605529e+00 7.843086054170218802e+01 3.350000000000000000e+02
3.937818909593479688e+00 7.706483395245615498e+01 3.350000000000000000e+02
4.303839889146353848e+00 7.569880736321012193e+01 3.350000000000000000e+02
4.669860868699228007e+00 7.433278077396408889e+01 3.350000000000000000e+02
5.035881848252102166e+00 7.296675418471804164e+01 3.350000000000000000e+02
5.401902827804976326e+00 7.160072759547200860e+01 3.350000000000000000e+02
5.767923807357851373e+00 7.023470100622597556e+01 3.350000000000000000e+02
6.133944786910724645e+00 6.886867441697994252e+01 3.350000000000000000e+02
3.205776950487730925e+00 7.979688713094822106e+01 3.360000000000000000e+02
3.571797930040605529e+00 7.843086054170218802e+01 3.360000000000000000e+02
3.937818909593479688e+00 7.706483395245615498e+01 3.360000000000000000e+02
4.303839889146353848e+00 7.569880736321012193e+01 3.360000000000000000e+02
4.669860868699228007e+00 7.433278077396408889e+01 3.360000000000000000e+02
5.035881848252102166e+00 7.296675418471804164e+01 3.360000000000000000e+02
5.401902827804976326e+00 7.160072759547200860e+01 3.360000000000000000e+02
5.767923807357851373e+00 7.023470100622597556e+01 3.360000000000000000e+02
6.133944786910724645e+00 6.886867441697994252e+01 3.360000000000000000e+02
6.499965766463599692e+00 6.750264782773390948e+01 3.360000000000000000e+02
3.205776950487730925e+00 7.979688713094822106e+01 3.370000000000000000e+02
3.571797930040605529e+00 7.843086054170218802e+01 3.370000000000000000e+02
3.937818909593479688e+00 7.706483395245615498e+01 3.370000000000000000e+02
4.303839889146353848e+00 7.569880736321012193e+01 3.370000000000000000e+02
4.669860868699228007e+00 7.433278077396408889e+01 3.370000000000000000e+02
5.035881848252102166e+00 7.296675418471804164e+01 3.370000000000000000e+02
5.401902827804976326e+00 7.160072759547200860e+01 3.370000000000000000e+02
5.767923807357851373e+00 7.023470100622597556e+01 3.370000000000000000e+02
6.133944786910724645e+00 6.886867441697994252e+01 3.370000000000000000e+02
6.499965766463599692e+00 6.750264782773390948e+01 3.370000000000000000e+02
3.205776950487730925e+00 7.979688713094822106e+01 3.380000000000000000e+02
3.571797930040605529e+00 7.843086054170218802e+01 3.380000000000000000e+02
3.937818909593479688e+00 7.706483395245615498e+01 3.380000000000000000e+02
4.303839889146353848e+00 7.569880736321012193e+01 3.380000000000000000e+02
4.669860868699228007e+00 7.433278077396408889e+01 3.380000000000000000e+02
5.035881848252102166e+00 7.296675418471804164e+01 3.380000000000000000e+02
5.401902827804976326e+00 7.160072759547200860e+01 3.380000000000000000e+02
5.767923807357851373e+00 7.023470100622597556e+01 3.380000000000000000e+02
6.133944786910724645e+00 6.886867441697994252e+01 3.380000000000000000e+02
3.205776950487730925e+00 7.979688713094822106e+01 3.390000000000000000e+02
3.571797930040605529e+00 7.843086054170218802e+01 3.390000000000000000e+02
3.937818909593479688e+00 7.706483395245615498e+01 3.390000000000000000e+02
4.303839889146353848e+00 7.569880736321012193e+01 3.390000000000000000e+02
4.669860868699228007e+00 7.433278077396408889e+01 3.390000000000000000e+02
5.035881848252102166e+00 7.296675418471804164e+01 3.390000000000000000e+02
5.401902827804976326e+00 7.160072759547200860e+01 3.390000000000000000e+02
5.767923807357851373e+00 7.023470100622597556e+01 3.390000000000000000e+02
6.133944786910724645e+00 6.886867441697994252e+01 3.390000000000000000e+02
3.205776950487730925e+00 7.979688713094822106e+01 3.400000000000000000e+02
3.571797930040605529e+00 7.843086054170218802e+01 3.400000000000000000e+02
3.937818909593479688e+00 7.706483395245615498e+01 3.400000000000000000e+02
4.303839889146353848e+00 7.569880736321012193e+01 3.400000000000000000e+02
4.669860868699228007e+00 7.433278077396408889e+01 3.400000000000000000e+02
5.035881848252102166e+00 7.296675418471804164e+01 3.400000000000000000e+02
5.401902827804976326e+00 7.160072759547200860e+01 3.400000000000000000e+02
5.767923807357851373e+00 7.023470100622597556e+01 3.400000000000000000e+02
6.133944786910724645e+00 6.886867441697994252e+01 3.400000000000000000e+02
3.205776950487730925e+00 7.979688713094822106e+01 3.410000000000000000e+02
3.571797930040605529e+00 7.843086054170218802e+01 3.410000000000000000e+02
3.937818909593479688e+00 7.706483395245615498e+01 3.410000000000000000e+02
4.303839889146353848e+00 7.569880736321012193e+01 3.410000000000000000e+02
4.669860868699228007e+00 7.433278077396408889e+01 3.410000000000000000e+02
5.035881848252102166e+00 7.296675418471804164e+01 3.410000000000000000e+02
5.401902827804976326e+00 7.160072759547200860e+01 3.410000000000000000e+02
5.767923807357851373e+00 7.023470100622597556e+01 3.410000000000000000e+02
6.133944786910724645e+00 6.886867441697994252e+01 3.410000000000000000e+02
3.205776950487730925e+00 7.979688713094822106e+01 3.420000000000000000e+02
3.571797930040605529e+00 7.843086054170218802e+01 3.420000000000000000e+02
3.937818909593479688e+00 7.706483395245615498e+01 3.420000000000000000e+02
4.303839889146353848e+00 7.569880736321012193e+01 3.420000000000000000e+02
4.669860868699228007e+00 7.433278077396408889e+01 3.420000000000000000e+02
5.035881848252102166e+00 7.296675418471804164e+01 3.420000000000000000e+02
5.401902827804976326e+00 7.160072759547200860e+01 3.420000000000000000e+02
5.767923807357851373e+00 7.023470100622597556e+01 3.420000000000000000e+02
6.133944786910724645e+00 6.886867441697994252e+01 3.420000000000000000e+02
3.205776950487730925e+00 7.979688713094822106e+01 3.430000000000000000e+02
3.571797930040605529e+00 7.843086054170218802e+01 3.430000000000000000e+02
3.937818909593479688e+00 7.706483395245615498e+01 3.430000000000000000e+02
4.303839889146353848e+00 7.569880736321012193e+01 3.430000000000000000e+02
4.669860868699228007e+00 7.433278077396408889e+01 3.430000000000000000e+02
5.035881848252102166e+00 7.296675418471804164e+01 3.430000000000000000e+02
5.401902827804976326e+00 7.160072759547200860e+01 3.430000000000000000e+02
5.767923807357851373e+00 7.023470100622597556e+01 3.430000000000000000e+02
6.133944786910724645e+00 6.886867441697994252e+01 3.430000000000000000e+02
3.205776950487730925e+00 7.979688713094822106e+01 3.440000000000000000e+02
3.571797930040605529e+00 7.843086054170218802e+01 3.440000000000000000e+02
3.937818909593479688e+00 7.706483395245615498e+01 3.440000000000000000e+02
4.303839889146353848e+00 7.569880736321012193e+01 3.440000000000000000e+02
4.669860868699228007e+00 7.433278077396408889e+01 3.440000000000000000e+02
5.035881848252102166e+00 7.296675418471804164e+01 3.440000000000000000e+02
5.401902827804976326e+00 7.160072759547200860e+01 3.440000000000000000e+02
5.767923807357851373e+00 7.023470100622597556e+01 3.440000000000000000e+02
6.133944786910724645e+00 6.886867441697994252e+01 3.440000000000000000e+02
3.205776950487730925e+00 7.979688713094822106e+01 3.450000000000000000e+02
3.571797930040605529e+00 7.843086054170218802e+01 3.450000000000000000e+02
3.937818909593479688e+00 7.706483395245615498e+01 3.450000000000000000e+02
4.303839889146353848e+00 7.569880736321012193e+01 3.450000000000000000e+02
4.669860868699228007e+00 7.433278077396408889e+01 3.450000000000000000e+02
5.035881848252102166e+00 7.296675418471804164e+01 3.450000000000000000e+02
5.401902827804976326e+00 7.160072759547200860e+01 3.450000000000000000e+02
5.767923807357851373e+00 7.023470100622597556e+01 3.450000000000000000e+02
6.133944786910724645e+00 6.886867441697994252e+01 3.450000000000000000e+02
3.205776950487730925e+00 7.979688713094822106e+01 3.460000000000000000e+02
3.571797930040605529e+00 7.843086054170218802e+01 3.460000000000000000e+02
3.937818909593479688e+00 7.706483395245615498e+01 3.460000000000000000e+02
4.303839889146353848e+00 7.569880736321012193e+01 3.460000000000000000e+02
4.669860868699228007e+00 7.433278077396408889e+01 3.460000000000000000e+02
5.035881848252102166e+00 7.296675418471804164e+01 3.460000000000000000e+02
5.401902827804976326e+00 7.160072759547200860e+01 3.460000000000000000e+02
5.767923807357851373e+00 7.023470100622597556e+01 3.460000000000000000e+02
6.133944786910724645e+00 6.886867441697994252e+01 3.460000000000000000e+02
3.205776950487730925e+00 7.979688713094822106e+01 3.470000000000000000e+02
3.571797930040605529e+00 7.843086054170218802e+01 3.470000000000000000e+02
3.937818909593479688e+00 7.706483395245615498e+01 3.470000000000000000e+02
4.303839889146353848e+00 7.569880736321012193e+01 3.470000000000000000e+02
4.669860868699228007e+00 7.433278077396408889e+01 3.470000000000000000e+02
5.035881848252102166e+00 7.296675418471804164e+01 3.470000000000000000e+02
5.401902827804976326e+00 7.160072759547200860e+01 3.470000000000000000e+02
5.767923807357851373e+00 7.023470100622597556e+01 3.470000000000000000e+02
6.133944786910724645e+00 6.886867441697994252e+01 3.470000000000000000e+02
3.705779755334311254e+00 8.066291091534768043e+01 3.480000000000000000e+02
4.071800734887185413e+00 7.929688432610163318e+01 3.480000000000000000e+02
4.437821714440059573e+00 7.793085773685560014e+01 3.480000000000000000e+02
4.803842693992933732e+00 7.656483114760956710e+01 3.480000000000000000e+02
5.169863673545808780e+00 7.519880455836353406e+01 3.480000000000000000e+02
5.535884653098682939e+00 7.383277796911750102e+01 3.480000000000000000e+02
5.901905632651557099e+00 7.246675137987146798e+01 3.480000000000000000e+02
6.267926612204431258e+00 7.110072479062543493e+01 3.480000000000000000e+02
6.633947591757305418e+00 6.973469820137940189e+01 3.480000000000000000e+02
6.999968571310179577e+00 6.836867161213336885e+01 3.480000000000000000e+02
3.705779755334311254e+00 8.066291091534768043e+01 3.490000000000000000e+02
4.071800734887185413e+00 7.929688432610163318e+01 3.490000000000000000e+02
4.437821714440059573e+00 7.793085773685560014e+01 3.490000000000000000e+02
4.803842693992933732e+00 7.656483114760956710e+01 3.490000000000000000e+02
5.169863673545808780e+00 7.519880455836353406e+01 3.490000000000000000e+02
5.535884653098682939e+00 7.383277796911750102e+01 3.490000000000000000e+02
5.901905632651557099e+00 7.246675137987146798e+01 3.490000000000000000e+02
6.267926612204431258e+00 7.110072479062543493e+01 3.490000000000000000e+02
6.633947591757305418e+00 6.973469820137940189e+01 3.490000000000000000e+02
6.999968571310179577e+00 6.836867161213336885e+01 3.490000000000000000e+02
3.205776950487730925e+00 7.979688713094822106e+01 3.500000000000000000e+02
3.571797930040605529e+00 7.843086054170218802e+01 3.500000000000000000e+02
3.937818909593479688e+00 7.706483395245615498e+01 3.500000000000000000e+02
4.303839889146353848e+00 7.569880736321012193e+01 3.500000000000000000e+02
4.669860868699228007e+00 7.433278077396408889e+01 3.500000000000000000e+02
5.035881848252102166e+00 7.296675418471804164e+01 3.500000000000000000e+02
5.401902827804976326e+00 7.160072759547200860e+01 3.500000000000000000e+02
5.767923807357851373e+00 7.023470100622597556e+01 3.500000000000000000e+02
6.133944786910724645e+00 6.886867441697994252e+01 3.500000000000000000e+02
3.205776950487730925e+00 7.979688713094822106e+01 3.510000000000000000e+02
3.571797930040605529e+00 7.843086054170218802e+01 3.510000000000000000e+02
3.937818909593479688e+00 7.706483395245615498e+01 3.510000000000000000e+02
4.303839889146353848e+00 7.569880736321012193e+01 3.510000000000000000e+02
4.669860868699228007e+00 7.433278077396408889e+01 3.510000000000000000e+02
5.035881848252102166e+00 7.296675418471804164e+01 3.510000000000000000e+02
5.401902827804976326e+00 7.160072759547200860e+01 3.510000000000000000e+02
5.767923807357851373e+00 7.023470100622597556e+01 3.510000000000000000e+02
6.133944786910724645e+00 6.886867441697994252e+01 3.510000000000000000e+02
3.205776950487730925e+00 7.979688713094822106e+01 3.520000000000000000e+02
3.571797930040605529e+00 7.843086054170218802e+01 3.520000000000000000e+02
3.937818909593479688e+00 7.706483395245615498e+01 3.520000000000000000e+02
4.303839889146353848e+00 7.569880736321012193e+01 3.520000000000000000e+02
4.669860868699228007e+00 7.433278077396408889e+01 3.520000000000000000e+02
5.035881848252102166e+00 7.296675418471804164e+01 3.520000000000000000e+02
5.401902827804976326e+00 7.160072759547200860e+01 3.520000000000000000e+02
5.767923807357851373e+00 7.023470100622597556e+01 3.520000000000000000e+02
6.133944786910724645e+00 6.886867441697994252e+01 3.520000000000000000e+02
3.205776950487730925e+00 7.979688713094822106e+01 3.530000000000000000e+02
3.571797930040605529e+00 7.843086054170218802e+01 3.530000000000000000e+02
3.937818909593479688e+00 7.706483395245615498e+01 3.530000000000000000e+02
4.303839889146353848e+00 7.569880736321012193e+01 3.530000000000000000e+02
4.669860868699228007e+00 7.433278077396408889e+01 3.530000000000000000e+02
5.035881848252102166e+00 7.296675418471804164e+01 3.530000000000000000e+02
5.401902827804976326e+00 7.160072759547200860e+01 3.530000000000000000e+02
5.767923807357851373e+00 7.023470100622597556e+01 3.530000000000000000e+02
6.133944786910724645e+00 6.886867441697994252e+01 3.530000000000000000e+02
3.205776950487730925e+00 7.979688713094822106e+01 3.540000000000000000e+02
3.571797930040605529e+00 7.843086054170218802e+01 3.540000000000000000e+02
3.937818909593479688e+00 7.706483395245615498e+01 3.540000000000000000e+02
4.303839889146353848e+00 7.569880736321012193e+01 3.540000000000000000e+02
4.669860868699228007e+00 7.433278077396408889e+01 3.540000000000000000e+02
5.035881848252102166e+00 7.296675418471804164e+01 3.540000000000000000e+02
5.401902827804976326e+00 7.160072759547200860e+01 3.540000000000000000e+02
5.767923807357851373e+00 7.023470100622597556e+01 3.540000000000000000e+02
6.133944786910724645e+00 6.886867441697994252e+01 3.540000000000000000e+02
3.205776950487730925e+00 7.979688713094822106e+01 3.550000000000000000e+02
3.571797930040605529e+00 7.843086054170218802e+01 3.550000000000000000e+02
3.937818909593479688e+00 7.706483395245615498e+01 3.550000000000000000e+02
4.303839889146353848e+00 7.569880736321012193e+01 3.550000000000000000e+02
4.669860868699228007e+00 7.433278077396408889e+01 3.550000000000000000e+02
5.035881848252102166e+00 7.296675418471804164e+01 3.550000000000000000e+02
5.401902827804976326e+00 7.160072759547200860e+01 3.550000000000000000e+02
5.767923807357851373e+00 7.023470100622597556e+01 3.550000000000000000e+02
6.133944786910724645e+00 6.886867441697994252e+01 3.550000000000000000e+02
6.499965766463599692e+00 6.750264782773390948e+01 3.550000000000000000e+02
3.205776950487730925e+00 7.979688713094822106e+01 3.560000000000000000e+02
3.571797930040605529e+00 7.843086054170218802e+01 3.560000000000000000e+02
3.937818909593479688e+00 7.706483395245615498e+01 3.560000000000000000e+02
4.303839889146353848e+00 7.569880736321012193e+01 3.560000000000000000e+02
4.669860868699228007e+00 7.433278077396408889e+01 3.560000000000000000e+02
5.035881848252102166e+00 7.296675418471804164e+01 3.560000000000000000e+02
5.401902827804976326e+00 7.160072759547200860e+01 3.560000000000000000e+02
5.767923807357851373e+00 7.023470100622597556e+01 3.560000000000000000e+02
6.133944786910724645e+00 6.886867441697994252e+01 3.560000000000000000e+02
6.499965766463599692e+00 6.750264782773390948e+01 3.560000000000000000e+02
3.205776950487730925e+00 7.979688713094822106e+01 3.570000000000000000e+02
3.571797930040605529e+00 7.843086054170218802e+01 3.570000000000000000e+02
3.937818909593479688e+00 7.706483395245615498e+01 3.570000000000000000e+02
4.303839889146353848e+00 7.569880736321012193e+01 3.570000000000000000e+02
4.669860868699228007e+00 7.433278077396408889e+01 3.570000000000000000e+02
5.035881848252102166e+00 7.296675418471804164e+01 3.570000000000000000e+02
5.401902827804976326e+00 7.160072759547200860e+01 3.570000000000000000e+02
5.767923807357851373e+00 7.023470100622597556e+01 3.570000000000000000e+02
6.133944786910724645e+00 6.886867441697994252e+01 3.570000000000000000e+02
6.499965766463599692e+00 6.750264782773390948e+01 3.570000000000000000e+02
3.205776950487730925e+00 7.979688713094822106e+01 3.580000000000000000e+02
3.571797930040605529e+00 7.843086054170218802e+01 3.580000000000000000e+02
3.937818909593479688e+00 7.706483395245615498e+01 3.580000000000000000e+02
4.303839889146353848e+00 7.569880736321012193e+01 3.580000000000000000e+02
4.669860868699228007e+00 7.433278077396408889e+01 3.580000000000000000e+02
5.035881848252102166e+00 7.296675418471804164e+01 3.580000000000000000e+02
5.401902827804976326e+00 7.160072759547200860e+01 3.580000000000000000e+02
5.767923807357851373e+00 7.023470100622597556e+01 3.580000000000000000e+02
6.133944786910724645e+00 6.886867441697994252e+01 3.580000000000000000e+02
3.205776950487730925e+00 7.979688713094822106e+01 3.590000000000000000e+02
3.571797930040605529e+00 7.843086054170218802e+01 3.590000000000000000e+02
3.937818909593479688e+00 7.706483395245615498e+01 3.590000000000000000e+02
4.303839889146353848e+00 7.569880736321012193e+01 3.590000000000000000e+02
4.669860868699228007e+00 7.433278077396408889e+01 3.590000000000000000e+02
5.035881848252102166e+00 7.296675418471804164e+01 3.590000000000000000e+02
5.401902827804976326e+00 7.160072759547200860e+01 3.590000000000000000e+02
5.767923807357851373e+00 7.023470100622597556e+01 3.590000000000000000e+02
6.133944786910724645e+00 6.886867441697994252e+01 3.590000000000000000e+02
3.205776950487730925e+00 7.979688713094822106e+01 3.600000000000000000e+02
3.571797930040605529e+00 7.843086054170218802e+01 3.600000000000000000e+02
3.937818909593479688e+00 7.706483395245615498e+01 3.600000000000000000e+02
4.303839889146353848e+00 7.569880736321012193e+01 3.600000000000000000e+02
4.669860868699228007e+00 7.433278077396408889e+01 3.600000000000000000e+02
5.035881848252102166e+00 7.296675418471804164e+01 3.600000000000000000e+02
5.401902827804976326e+00 7.160072759547200860e+01 3.600000000000000000e+02
5.767923807357851373e+00 7.023470100622597556e+01 3.600000000000000000e+02
6.133944786910724645e+00 6.886867441697994252e+01 3.600000000000000000e+02
3.205776950487730925e+00 7.979688713094822106e+01 3.610000000000000000e+02
3.571797930040605529e+00 7.843086054170218802e+01 3.610000000000000000e+02
3.937818909593479688e+00 7.706483395245615498e+01 3.610000000000000000e+02
4.303839889146353848e+00 7.569880736321012193e+01 3.610000000000000000e+02
4.669860868699228007e+00 7.433278077396408889e+01 3.610000000000000000e+02
5.035881848252102166e+00 7.296675418471804164e+01 3.610000000000000000e+02
5.401902827804976326e+00 7.160072759547200860e+01 3.610000000000000000e+02
5.767923807357851373e+00 7.023470100622597556e+01 3.610000000000000000e+02
6.133944786910724645e+00 6.886867441697994252e+01 3.610000000000000000e+02
3.205776950487730925e+00 7.979688713094822106e+01 3.620000000000000000e+02
3.571797930040605529e+00 7.843086054170218802e+01 3.620000000000000000e+02
3.937818909593479688e+00 7.706483395245615498e+01 3.620000000000000000e+02
4.303839889146353848e+00 7.569880736321012193e+01 3.620000000000000000e+02
4.669860868699228007e+00 7.433278077396408889e+01 3.620000000000000000e+02
5.035881848252102166e+00 7.296675418471804164e+01 3.620000000000000000e+02
5.401902827804976326e+00 7.160072759547200860e+01 3.620000000000000000e+02
5.767923807357851373e+00 7.023470100622597556e+01 3.620000000000000000e+02
6.133944786910724645e+00 6.886867441697994252e+01 3.620000000000000000e+02
3.205776950487730925e+00 7.979688713094822106e+01 3.630000000000000000e+02
3.571797930040605529e+00 7.843086054170218802e+01 3.630000000000000000e+02
3.937818909593479688e+00 7.706483395245615498e+01 3.630000000000000000e+02
4.303839889146353848e+00 7.569880736321012193e+01 3.630000000000000000e+02
4.669860868699228007e+00 7.433278077396408889e+01 3.630000000000000000e+02
5.035881848252102166e+00 7.296675418471804164e+01 3.630000000000000000e+02
5.401902827804976326e+00 7.160072759547200860e+01 3.630000000000000000e+02
5.767923807357851373e+00 7.023470100622597556e+01 3.630000000000000000e+02
6.133944786910724645e+00 6.886867441697994252e+01 3.630000000000000000e+02
3.205776950487730925e+00 7.979688713094822106e+01 3.640000000000000000e+02
3.571797930040605529e+00 7.843086054170218802e+01 3.640000000000000000e+02
3.937818909593479688e+00 7.706483395245615498e+01 3.640000000000000000e+02
4.303839889146353848e+00 7.569880736321012193e+01 3.640000000000000000e+02
4.669860868699228007e+00 7.433278077396408889e+01 3.640000000000000000e+02
5.035881848252102166e+00 7.296675418471804164e+01 3.640000000000000000e+02
5.401902827804976326e+00 7.160072759547200860e+01 3.640000000000000000e+02
5.767923807357851373e+00 7.023470100622597556e+01 3.640000000000000000e+02
6.133944786910724645e+00 6.886867441697994252e+01 3.640000000000000000e+02
3.205776950487730925e+00 7.979688713094822106e+01 3.650000000000000000e+02
3.571797930040605529e+00 7.843086054170218802e+01 3.650000000000000000e+02
3.937818909593479688e+00 7.706483395245615498e+01 3.650000000000000000e+02
4.303839889146353848e+00 7.569880736321012193e+01 3.650000000000000000e+02
4.669860868699228007e+00 7.433278077396408889e+01 3.650000000000000000e+02
5.035881848252102166e+00 7.296675418471804164e+01 3.650000000000000000e+02
5.401902827804976326e+00 7.160072759547200860e+01 3.650000000000000000e+02
5.767923807357851373e+00 7.023470100622597556e+01 3.650000000000000000e+02
6.133944786910724645e+00 6.886867441697994252e+01 3.650000000000000000e+02
3.205776950487730925e+00 7.979688713094822106e+01 3.660000000000000000e+02
3.571797930040605529e+00 7.843086054170218802e+01 3.660000000000000000e+02
3.937818909593479688e+00 7.706483395245615498e+01 3.660000000000000000e+02
4.303839889146353848e+00 7.569880736321012193e+01 3.660000000000000000e+02
4.669860868699228007e+00 7.433278077396408889e+01 3.660000000000000000e+02
5.035881848252102166e+00 7.296675418471804164e+01 3.660000000000000000e+02
5.401902827804976326e+00 7.160072759547200860e+01 3.660000000000000000e+02
5.767923807357851373e+00 7.023470100622597556e+01 3.660000000000000000e+02
6.133944786910724645e+00 6.886867441697994252e+01 3.660000000000000000e+02
3.205776950487730925e+00 7.979688713094822106e+01 3.670000000000000000e+02
3.571797930040605529e+00 7.843086054170218802e+01 3.670000000000000000e+02
3.937818909593479688e+00 7.706483395245615498e+01 3.670000000000000000e+02
4.303839889146353848e+00 7.569880736321012193e+01 3.670000000000000000e+02
4.669860868699228007e+00 7.433278077396408889e+01 3.670000000000000000e+02
5.035881848252102166e+00 7.296675418471804164e+01 3.670000000000000000e+02
5.401902827804976326e+00 7.160072759547200860e+01 3.670000000000000000e+02
5.767923807357851373e+00 7.023470100622597556e+01 3.670000000000000000e+02
6.133944786910724645e+00 6.886867441697994252e+01 3.670000000000000000e+02
3.205776950487730925e+00 7.979688713094822106e+01 3.680000000000000000e+02
3.571797930040605529e+00 7.843086054170218802e+01 3.680000000000000000e+02
3.937818909593479688e+00 7.706483395245615498e+01 3.680000000000000000e+02
4.303839889146353848e+00 7.569880736321012193e+01 3.680000000000000000e+02
4.669860868699228007e+00 7.433278077396408889e+01 3.680000000000000000e+02
5.035881848252102166e+00 7.296675418471804164e+01 3.680000000000000000e+02
5.401902827804976326e+00 7.160072759547200860e+01 3.680000000000000000e+02
5.767923807357851373e+00 7.023470100622597556e+01 3.680000000000000000e+02
6.133944786910724645e+00 6.886867441697994252e+01 3.680000000000000000e+02
3.205776950487730925e+00 7.979688713094822106e+01 3.690000000000000000e+02
3.571797930040605529e+00 7.843086054170218802e+01 3.690000000000000000e+02
3.937818909593479688e+00 7.706483395245615498e+01 3.690000000000000000e+02
4.303839889146353848e+00 7.569880736321012193e+01 3.690000000000000000e+02
4.669860868699228007e+00 7.433278077396408889e+01 3.690000000000000000e+02
5.035881848252102166e+00 7.296675418471804164e+01 3.690000000000000000e+02
5.401902827804976326e+00 7.160072759547200860e+01 3.690000000000000000e+02
5.767923807357851373e+00 7.023470100622597556e+01 3.690000000000000000e+02
