-1.482216816521252589e+00 -3.373765105246516516e+00 3.460000000000000000e+02
-1.434807275622335787e+00 -1.960346435696777689e+00 3.460000000000000000e+02
-1.387397734723418763e+00 -5.469277661470385299e-01 3.460000000000000000e+02
-1.339988193824501961e+00 8.664909034027004076e-01 3.460000000000000000e+02
-1.292578652925584937e+00 2.279909572952439234e+00 3.460000000000000000e+02
-1.245169112026667912e+00 3.693328242502177616e+00 3.460000000000000000e+02
-1.577035898319086415e+00 -6.200602444345994613e+00 3.470000000000000000e+02
-1.529626357420169835e+00 -4.787183774796255342e+00 3.470000000000000000e+02
-1.482216816521252589e+00 -3.373765105246516516e+00 3.470000000000000000e+02
-1.434807275622335787e+00 -1.960346435696777689e+00 3.470000000000000000e+02
-1.387397734723418763e+00 -5.469277661470385299e-01 3.470000000000000000e+02
-1.339988193824501961e+00 8.664909034027004076e-01 3.470000000000000000e+02
-1.292578652925584937e+00 2.279909572952439234e+00 3.470000000000000000e+02
-1.245169112026667912e+00 3.693328242502177616e+00 3.470000000000000000e+02
-1.197759571127750888e+00 5.106746912051917775e+00 3.470000000000000000e+02
-2.307450003543414230e+00 -6.883607008671405403e+00 3.480000000000000000e+02
-2.260040462644497872e+00 -5.470188339121666132e+00 3.480000000000000000e+02
-2.212630921745580626e+00 -4.056769669571927750e+00 3.480000000000000000e+02
-2.165221380846663379e+00 -2.643351000022188479e+00 3.480000000000000000e+02
-2.117811839947746577e+00 -1.229932330472449653e+00 3.480000000000000000e+02
-2.070402299048829775e+00 1.834863390772893954e-01 3.480000000000000000e+02
-2.022992758149912973e+00 1.596905008627028444e+00 3.480000000000000000e+02
-1.975583217250995949e+00 3.010323678176767714e+00 3.480000000000000000e+02
-1.928173676352078925e+00 4.423742347726506097e+00 3.480000000000000000e+02
-1.880764135453162123e+00 5.837161017276245367e+00 3.480000000000000000e+02
-2.307450003543414230e+00 -6.883607008671405403e+00 3.490000000000000000e+02
-2.260040462644497872e+00 -5.470188339121666132e+00 3.490000000000000000e+02
-2.212630921745580626e+00 -4.056769669571927750e+00 3.490000000000000000e+02
-2.165221380846663379e+00 -2.643351000022188479e+00 3.490000000000000000e+02
-2.117811839947746577e+00 -1.229932330472449653e+00 3.490000000000000000e+02
-2.070402299048829775e+00 1.834863390772893954e-01 3.490000000000000000e+02
-2.022992758149912973e+00 1.596905008627028444e+00 3.490000000000000000e+02
-1.975583217250995949e+00 3.010323678176767714e+00 3.490000000000000000e+02
-1.928173676352078925e+00 4.423742347726506097e+00 3.490000000000000000e+02
-1.880764135453162123e+00 5.837161017276245367e+00 3.490000000000000000e+02
-3.037864108767742266e+00 -7.566611572996816193e+00 3.500000000000000000e+02
-2.990454567868825464e+00 -6.153192903447077811e+00 3.500000000000000000e+02
-2.943045026969908662e+00 -4.739774233897338540e+00 3.500000000000000000e+02
-2.895635486070991416e+00 -3.326355564347599714e+00 3.500000000000000000e+02
-2.848225945172074614e+00 -1.912936894797860665e+00 3.500000000000000000e+02
-2.800816404273157811e+00 -4.995182252481217278e-01 3.500000000000000000e+02
-2.753406863374240565e+00 9.139004443016172097e-01 3.500000000000000000e+02
-2.705997322475323763e+00 2.327319113851356036e+00 3.500000000000000000e+02
-2.658587781576406961e+00 3.740737783401095307e+00 3.500000000000000000e+02
-2.611178240677490159e+00 5.154156452950834577e+00 3.500000000000000000e+02
-2.563768699778572913e+00 6.567575122500572959e+00 3.500000000000000000e+02
-3.037864108767742266e+00 -7.566611572996816193e+00 3.510000000000000000e+02
-2.990454567868825464e+00 -6.153192903447077811e+00 3.510000000000000000e+02
-2.943045026969908662e+00 -4.739774233897338540e+00 3.510000000000000000e+02
-2.895635486070991416e+00 -3.326355564347599714e+00 3.510000000000000000e+02
-2.848225945172074614e+00 -1.912936894797860665e+00 3.510000000000000000e+02
-2.800816404273157811e+00 -4.995182252481217278e-01 3.510000000000000000e+02
-2.753406863374240565e+00 9.139004443016172097e-01 3.510000000000000000e+02
-2.705997322475323763e+00 2.327319113851356036e+00 3.510000000000000000e+02
-2.658587781576406961e+00 3.740737783401095307e+00 3.510000000000000000e+02
-2.611178240677490159e+00 5.154156452950834577e+00 3.510000000000000000e+02
-2.563768699778572913e+00 6.567575122500572959e+00 3.510000000000000000e+02
-3.037864108767742266e+00 -7.566611572996816193e+00 3.520000000000000000e+02
-2.990454567868825464e+00 -6.153192903447077811e+00 3.520000000000000000e+02
-2.943045026969908662e+00 -4.739774233897338540e+00 3.520000000000000000e+02
-2.895635486070991416e+00 -3.326355564347599714e+00 3.520000000000000000e+02
-2.848225945172074614e+00 -1.912936894797860665e+00 3.520000000000000000e+02
-2.800816404273157811e+00 -4.995182252481217278e-01 3.520000000000000000e+02
-2.753406863374240565e+00 9.139004443016172097e-01 3.520000000000000000e+02
-2.705997322475323763e+00 2.327319113851356036e+00 3.520000000000000000e+02
-2.658587781576406961e+00 3.740737783401095307e+00 3.520000000000000000e+02
-2.611178240677490159e+00 5.154156452950834577e+00 3.520000000000000000e+02
-2.563768699778572913e+00 6.567575122500572959e+00 3.520000000000000000e+02
-3.037864108767742266e+00 -7.566611572996816193e+00 3.530000000000000000e+02
-2.990454567868825464e+00 -6.153192903447077811e+00 3.530000000000000000e+02
-2.943045026969908662e+00 -4.739774233897338540e+00 3.530000000000000000e+02
-2.895635486070991416e+00 -3.326355564347599714e+00 3.530000000000000000e+02
-2.848225945172074614e+00 -1.912936894797860665e+00 3.530000000000000000e+02
-2.800816404273157811e+00 -4.995182252481217278e-01 3.530000000000000000e+02
-2.753406863374240565e+00 9.139004443016172097e-01 3.530000000000000000e+02
-2.705997322475323763e+00 2.327319113851356036e+00 3.530000000000000000e+02
-2.658587781576406961e+00 3.740737783401095307e+00 3.530000000000000000e+02
-2.611178240677490159e+00 5.154156452950834577e+00 3.530000000000000000e+02
-2.563768699778572913e+00 6.567575122500572959e+00 3.530000000000000000e+02
-3.037864108767742266e+00 -7.566611572996816193e+00 3.540000000000000000e+02
-2.990454567868825464e+00 -6.153192903447077811e+00 3.540000000000000000e+02
-2.943045026969908662e+00 -4.739774233897338540e+00 3.540000000000000000e+02
-2.895635486070991416e+00 -3.326355564347599714e+00 3.540000000000000000e+02
-2.848225945172074614e+00 -1.912936894797860665e+00 3.540000000000000000e+02
-2.800816404273157811e+00 -4.995182252481217278e-01 3.540000000000000000e+02
-2.753406863374240565e+00 9.139004443016172097e-01 3.540000000000000000e+02
-2.705997322475323763e+00 2.327319113851356036e+00 3.540000000000000000e+02
-2.658587781576406961e+00 3.740737783401095307e+00 3.540000000000000000e+02
-2.611178240677490159e+00 5.154156452950834577e+00 3.540000000000000000e+02
-2.563768699778572913e+00 6.567575122500572959e+00 3.540000000000000000e+02
-2.307450003543414230e+00 -6.883607008671405403e+00 3.550000000000000000e+02
-2.260040462644497872e+00 -5.470188339121666132e+00 3.550000000000000000e+02
-2.212630921745580626e+00 -4.056769669571927750e+00 3.550000000000000000e+02
-2.165221380846663379e+00 -2.643351000022188479e+00 3.550000000000000000e+02
-2.117811839947746577e+00 -1.229932330472449653e+00 3.550000000000000000e+02
-2.070402299048829775e+00 1.834863390772893954e-01 3.550000000000000000e+02
-2.022992758149912973e+00 1.596905008627028444e+00 3.550000000000000000e+02
-1.975583217250995949e+00 3.010323678176767714e+00 3.550000000000000000e+02
-1.928173676352078925e+00 4.423742347726506097e+00 3.550000000000000000e+02
-1.880764135453162123e+00 5.837161017276245367e+00 3.550000000000000000e+02
-2.307450003543414230e+00 -6.883607008671405403e+00 3.560000000000000000e+02
-2.260040462644497872e+00 -5.470188339121666132e+00 3.560000000000000000e+02
-2.212630921745580626e+00 -4.056769669571927750e+00 3.560000000000000000e+02
-2.165221380846663379e+00 -2.643351000022188479e+00 3.560000000000000000e+02
-2.117811839947746577e+00 -1.229932330472449653e+00 3.560000000000000000e+02
-2.070402299048829775e+00 1.834863390772893954e-01 3.560000000000000000e+02
-2.022992758149912973e+00 1.596905008627028444e+00 3.560000000000000000e+02
-1.975583217250995949e+00 3.010323678176767714e+00 3.560000000000000000e+02
-1.928173676352078925e+00 4.423742347726506097e+00 3.560000000000000000e+02
-1.880764135453162123e+00 5.837161017276245367e+00 3.560000000000000000e+02
-2.307450003543414230e+00 -6.883607008671405403e+00 3.570000000000000000e+02
-2.260040462644497872e+00 -5.470188339121666132e+00 3.570000000000000000e+02
-2.212630921745580626e+00 -4.056769669571927750e+00 3.570000000000000000e+02
-2.165221380846663379e+00 -2.643351000022188479e+00 3.570000000000000000e+02
-2.117811839947746577e+00 -1.229932330472449653e+00 3.570000000000000000e+02
-2.070402299048829775e+00 1.834863390772893954e-01 3.570000000000000000e+02
-2.022992758149912973e+00 1.596905008627028444e+00 3.570000000000000000e+02
-1.975583217250995949e+00 3.010323678176767714e+00 3.570000000000000000e+02
-1.928173676352078925e+00 4.423742347726506097e+00 3.570000000000000000e+02
-1.880764135453162123e+00 5.837161017276245367e+00 3.570000000000000000e+02
-2.307450003543414230e+00 -6.883607008671405403e+00 3.580000000000000000e+02
-2.260040462644497872e+00 -5.470188339121666132e+00 3.580000000000000000e+02
-2.212630921745580626e+00 -4.056769669571927750e+00 3.580000000000000000e+02
-2.165221380846663379e+00 -2.643351000022188479e+00 3.580000000000000000e+02
-2.117811839947746577e+00 -1.229932330472449653e+00 3.580000000000000000e+02
-2.070402299048829775e+00 1.834863390772893954e-01 3.580000000000000000e+02
-2.022992758149912973e+00 1.596905008627028444e+00 3.580000000000000000e+02
-1.975583217250995949e+00 3.010323678176767714e+00 3.580000000000000000e+02
-1.928173676352078925e+00 4.423742347726506097e+00 3.580000000000000000e+02
-1.880764135453162123e+00 5.837161017276245367e+00 3.580000000000000000e+02
-2.307450003543414230e+00 -6.883607008671405403e+00 3.590000000000000000e+02
-2.260040462644497872e+00 -5.470188339121666132e+00 3.590000000000000000e+02
-2.212630921745580626e+00 -4.056769669571927750e+00 3.590000000000000000e+02
-2.165221380846663379e+00 -2.643351000022188479e+00 3.590000000000000000e+02
-2.117811839947746577e+00 -1.229932330472449653e+00 3.590000000000000000e+02
-2.070402299048829775e+00 1.834863390772893954e-01 3.590000000000000000e+02
-2.022992758149912973e+00 1.596905008627028444e+00 3.590000000000000000e+02
-1.975583217250995949e+00 3.010323678176767714e+00 3.590000000000000000e+02
-1.928173676352078925e+00 4.423742347726506097e+00 3.590000000000000000e+02
-1.880764135453162123e+00 5.837161017276245367e+00 3.590000000000000000e+02
-3.037864108767742266e+00 -7.566611572996816193e+00 3.600000000000000000e+02
-2.990454567868825464e+00 -6.153192903447077811e+00 3.600000000000000000e+02
-2.943045026969908662e+00 -4.739774233897338540e+00 3.600000000000000000e+02
-2.895635486070991416e+00 -3.326355564347599714e+00 3.600000000000000000e+02
-2.848225945172074614e+00 -1.912936894797860665e+00 3.600000000000000000e+02
-2.800816404273157811e+00 -4.995182252481217278e-01 3.600000000000000000e+02
-2.753406863374240565e+00 9.139004443016172097e-01 3.600000000000000000e+02
-2.705997322475323763e+00 2.327319113851356036e+00 3.600000000000000000e+02
-2.658587781576406961e+00 3.740737783401095307e+00 3.600000000000000000e+02
-2.611178240677490159e+00 5.154156452950834577e+00 3.600000000000000000e+02
-2.563768699778572913e+00 6.567575122500572959e+00 3.600000000000000000e+02
-3.037864108767742266e+00 -7.566611572996816193e+00 3.610000000000000000e+02
-2.990454567868825464e+00 -6.153192903447077811e+00 3.610000000000000000e+02
-2.943045026969908662e+00 -4.739774233897338540e+00 3.610000000000000000e+02
-2.895635486070991416e+00 -3.326355564347599714e+00 3.610000000000000000e+02
-2.848225945172074614e+00 -1.912936894797860665e+00 3.610000000000000000e+02
-2.800816404273157811e+00 -4.995182252481217278e-01 3.610000000000000000e+02
-2.753406863374240565e+00 9.139004443016172097e-01 3.610000000000000000e+02
-2.705997322475323763e+00 2.327319113851356036e+00 3.610000000000000000e+02
-2.658587781576406961e+00 3.740737783401095307e+00 3.610000000000000000e+02
-2.611178240677490159e+00 5.154156452950834577e+00 3.610000000000000000e+02
-3.037864108767742266e+00 -7.566611572996816193e+00 3.620000000000000000e+02
-2.990454567868825464e+00 -6.153192903447077811e+00 3.620000000000000000e+02
-2.943045026969908662e+00 -4.739774233897338540e+00 3.620000000000000000e+02
-2.895635486070991416e+00 -3.326355564347599714e+00 3.620000000000000000e+02
-2.848225945172074614e+00 -1.912936894797860665e+00 3.620000000000000000e+02
-2.800816404273157811e+00 -4.995182252481217278e-01 3.620000000000000000e+02
-2.753406863374240565e+00 9.139004443016172097e-01 3.620000000000000000e+02
-2.705997322475323763e+00 2.327319113851356036e+00 3.620000000000000000e+02
-2.658587781576406961e+00 3.740737783401095307e+00 3.620000000000000000e+02
-2.611178240677490159e+00 5.154156452950834577e+00 3.620000000000000000e+02
-2.563768699778572913e+00 6.567575122500572959e+00 3.620000000000000000e+02
-3.037864108767742266e+00 -7.566611572996816193e+00 3.630000000000000000e+02
-2.990454567868825464e+00 -6.153192903447077811e+00 3.630000000000000000e+02
-2.943045026969908662e+00 -4.739774233897338540e+00 3.630000000000000000e+02
-2.895635486070991416e+00 -3.326355564347599714e+00 3.630000000000000000e+02
-2.848225945172074614e+00 -1.912936894797860665e+00 3.630000000000000000e+02
-2.800816404273157811e+00 -4.995182252481217278e-01 3.630000000000000000e+02
-2.753406863374240565e+00 9.139004443016172097e-01 3.630000000000000000e+02
-2.705997322475323763e+00 2.327319113851356036e+00 3.630000000000000000e+02
-2.658587781576406961e+00 3.740737783401095307e+00 3.630000000000000000e+02
-2.611178240677490159e+00 5.154156452950834577e+00 3.630000000000000000e+02
-2.563768699778572913e+00 6.567575122500572959e+00 3.630000000000000000e+02
-3.037864108767742266e+00 -7.566611572996816193e+00 3.640000000000000000e+02
-2.990454567868825464e+00 -6.153192903447077811e+00 3.640000000000000000e+02
-2.943045026969908662e+00 -4.739774233897338540e+00 3.640000000000000000e+02
-2.895635486070991416e+00 -3.326355564347599714e+00 3.640000000000000000e+02
-2.848225945172074614e+00 -1.912936894797860665e+00 3.640000000000000000e+02
-2.800816404273157811e+00 -4.995182252481217278e-01 3.640000000000000000e+02
-2.753406863374240565e+00 9.139004443016172097e-01 3.640000000000000000e+02
-2.705997322475323763e+00 2.327319113851356036e+00 3.640000000000000000e+02
-2.658587781576406961e+00 3.740737783401095307e+00 3.640000000000000000e+02
-2.611178240677490159e+00 5.154156452950834577e+00 3.640000000000000000e+02
-2.563768699778572913e+00 6.567575122500572959e+00 3.640000000000000000e+02
-2.307450003543414230e+00 -6.883607008671405403e+00 3.650000000000000000e+02
-2.260040462644497872e+00 -5.470188339121666132e+00 3.650000000000000000e+02
-2.212630921745580626e+00 -4.056769669571927750e+00 3.650000000000000000e+02
-2.165221380846663379e+00 -2.643351000022188479e+00 3.650000000000000000e+02
-2.117811839947746577e+00 -1.229932330472449653e+00 3.650000000000000000e+02
-2.070402299048829775e+00 1.834863390772893954e-01 3.650000000000000000e+02
-2.022992758149912973e+00 1.596905008627028444e+00 3.650000000000000000e+02
-1.975583217250995949e+00 3.010323678176767714e+00 3.650000000000000000e+02
-1.928173676352078925e+00 4.423742347726506097e+00 3.650000000000000000e+02
-1.880764135453162123e+00 5.837161017276245367e+00 3.650000000000000000e+02
-2.307450003543414230e+00 -6.883607008671405403e+00 3.660000000000000000e+02
-2.260040462644497872e+00 -5.470188339121666132e+00 3.660000000000000000e+02
-2.212630921745580626e+00 -4.056769669571927750e+00 3.660000000000000000e+02
-2.165221380846663379e+00 -2.643351000022188479e+00 3.660000000000000000e+02
-2.117811839947746577e+00 -1.229932330472449653e+00 3.660000000000000000e+02
-2.070402299048829775e+00 1.834863390772893954e-01 3.660000000000000000e+02
-2.022992758149912973e+00 1.596905008627028444e+00 3.660000000000000000e+02
-1.975583217250995949e+00 3.010323678176767714e+00 3.660000000000000000e+02
-1.928173676352078925e+00 4.423742347726506097e+00 3.660000000000000000e+02
-1.880764135453162123e+00 5.837161017276245367e+00 3.660000000000000000e+02
-2.307450003543414230e+00 -6.883607008671405403e+00 3.670000000000000000e+02
-2.260040462644497872e+00 -5.470188339121666132e+00 3.670000000000000000e+02
-2.212630921745580626e+00 -4.056769669571927750e+00 3.670000000000000000e+02
-2.165221380846663379e+00 -2.643351000022188479e+00 3.670000000000000000e+02
-2.117811839947746577e+00 -1.229932330472449653e+00 3.670000000000000000e+02
-2.070402299048829775e+00 1.834863390772893954e-01 3.670000000000000000e+02
-2.022992758149912973e+00 1.596905008627028444e+00 3.670000000000000000e+02
-1.975583217250995949e+00 3.010323678176767714e+00 3.670000000000000000e+02
-1.928173676352078925e+00 4.423742347726506097e+00 3.670000000000000000e+02
-1.880764135453162123e+00 5.837161017276245367e+00 3.670000000000000000e+02
-2.307450003543414230e+00 -6.883607008671405403e+00 3.680000000000000000e+02
-2.260040462644497872e+00 -5.470188339121666132e+00 3.680000000000000000e+02
-2.212630921745580626e+00 -4.056769669571927750e+00 3.680000000000000000e+02
-2.165221380846663379e+00 -2.643351000022188479e+00 3.680000000000000000e+02
-2.117811839947746577e+00 -1.229932330472449653e+00 3.680000000000000000e+02
-2.070402299048829775e+00 1.834863390772893954e-01 3.680000000000000000e+02
-2.022992758149912973e+00 1.596905008627028444e+00 3.680000000000000000e+02
-1.975583217250995949e+00 3.010323678176767714e+00 3.680000000000000000e+02
-1.928173676352078925e+00 4.423742347726506097e+00 3.680000000000000000e+02
-1.880764135453162123e+00 5.837161017276245367e+00 3.680000000000000000e+02
-2.307450003543414230e+00 -6.883607008671405403e+00 3.690000000000000000e+02
-2.260040462644497872e+00 -5.470188339121666132e+00 3.690000000000000000e+02
-2.212630921745580626e+00 -4.056769669571927750e+00 3.690000000000000000e+02
-2.165221380846663379e+00 -2.643351000022188479e+00 3.690000000000000000e+02
-2.117811839947746577e+00 -1.229932330472449653e+00 3.690000000000000000e+02
-2.070402299048829775e+00 1.834863390772893954e-01 3.690000000000000000e+02
-2.022992758149912973e+00 1.596905008627028444e+00 3.690000000000000000e+02
-1.975583217250995949e+00 3.010323678176767714e+00 3.690000000000000000e+02
-1.928173676352078925e+00 4.423742347726506097e+00 3.690000000000000000e+02
-1.880764135453162123e+00 5.837161017276245367e+00 3.690000000000000000e+02
-2.307450003543414230e+00 -6.883607008671405403e+00 3.700000000000000000e+02
-2.260040462644497872e+00 -5.470188339121666132e+00 3.700000000000000000e+02
-2.212630921745580626e+00 -4.056769669571927750e+00 3.700000000000000000e+02
-2.165221380846663379e+00 -2.643351000022188479e+00 3.700000000000000000e+02
-2.117811839947746577e+00 -1.229932330472449653e+00 3.700000000000000000e+02
-2.070402299048829775e+00 1.834863390772893954e-01 3.700000000000000000e+02
-2.022992758149912973e+00 1.596905008627028444e+00 3.700000000000000000e+02
-1.975583217250995949e+00 3.010323678176767714e+00 3.700000000000000000e+02
-1.928173676352078925e+00 4.423742347726506097e+00 3.700000000000000000e+02
-1.880764135453162123e+00 5.837161017276245367e+00 3.700000000000000000e+02
-2.307450003543414230e+00 -6.883607008671405403e+00 3.710000000000000000e+02
-2.260040462644497872e+00 -5.470188339121666132e+00 3.710000000000000000e+02
-2.212630921745580626e+00 -4.056769669571927750e+00 3.710000000000000000e+02
-2.165221380846663379e+00 -2.643351000022188479e+00 3.710000000000000000e+02
-2.117811839947746577e+00 -1.229932330472449653e+00 3.710000000000000000e+02
-2.070402299048829775e+00 1.834863390772893954e-01 3.710000000000000000e+02
-2.022992758149912973e+00 1.596905008627028444e+00 3.710000000000000000e+02
-1.975583217250995949e+00 3.010323678176767714e+00 3.710000000000000000e+02
-1.928173676352078925e+00 4.423742347726506097e+00 3.710000000000000000e+02
-1.880764135453162123e+00 5.837161017276245367e+00 3.710000000000000000e+02
-2.307450003543414230e+00 -6.883607008671405403e+00 3.720000000000000000e+02
-2.260040462644497872e+00 -5.470188339121666132e+00 3.720000000000000000e+02
-2.212630921745580626e+00 -4.056769669571927750e+00 3.720000000000000000e+02
-2.165221380846663379e+00 -2.643351000022188479e+00 3.720000000000000000e+02
-2.117811839947746577e+00 -1.229932330472449653e+00 3.720000000000000000e+02
-2.070402299048829775e+00 1.834863390772893954e-01 3.720000000000000000e+02
-2.022992758149912973e+00 1.596905008627028444e+00 3.720000000000000000e+02
-1.975583217250995949e+00 3.010323678176767714e+00 3.720000000000000000e+02
-1.928173676352078925e+00 4.423742347726506097e+00 3.720000000000000000e+02
-1.880764135453162123e+00 5.837161017276245367e+00 3.720000000000000000e+02
-2.307450003543414230e+00 -6.883607008671405403e+00 3.730000000000000000e+02
-2.260040462644497872e+00 -5.470188339121666132e+00 3.730000000000000000e+02
-2.212630921745580626e+00 -4.056769669571927750e+00 3.730000000000000000e+02
-2.165221380846663379e+00 -2.643351000022188479e+00 3.730000000000000000e+02
-2.117811839947746577e+00 -1.229932330472449653e+00 3.730000000000000000e+02
-2.070402299048829775e+00 1.834863390772893954e-01 3.730000000000000000e+02
-2.022992758149912973e+00 1.596905008627028444e+00 3.730000000000000000e+02
-1.975583217250995949e+00 3.010323678176767714e+00 3.730000000000000000e+02
-1.928173676352078925e+00 4.423742347726506097e+00 3.730000000000000000e+02
-1.880764135453162123e+00 5.837161017276245367e+00 3.730000000000000000e+02
-3.037864108767742266e+00 -7.566611572996816193e+00 3.740000000000000000e+02
-2.990454567868825464e+00 -6.153192903447077811e+00 3.740000000000000000e+02
-2.943045026969908662e+00 -4.739774233897338540e+00 3.740000000000000000e+02
-2.895635486070991416e+00 -3.326355564347599714e+00 3.740000000000000000e+02
-2.848225945172074614e+00 -1.912936894797860665e+00 3.740000000000000000e+02
-2.800816404273157811e+00 -4.995182252481217278e-01 3.740000000000000000e+02
-2.753406863374240565e+00 9.139004443016172097e-01 3.740000000000000000e+02
-2.705997322475323763e+00 2.327319113851356036e+00 3.740000000000000000e+02
-2.658587781576406961e+00 3.740737783401095307e+00 3.740000000000000000e+02
-2.611178240677490159e+00 5.154156452950834577e+00 3.740000000000000000e+02
-2.563768699778572913e+00 6.567575122500572959e+00 3.740000000000000000e+02
-3.037864108767742266e+00 -7.566611572996816193e+00 3.750000000000000000e+02
-2.990454567868825464e+00 -6.153192903447077811e+00 3.750000000000000000e+02
-2.943045026969908662e+00 -4.739774233897338540e+00 3.750000000000000000e+02
-2.895635486070991416e+00 -3.326355564347599714e+00 3.750000000000000000e+02
-2.848225945172074614e+00 -1.912936894797860665e+00 3.750000000000000000e+02
-2.800816404273157811e+00 -4.995182252481217278e-01 3.750000000000000000e+02
-2.753406863374240565e+00 9.139004443016172097e-01 3.750000000000000000e+02
-2.705997322475323763e+00 2.327319113851356036e+00 3.750000000000000000e+02
-2.658587781576406961e+00 3.740737783401095307e+00 3.750000000000000000e+02
-2.611178240677490159e+00 5.154156452950834577e+00 3.750000000000000000e+02
-2.563768699778572913e+00 6.567575122500572959e+00 3.750000000000000000e+02
-3.037864108767742266e+00 -7.566611572996816193e+00 3.760000000000000000e+02
-2.990454567868825464e+00 -6.153192903447077811e+00 3.760000000000000000e+02
-2.943045026969908662e+00 -4.739774233897338540e+00 3.760000000000000000e+02
-2.895635486070991416e+00 -3.326355564347599714e+00 3.760000000000000000e+02
-2.848225945172074614e+00 -1.912936894797860665e+00 3.760000000000000000e+02
-2.800816404273157811e+00 -4.995182252481217278e-01 3.760000000000000000e+02
-2.753406863374240565e+00 9.139004443016172097e-01 3.760000000000000000e+02
-2.705997322475323763e+00 2.327319113851356036e+00 3.760000000000000000e+02
-2.658587781576406961e+00 3.740737783401095307e+00 3.760000000000000000e+02
-2.611178240677490159e+00 5.154156452950834577e+00 3.760000000000000000e+02
-2.307450003543414230e+00 -6.883607008671405403e+00 3.770000000000000000e+02
-2.260040462644497872e+00 -5.470188339121666132e+00 3.770000000000000000e+02
-2.212630921745580626e+00 -4.056769669571927750e+00 3.770000000000000000e+02
-2.165221380846663379e+00 -2.643351000022188479e+00 3.770000000000000000e+02
-2.117811839947746577e+00 -1.229932330472449653e+00 3.770000000000000000e+02
-2.070402299048829775e+00 1.834863390772893954e-01 3.770000000000000000e+02
-2.022992758149912973e+00 1.596905008627028444e+00 3.770000000000000000e+02
-1.975583217250995949e+00 3.010323678176767714e+00 3.770000000000000000e+02
-1.928173676352078925e+00 4.423742347726506097e+00 3.770000000000000000e+02
-2.307450003543414230e+00 -6.883607008671405403e+00 3.780000000000000000e+02
-2.260040462644497872e+00 -5.470188339121666132e+00 3.780000000000000000e+02
-2.212630921745580626e+00 -4.056769669571927750e+00 3.780000000000000000e+02
-2.165221380846663379e+00 -2.643351000022188479e+00 3.780000000000000000e+02
-2.117811839947746577e+00 -1.229932330472449653e+00 3.780000000000000000e+02
-2.070402299048829775e+00 1.834863390772893954e-01 3.780000000000000000e+02
-2.022992758149912973e+00 1.596905008627028444e+00 3.780000000000000000e+02
-1.975583217250995949e+00 3.010323678176767714e+00 3.780000000000000000e+02
-1.928173676352078925e+00 4.423742347726506097e+00 3.780000000000000000e+02
-1.880764135453162123e+00 5.837161017276245367e+00 3.780000000000000000e+02
-2.307450003543414230e+00 -6.883607008671405403e+00 3.790000000000000000e+02
-2.260040462644497872e+00 -5.470188339121666132e+00 3.790000000000000000e+02
-2.212630921745580626e+00 -4.056769669571927750e+00 3.790000000000000000e+02
-2.165221380846663379e+00 -2.643351000022188479e+00 3.790000000000000000e+02
-2.117811839947746577e+00 -1.229932330472449653e+00 3.790000000000000000e+02
-2.070402299048829775e+00 1.834863390772893954e-01 3.790000000000000000e+02
-2.022992758149912973e+00 1.596905008627028444e+00 3.790000000000000000e+02
-1.975583217250995949e+00 3.010323678176767714e+00 3.790000000000000000e+02
-1.928173676352078925e+00 4.423742347726506097e+00 3.790000000000000000e+02
-1.880764135453162123e+00 5.837161017276245367e+00 3.790000000000000000e+02
-3.037864108767742266e+00 -7.566611572996816193e+00 3.800000000000000000e+02
-2.990454567868825464e+00 -6.153192903447077811e+00 3.800000000000000000e+02
-2.943045026969908662e+00 -4.739774233897338540e+00 3.800000000000000000e+02
-2.895635486070991416e+00 -3.326355564347599714e+00 3.800000000000000000e+02
-2.848225945172074614e+00 -1.912936894797860665e+00 3.800000000000000000e+02
-2.800816404273157811e+00 -4.995182252481217278e-01 3.800000000000000000e+02
-2.753406863374240565e+00 9.139004443016172097e-01 3.800000000000000000e+02
-2.705997322475323763e+00 2.327319113851356036e+00 3.800000000000000000e+02
-2.658587781576406961e+00 3.740737783401095307e+00 3.800000000000000000e+02
-2.611178240677490159e+00 5.154156452950834577e+00 3.800000000000000000e+02
-2.563768699778572913e+00 6.567575122500572959e+00 3.800000000000000000e+02
-3.037864108767742266e+00 -7.566611572996816193e+00 3.810000000000000000e+02
-2.990454567868825464e+00 -6.153192903447077811e+00 3.810000000000000000e+02
-2.943045026969908662e+00 -4.739774233897338540e+00 3.810000000000000000e+02
-2.895635486070991416e+00 -3.326355564347599714e+00 3.810000000000000000e+02
-2.848225945172074614e+00 -1.912936894797860665e+00 3.810000000000000000e+02
-2.800816404273157811e+00 -4.995182252481217278e-01 3.810000000000000000e+02
-2.753406863374240565e+00 9.139004443016172097e-01 3.810000000000000000e+02
-2.705997322475323763e+00 2.327319113851356036e+00 3.810000000000000000e+02
-2.658587781576406961e+00 3.740737783401095307e+00 3.810000000000000000e+02
-2.611178240677490159e+00 5.154156452950834577e+00 3.810000000000000000e+02
-2.563768699778572913e+00 6.567575122500572959e+00 3.810000000000000000e+02
-3.037864108767742266e+00 -7.566611572996816193e+00 3.820000000000000000e+02
-2.990454567868825464e+00 -6.153192903447077811e+00 3.820000000000000000e+02
-2.943045026969908662e+00 -4.739774233897338540e+00 3.820000000000000000e+02
-2.895635486070991416e+00 -3.326355564347599714e+00 3.820000000000000000e+02
-2.848225945172074614e+00 -1.912936894797860665e+00 3.820000000000000000e+02
-2.800816404273157811e+00 -4.995182252481217278e-01 3.820000000000000000e+02
-2.753406863374240565e+00 9.139004443016172097e-01 3.820000000000000000e+02
-2.705997322475323763e+00 2.327319113851356036e+00 3.820000000000000000e+02
-2.658587781576406961e+00 3.740737783401095307e+00 3.820000000000000000e+02
-2.611178240677490159e+00 5.154156452950834577e+00 3.820000000000000000e+02
-2.563768699778572913e+00 6.567575122500572959e+00 3.820000000000000000e+02
-3.037864108767742266e+00 -7.566611572996816193e+00 3.830000000000000000e+02
-2.990454567868825464e+00 -6.153192903447077811e+00 3.830000000000000000e+02
-2.943045026969908662e+00 -4.739774233897338540e+00 3.830000000000000000e+02
-2.895635486070991416e+00 -3.326355564347599714e+00 3.830000000000000000e+02
-2.848225945172074614e+00 -1.912936894797860665e+00 3.830000000000000000e+02
-2.800816404273157811e+00 -4.995182252481217278e-01 3.830000000000000000e+02
-2.753406863374240565e+00 9.139004443016172097e-01 3.830000000000000000e+02
-2.705997322475323763e+00 2.327319113851356036e+00 3.830000000000000000e+02
-2.658587781576406961e+00 3.740737783401095307e+00 3.830000000000000000e+02
-2.611178240677490159e+00 5.154156452950834577e+00 3.830000000000000000e+02
-2.563768699778572913e+00 6.567575122500572959e+00 3.830000000000000000e+02
-2.307450003543414230e+00 -6.883607008671405403e+00 3.840000000000000000e+02
-2.260040462644497872e+00 -5.470188339121666132e+00 3.840000000000000000e+02
-2.212630921745580626e+00 -4.056769669571927750e+00 3.840000000000000000e+02
-2.165221380846663379e+00 -2.643351000022188479e+00 3.840000000000000000e+02
-2.117811839947746577e+00 -1.229932330472449653e+00 3.840000000000000000e+02
-2.070402299048829775e+00 1.834863390772893954e-01 3.840000000000000000e+02
-2.022992758149912973e+00 1.596905008627028444e+00 3.840000000000000000e+02
-1.975583217250995949e+00 3.010323678176767714e+00 3.840000000000000000e+02
-1.928173676352078925e+00 4.423742347726506097e+00 3.840000000000000000e+02
-1.880764135453162123e+00 5.837161017276245367e+00 3.840000000000000000e+02
-2.307450003543414230e+00 -6.883607008671405403e+00 3.850000000000000000e+02
-2.260040462644497872e+00 -5.470188339121666132e+00 3.850000000000000000e+02
-2.212630921745580626e+00 -4.056769669571927750e+00 3.850000000000000000e+02
-2.165221380846663379e+00 -2.643351000022188479e+00 3.850000000000000000e+02
-2.117811839947746577e+00 -1.229932330472449653e+00 3.850000000000000000e+02
-2.070402299048829775e+00 1.834863390772893954e-01 3.850000000000000000e+02
-2.022992758149912973e+00 1.596905008627028444e+00 3.850000000000000000e+02
-1.975583217250995949e+00 3.010323678176767714e+00 3.850000000000000000e+02
-1.928173676352078925e+00 4.423742347726506097e+00 3.850000000000000000e+02
-2.307450003543414230e+00 -6.883607008671405403e+00 3.860000000000000000e+02
-2.260040462644497872e+00 -5.470188339121666132e+00 3.860000000000000000e+02
-2.212630921745580626e+00 -4.056769669571927750e+00 3.860000000000000000e+02
-2.165221380846663379e+00 -2.643351000022188479e+00 3.860000000000000000e+02
-2.117811839947746577e+00 -1.229932330472449653e+00 3.860000000000000000e+02
-2.070402299048829775e+00 1.834863390772893954e-01 3.860000000000000000e+02
-2.022992758149912973e+00 1.596905008627028444e+00 3.860000000000000000e+02
-1.975583217250995949e+00 3.010323678176767714e+00 3.860000000000000000e+02
-1.928173676352078925e+00 4.423742347726506097e+00 3.860000000000000000e+02
-2.307450003543414230e+00 -6.883607008671405403e+00 3.870000000000000000e+02
-2.260040462644497872e+00 -5.470188339121666132e+00 3.870000000000000000e+02
-2.212630921745580626e+00 -4.056769669571927750e+00 3.870000000000000000e+02
-2.165221380846663379e+00 -2.643351000022188479e+00 3.870000000000000000e+02
-2.117811839947746577e+00 -1.229932330472449653e+00 3.870000000000000000e+02
-2.070402299048829775e+00 1.834863390772893954e-01 3.870000000000000000e+02
-2.022992758149912973e+00 1.596905008627028444e+00 3.870000000000000000e+02
-1.975583217250995949e+00 3.010323678176767714e+00 3.870000000000000000e+02
-1.928173676352078925e+00 4.423742347726506097e+00 3.870000000000000000e+02
-2.307450003543414230e+00 -6.883607008671405403e+00 3.880000000000000000e+02
-2.260040462644497872e+00 -5.470188339121666132e+00 3.880000000000000000e+02
-2.212630921745580626e+00 -4.056769669571927750e+00 3.880000000000000000e+02
-2.165221380846663379e+00 -2.643351000022188479e+00 3.880000000000000000e+02
-2.117811839947746577e+00 -1.229932330472449653e+00 3.880000000000000000e+02
-2.070402299048829775e+00 1.834863390772893954e-01 3.880000000000000000e+02
-2.022992758149912973e+00 1.596905008627028444e+00 3.880000000000000000e+02
-1.975583217250995949e+00 3.010323678176767714e+00 3.880000000000000000e+02
-1.928173676352078925e+00 4.423742347726506097e+00 3.880000000000000000e+02
-2.307450003543414230e+00 -6.883607008671405403e+00 3.890000000000000000e+02
-2.260040462644497872e+00 -5.470188339121666132e+00 3.890000000000000000e+02
-2.212630921745580626e+00 -4.056769669571927750e+00 3.890000000000000000e+02
-2.165221380846663379e+00 -2.643351000022188479e+00 3.890000000000000000e+02
-2.117811839947746577e+00 -1.229932330472449653e+00 3.890000000000000000e+02
-2.070402299048829775e+00 1.834863390772893954e-01 3.890000000000000000e+02
-2.022992758149912973e+00 1.596905008627028444e+00 3.890000000000000000e+02
-1.975583217250995949e+00 3.010323678176767714e+00 3.890000000000000000e+02
-1.928173676352078925e+00 4.423742347726506097e+00 3.890000000000000000e+02
-3.037864108767742266e+00 -7.566611572996816193e+00 3.900000000000000000e+02
-2.990454567868825464e+00 -6.153192903447077811e+00 3.900000000000000000e+02
-2.943045026969908662e+00 -4.739774233897338540e+00 3.900000000000000000e+02
-2.895635486070991416e+00 -3.326355564347599714e+00 3.900000000000000000e+02
-2.848225945172074614e+00 -1.912936894797860665e+00 3.900000000000000000e+02
-2.800816404273157811e+00 -4.995182252481217278e-01 3.900000000000000000e+02
-2.753406863374240565e+00 9.139004443016172097e-01 3.900000000000000000e+02
-2.705997322475323763e+00 2.327319113851356036e+00 3.900000000000000000e+02
-2.658587781576406961e+00 3.740737783401095307e+00 3.900000000000000000e+02
-2.611178240677490159e+00 5.154156452950834577e+00 3.900000000000000000e+02
-3.037864108767742266e+00 -7.566611572996816193e+00 3.910000000000000000e+02
-2.990454567868825464e+00 -6.153192903447077811e+00 3.910000000000000000e+02
-2.943045026969908662e+00 -4.739774233897338540e+00 3.910000000000000000e+02
-2.895635486070991416e+00 -3.326355564347599714e+00 3.910000000000000000e+02
-2.848225945172074614e+00 -1.912936894797860665e+00 3.910000000000000000e+02
-2.800816404273157811e+00 -4.995182252481217278e-01 3.910000000000000000e+02
-2.753406863374240565e+00 9.139004443016172097e-01 3.910000000000000000e+02
-2.705997322475323763e+00 2.327319113851356036e+00 3.910000000000000000e+02
-2.658587781576406961e+00 3.740737783401095307e+00 3.910000000000000000e+02
-2.611178240677490159e+00 5.154156452950834577e+00 3.910000000000000000e+02
-3.037864108767742266e+00 -7.566611572996816193e+00 3.920000000000000000e+02
-2.990454567868825464e+00 -6.153192903447077811e+00 3.920000000000000000e+02
-2.943045026969908662e+00 -4.739774233897338540e+00 3.920000000000000000e+02
-2.895635486070991416e+00 -3.326355564347599714e+00 3.920000000000000000e+02
-2.848225945172074614e+00 -1.912936894797860665e+00 3.920000000000000000e+02
-2.800816404273157811e+00 -4.995182252481217278e-01 3.920000000000000000e+02
-2.753406863374240565e+00 9.139004443016172097e-01 3.920000000000000000e+02
-2.705997322475323763e+00 2.327319113851356036e+00 3.920000000000000000e+02
-2.658587781576406961e+00 3.740737783401095307e+00 3.920000000000000000e+02
-2.611178240677490159e+00 5.154156452950834577e+00 3.920000000000000000e+02
-3.037864108767742266e+00 -7.566611572996816193e+00 3.930000000000000000e+02
-2.990454567868825464e+00 -6.153192903447077811e+00 3.930000000000000000e+02
-2.943045026969908662e+00 -4.739774233897338540e+00 3.930000000000000000e+02
-2.895635486070991416e+00 -3.326355564347599714e+00 3.930000000000000000e+02
-2.848225945172074614e+00 -1.912936894797860665e+00 3.930000000000000000e+02
-2.800816404273157811e+00 -4.995182252481217278e-01 3.930000000000000000e+02
-2.753406863374240565e+00 9.139004443016172097e-01 3.930000000000000000e+02
-2.705997322475323763e+00 2.327319113851356036e+00 3.930000000000000000e+02
-2.658587781576406961e+00 3.740737783401095307e+00 3.930000000000000000e+02
-2.611178240677490159e+00 5.154156452950834577e+00 3.930000000000000000e+02
-3.037864108767742266e+00 -7.566611572996816193e+00 3.940000000000000000e+02
-2.990454567868825464e+00 -6.153192903447077811e+00 3.940000000000000000e+02
-2.943045026969908662e+00 -4.739774233897338540e+00 3.940000000000000000e+02
-2.895635486070991416e+00 -3.326355564347599714e+00 3.940000000000000000e+02
-2.848225945172074614e+00 -1.912936894797860665e+00 3.940000000000000000e+02
-2.800816404273157811e+00 -4.995182252481217278e-01 3.940000000000000000e+02
-2.753406863374240565e+00 9.139004443016172097e-01 3.940000000000000000e+02
-2.705997322475323763e+00 2.327319113851356036e+00 3.940000000000000000e+02
-2.658587781576406961e+00 3.740737783401095307e+00 3.940000000000000000e+02
-2.611178240677490159e+00 5.154156452950834577e+00 3.940000000000000000e+02
-3.037864108767742266e+00 -7.566611572996816193e+00 3.950000000000000000e+02
-2.990454567868825464e+00 -6.153192903447077811e+00 3.950000000000000000e+02
-2.943045026969908662e+00 -4.739774233897338540e+00 3.950000000000000000e+02
-2.895635486070991416e+00 -3.326355564347599714e+00 3.950000000000000000e+02
-2.848225945172074614e+00 -1.912936894797860665e+00 3.950000000000000000e+02
-2.800816404273157811e+00 -4.995182252481217278e-01 3.950000000000000000e+02
-2.753406863374240565e+00 9.139004443016172097e-01 3.950000000000000000e+02
-2.705997322475323763e+00 2.327319113851356036e+00 3.950000000000000000e+02
-2.658587781576406961e+00 3.740737783401095307e+00 3.950000000000000000e+02
-2.611178240677490159e+00 5.154156452950834577e+00 3.950000000000000000e+02
-3.037864108767742266e+00 -7.566611572996816193e+00 3.960000000000000000e+02
-2.990454567868825464e+00 -6.153192903447077811e+00 3.960000000000000000e+02
-2.943045026969908662e+00 -4.739774233897338540e+00 3.960000000000000000e+02
-2.895635486070991416e+00 -3.326355564347599714e+00 3.960000000000000000e+02
-2.848225945172074614e+00 -1.912936894797860665e+00 3.960000000000000000e+02
-2.800816404273157811e+00 -4.995182252481217278e-01 3.960000000000000000e+02
-2.753406863374240565e+00 9.139004443016172097e-01 3.960000000000000000e+02
-2.705997322475323763e+00 2.327319113851356036e+00 3.960000000000000000e+02
-2.658587781576406961e+00 3.740737783401095307e+00 3.960000000000000000e+02
-2.611178240677490159e+00 5.154156452950834577e+00 3.960000000000000000e+02
-3.037864108767742266e+00 -7.566611572996816193e+00 3.970000000000000000e+02
-2.990454567868825464e+00 -6.153192903447077811e+00 3.970000000000000000e+02
-2.943045026969908662e+00 -4.739774233897338540e+00 3.970000000000000000e+02
-2.895635486070991416e+00 -3.326355564347599714e+00 3.970000000000000000e+02
-2.848225945172074614e+00 -1.912936894797860665e+00 3.970000000000000000e+02
-2.800816404273157811e+00 -4.995182252481217278e-01 3.970000000000000000e+02
-2.753406863374240565e+00 9.139004443016172097e-01 3.970000000000000000e+02
-2.705997322475323763e+00 2.327319113851356036e+00 3.970000000000000000e+02
-2.658587781576406961e+00 3.740737783401095307e+00 3.970000000000000000e+02
-2.611178240677490159e+00 5.154156452950834577e+00 3.970000000000000000e+02
-3.037864108767742266e+00 -7.566611572996816193e+00 3.980000000000000000e+02
-2.990454567868825464e+00 -6.153192903447077811e+00 3.980000000000000000e+02
-2.943045026969908662e+00 -4.739774233897338540e+00 3.980000000000000000e+02
-2.895635486070991416e+00 -3.326355564347599714e+00 3.980000000000000000e+02
-2.848225945172074614e+00 -1.912936894797860665e+00 3.980000000000000000e+02
-2.800816404273157811e+00 -4.995182252481217278e-01 3.980000000000000000e+02
-2.753406863374240565e+00 9.139004443016172097e-01 3.980000000000000000e+02
-2.705997322475323763e+00 2.327319113851356036e+00 3.980000000000000000e+02
-2.658587781576406961e+00 3.740737783401095307e+00 3.980000000000000000e+02
-2.611178240677490159e+00 5.154156452950834577e+00 3.980000000000000000e+02
-3.037864108767742266e+00 -7.566611572996816193e+00 3.990000000000000000e+02
-2.990454567868825464e+00 -6.153192903447077811e+00 3.990000000000000000e+02
-2.943045026969908662e+00 -4.739774233897338540e+00 3.990000000000000000e+02
-2.895635486070991416e+00 -3.326355564347599714e+00 3.990000000000000000e+02
-2.848225945172074614e+00 -1.912936894797860665e+00 3.990000000000000000e+02
-2.800816404273157811e+00 -4.995182252481217278e-01 3.990000000000000000e+02
-2.753406863374240565e+00 9.139004443016172097e-01 3.990000000000000000e+02
-2.705997322475323763e+00 2.327319113851356036e+00 3.990000000000000000e+02
-2.658587781576406961e+00 3.740737783401095307e+00 3.990000000000000000e+02
-2.611178240677490159e+00 5.154156452950834577e+00 3.990000000000000000e+02
-3.037864108767742266e+00 -7.566611572996816193e+00 4.000000000000000000e+02
-2.990454567868825464e+00 -6.153192903447077811e+00 4.000000000000000000e+02
-2.943045026969908662e+00 -4.739774233897338540e+00 4.000000000000000000e+02
-2.895635486070991416e+00 -3.326355564347599714e+00 4.000000000000000000e+02
-2.848225945172074614e+00 -1.912936894797860665e+00 4.000000000000000000e+02
-2.800816404273157811e+00 -4.995182252481217278e-01 4.000000000000000000e+02
-2.753406863374240565e+00 9.139004443016172097e-01 4.000000000000000000e+02
-2.705997322475323763e+00 2.327319113851356036e+00 4.000000000000000000e+02
-2.658587781576406961e+00 3.740737783401095307e+00 4.000000000000000000e+02
-2.611178240677490159e+00 5.154156452950834577e+00 4.000000000000000000e+02
-3.037864108767742266e+00 -7.566611572996816193e+00 4.010000000000000000e+02
-2.990454567868825464e+00 -6.153192903447077811e+00 4.010000000000000000e+02
-2.943045026969908662e+00 -4.739774233897338540e+00 4.010000000000000000e+02
-2.895635486070991416e+00 -3.326355564347599714e+00 4.010000000000000000e+02
-2.848225945172074614e+00 -1.912936894797860665e+00 4.010000000000000000e+02
-2.800816404273157811e+00 -4.995182252481217278e-01 4.010000000000000000e+02
-2.753406863374240565e+00 9.139004443016172097e-01 4.010000000000000000e+02
-2.705997322475323763e+00 2.327319113851356036e+00 4.010000000000000000e+02
-2.658587781576406961e+00 3.740737783401095307e+00 4.010000000000000000e+02
-2.611178240677490159e+00 5.154156452950834577e+00 4.010000000000000000e+02
-3.037864108767742266e+00 -7.566611572996816193e+00 4.020000000000000000e+02
-2.990454567868825464e+00 -6.153192903447077811e+00 4.020000000000000000e+02
-2.943045026969908662e+00 -4.739774233897338540e+00 4.020000000000000000e+02
-2.895635486070991416e+00 -3.326355564347599714e+00 4.020000000000000000e+02
-2.848225945172074614e+00 -1.912936894797860665e+00 4.020000000000000000e+02
-2.800816404273157811e+00 -4.995182252481217278e-01 4.020000000000000000e+02
-2.753406863374240565e+00 9.139004443016172097e-01 4.020000000000000000e+02
-2.705997322475323763e+00 2.327319113851356036e+00 4.020000000000000000e+02
-2.658587781576406961e+00 3.740737783401095307e+00 4.020000000000000000e+02
-2.611178240677490159e+00 5.154156452950834577e+00 4.020000000000000000e+02
-3.037864108767742266e+00 -7.566611572996816193e+00 4.030000000000000000e+02
-2.990454567868825464e+00 -6.153192903447077811e+00 4.030000000000000000e+02
-2.943045026969908662e+00 -4.739774233897338540e+00 4.030000000000000000e+02
-2.895635486070991416e+00 -3.326355564347599714e+00 4.030000000000000000e+02
-2.848225945172074614e+00 -1.912936894797860665e+00 4.030000000000000000e+02
-2.800816404273157811e+00 -4.995182252481217278e-01 4.030000000000000000e+02
-2.753406863374240565e+00 9.139004443016172097e-01 4.030000000000000000e+02
-2.705997322475323763e+00 2.327319113851356036e+00 4.030000000000000000e+02
-2.658587781576406961e+00 3.740737783401095307e+00 4.030000000000000000e+02
-2.611178240677490159e+00 5.154156452950834577e+00 4.030000000000000000e+02
-3.037864108767742266e+00 -7.566611572996816193e+00 4.040000000000000000e+02
-2.990454567868825464e+00 -6.153192903447077811e+00 4.040000000000000000e+02
-2.943045026969908662e+00 -4.739774233897338540e+00 4.040000000000000000e+02
-2.895635486070991416e+00 -3.326355564347599714e+00 4.040000000000000000e+02
-2.848225945172074614e+00 -1.912936894797860665e+00 4.040000000000000000e+02
-2.800816404273157811e+00 -4.995182252481217278e-01 4.040000000000000000e+02
-2.753406863374240565e+00 9.139004443016172097e-01 4.040000000000000000e+02
-2.705997322475323763e+00 2.327319113851356036e+00 4.040000000000000000e+02
-2.658587781576406961e+00 3.740737783401095307e+00 4.040000000000000000e+02
-2.611178240677490159e+00 5.154156452950834577e+00 4.040000000000000000e+02
-3.037864108767742266e+00 -7.566611572996816193e+00 4.050000000000000000e+02
-2.990454567868825464e+00 -6.153192903447077811e+00 4.050000000000000000e+02
-2.943045026969908662e+00 -4.739774233897338540e+00 4.050000000000000000e+02
-2.895635486070991416e+00 -3.326355564347599714e+00 4.050000000000000000e+02
-2.848225945172074614e+00 -1.912936894797860665e+00 4.050000000000000000e+02
-2.800816404273157811e+00 -4.995182252481217278e-01 4.050000000000000000e+02
-2.753406863374240565e+00 9.139004443016172097e-01 4.050000000000000000e+02
-2.705997322475323763e+00 2.327319113851356036e+00 4.050000000000000000e+02
-2.658587781576406961e+00 3.740737783401095307e+00 4.050000000000000000e+02
-2.611178240677490159e+00 5.154156452950834577e+00 4.050000000000000000e+02
-3.037864108767742266e+00 -7.566611572996816193e+00 4.060000000000000000e+02
-2.990454567868825464e+00 -6.153192903447077811e+00 4.060000000000000000e+02
-2.943045026969908662e+00 -4.739774233897338540e+00 4.060000000000000000e+02
-2.895635486070991416e+00 -3.326355564347599714e+00 4.060000000000000000e+02
-2.848225945172074614e+00 -1.912936894797860665e+00 4.060000000000000000e+02
-2.800816404273157811e+00 -4.995182252481217278e-01 4.060000000000000000e+02
-2.753406863374240565e+00 9.139004443016172097e-01 4.060000000000000000e+02
-2.705997322475323763e+00 2.327319113851356036e+00 4.060000000000000000e+02
-2.658587781576406961e+00 3.740737783401095307e+00 4.060000000000000000e+02
-2.611178240677490159e+00 5.154156452950834577e+00 4.060000000000000000e+02
-3.037864108767742266e+00 -7.566611572996816193e+00 4.070000000000000000e+02
-2.990454567868825464e+00 -6.153192903447077811e+00 4.070000000000000000e+02
-2.943045026969908662e+00 -4.739774233897338540e+00 4.070000000000000000e+02
-2.895635486070991416e+00 -3.326355564347599714e+00 4.070000000000000000e+02
-2.848225945172074614e+00 -1.912936894797860665e+00 4.070000000000000000e+02
-2.800816404273157811e+00 -4.995182252481217278e-01 4.070000000000000000e+02
-2.753406863374240565e+00 9.139004443016172097e-01 4.070000000000000000e+02
-2.705997322475323763e+00 2.327319113851356036e+00 4.070000000000000000e+02
-2.658587781576406961e+00 3.740737783401095307e+00 4.070000000000000000e+02
-2.611178240677490159e+00 5.154156452950834577e+00 4.070000000000000000e+02
-3.037864108767742266e+00 -7.566611572996816193e+00 4.080000000000000000e+02
-2.990454567868825464e+00 -6.153192903447077811e+00 4.080000000000000000e+02
-2.943045026969908662e+00 -4.739774233897338540e+00 4.080000000000000000e+02
