7.627978904693408779e+00 7.003674406094526717e+01 2.440000000000000000e+02
7.751236340532036806e+00 7.144557606104694969e+01 2.440000000000000000e+02
7.874493776370663944e+00 7.285440806114861800e+01 2.440000000000000000e+02
7.997751212209291971e+00 7.426324006125028632e+01 2.440000000000000000e+02
6.888434289661641508e+00 6.158375206033521465e+01 2.450000000000000000e+02
7.011691725500269534e+00 6.299258406043689007e+01 2.450000000000000000e+02
7.134949161338896673e+00 6.440141606053856549e+01 2.450000000000000000e+02
7.258206597177524699e+00 6.581024806064024801e+01 2.450000000000000000e+02
7.381464033016152726e+00 6.721908006074191633e+01 2.450000000000000000e+02
7.504721468854780753e+00 6.862791206084359885e+01 2.450000000000000000e+02
7.627978904693408779e+00 7.003674406094526717e+01 2.450000000000000000e+02
7.751236340532036806e+00 7.144557606104694969e+01 2.450000000000000000e+02
7.874493776370663944e+00 7.285440806114861800e+01 2.450000000000000000e+02
6.888434289661641508e+00 6.158375206033521465e+01 2.460000000000000000e+02
7.011691725500269534e+00 6.299258406043689007e+01 2.460000000000000000e+02
7.134949161338896673e+00 6.440141606053856549e+01 2.460000000000000000e+02
7.258206597177524699e+00 6.581024806064024801e+01 2.460000000000000000e+02
7.381464033016152726e+00 6.721908006074191633e+01 2.460000000000000000e+02
7.504721468854780753e+00 6.862791206084359885e+01 2.460000000000000000e+02
7.627978904693408779e+00 7.003674406094526717e+01 2.460000000000000000e+02
7.751236340532036806e+00 7.144557606104694969e+01 2.460000000000000000e+02
7.874493776370663944e+00 7.285440806114861800e+01 2.460000000000000000e+02
7.997751212209291971e+00 7.426324006125028632e+01 2.460000000000000000e+02
6.888434289661641508e+00 6.158375206033521465e+01 2.470000000000000000e+02
7.011691725500269534e+00 6.299258406043689007e+01 2.470000000000000000e+02
7.134949161338896673e+00 6.440141606053856549e+01 2.470000000000000000e+02
7.258206597177524699e+00 6.581024806064024801e+01 2.470000000000000000e+02
7.381464033016152726e+00 6.721908006074191633e+01 2.470000000000000000e+02
7.504721468854780753e+00 6.862791206084359885e+01 2.470000000000000000e+02
7.627978904693408779e+00 7.003674406094526717e+01 2.470000000000000000e+02
7.751236340532036806e+00 7.144557606104694969e+01 2.470000000000000000e+02
7.874493776370663944e+00 7.285440806114861800e+01 2.470000000000000000e+02
6.888434289661641508e+00 6.158375206033521465e+01 2.480000000000000000e+02
7.011691725500269534e+00 6.299258406043689007e+01 2.480000000000000000e+02
7.134949161338896673e+00 6.440141606053856549e+01 2.480000000000000000e+02
7.258206597177524699e+00 6.581024806064024801e+01 2.480000000000000000e+02
7.381464033016152726e+00 6.721908006074191633e+01 2.480000000000000000e+02
7.504721468854780753e+00 6.862791206084359885e+01 2.480000000000000000e+02
7.627978904693408779e+00 7.003674406094526717e+01 2.480000000000000000e+02
7.751236340532036806e+00 7.144557606104694969e+01 2.480000000000000000e+02
7.874493776370663944e+00 7.285440806114861800e+01 2.480000000000000000e+02
6.888434289661641508e+00 6.158375206033521465e+01 2.490000000000000000e+02
7.011691725500269534e+00 6.299258406043689007e+01 2.490000000000000000e+02
7.134949161338896673e+00 6.440141606053856549e+01 2.490000000000000000e+02
7.258206597177524699e+00 6.581024806064024801e+01 2.490000000000000000e+02
7.381464033016152726e+00 6.721908006074191633e+01 2.490000000000000000e+02
7.504721468854780753e+00 6.862791206084359885e+01 2.490000000000000000e+02
7.627978904693408779e+00 7.003674406094526717e+01 2.490000000000000000e+02
7.751236340532036806e+00 7.144557606104694969e+01 2.490000000000000000e+02
7.874493776370663944e+00 7.285440806114861800e+01 2.490000000000000000e+02
7.997751212209291971e+00 7.426324006125028632e+01 2.490000000000000000e+02
6.888434289661641508e+00 6.158375206033521465e+01 2.500000000000000000e+02
7.011691725500269534e+00 6.299258406043689007e+01 2.500000000000000000e+02
7.134949161338896673e+00 6.440141606053856549e+01 2.500000000000000000e+02
7.258206597177524699e+00 6.581024806064024801e+01 2.500000000000000000e+02
7.381464033016152726e+00 6.721908006074191633e+01 2.500000000000000000e+02
7.504721468854780753e+00 6.862791206084359885e+01 2.500000000000000000e+02
7.627978904693408779e+00 7.003674406094526717e+01 2.500000000000000000e+02
7.751236340532036806e+00 7.144557606104694969e+01 2.500000000000000000e+02
7.874493776370663944e+00 7.285440806114861800e+01 2.500000000000000000e+02
7.997751212209291971e+00 7.426324006125028632e+01 2.500000000000000000e+02
6.122389571691490673e+00 6.094096477820369273e+01 2.510000000000000000e+02
6.245647007530117811e+00 6.234979677830536815e+01 2.510000000000000000e+02
6.368904443368745838e+00 6.375862877840704357e+01 2.510000000000000000e+02
6.492161879207372976e+00 6.516746077850871188e+01 2.510000000000000000e+02
6.615419315046001003e+00 6.657629277861039441e+01 2.510000000000000000e+02
6.738676750884629030e+00 6.798512477871206272e+01 2.510000000000000000e+02
6.861934186723257056e+00 6.939395677881374525e+01 2.510000000000000000e+02
6.985191622561885083e+00 7.080278877891541356e+01 2.510000000000000000e+02
7.108449058400513110e+00 7.221162077901709608e+01 2.510000000000000000e+02
7.231706494239140248e+00 7.362045277911876440e+01 2.510000000000000000e+02
7.354963930077768275e+00 7.502928477922044692e+01 2.510000000000000000e+02
6.122389571691490673e+00 6.094096477820369273e+01 2.520000000000000000e+02
6.245647007530117811e+00 6.234979677830536815e+01 2.520000000000000000e+02
6.368904443368745838e+00 6.375862877840704357e+01 2.520000000000000000e+02
6.492161879207372976e+00 6.516746077850871188e+01 2.520000000000000000e+02
6.615419315046001003e+00 6.657629277861039441e+01 2.520000000000000000e+02
6.738676750884629030e+00 6.798512477871206272e+01 2.520000000000000000e+02
6.861934186723257056e+00 6.939395677881374525e+01 2.520000000000000000e+02
6.985191622561885083e+00 7.080278877891541356e+01 2.520000000000000000e+02
7.108449058400513110e+00 7.221162077901709608e+01 2.520000000000000000e+02
7.231706494239140248e+00 7.362045277911876440e+01 2.520000000000000000e+02
7.354963930077768275e+00 7.502928477922044692e+01 2.520000000000000000e+02
6.888434289661641508e+00 6.158375206033521465e+01 2.530000000000000000e+02
7.011691725500269534e+00 6.299258406043689007e+01 2.530000000000000000e+02
7.134949161338896673e+00 6.440141606053856549e+01 2.530000000000000000e+02
7.258206597177524699e+00 6.581024806064024801e+01 2.530000000000000000e+02
7.381464033016152726e+00 6.721908006074191633e+01 2.530000000000000000e+02
7.504721468854780753e+00 6.862791206084359885e+01 2.530000000000000000e+02
7.627978904693408779e+00 7.003674406094526717e+01 2.530000000000000000e+02
7.751236340532036806e+00 7.144557606104694969e+01 2.530000000000000000e+02
7.874493776370663944e+00 7.285440806114861800e+01 2.530000000000000000e+02
7.997751212209291971e+00 7.426324006125028632e+01 2.530000000000000000e+02
6.888434289661641508e+00 6.158375206033521465e+01 2.540000000000000000e+02
7.011691725500269534e+00 6.299258406043689007e+01 2.540000000000000000e+02
7.134949161338896673e+00 6.440141606053856549e+01 2.540000000000000000e+02
7.258206597177524699e+00 6.581024806064024801e+01 2.540000000000000000e+02
7.381464033016152726e+00 6.721908006074191633e+01 2.540000000000000000e+02
7.504721468854780753e+00 6.862791206084359885e+01 2.540000000000000000e+02
7.627978904693408779e+00 7.003674406094526717e+01 2.540000000000000000e+02
7.751236340532036806e+00 7.144557606104694969e+01 2.540000000000000000e+02
7.874493776370663944e+00 7.285440806114861800e+01 2.540000000000000000e+02
7.997751212209291971e+00 7.426324006125028632e+01 2.540000000000000000e+02
6.888434289661641508e+00 6.158375206033521465e+01 2.550000000000000000e+02
7.011691725500269534e+00 6.299258406043689007e+01 2.550000000000000000e+02
7.134949161338896673e+00 6.440141606053856549e+01 2.550000000000000000e+02
7.258206597177524699e+00 6.581024806064024801e+01 2.550000000000000000e+02
7.381464033016152726e+00 6.721908006074191633e+01 2.550000000000000000e+02
7.504721468854780753e+00 6.862791206084359885e+01 2.550000000000000000e+02
7.627978904693408779e+00 7.003674406094526717e+01 2.550000000000000000e+02
7.751236340532036806e+00 7.144557606104694969e+01 2.550000000000000000e+02
7.874493776370663944e+00 7.285440806114861800e+01 2.550000000000000000e+02
7.997751212209291971e+00 7.426324006125028632e+01 2.550000000000000000e+02
6.888434289661641508e+00 6.158375206033521465e+01 2.560000000000000000e+02
7.011691725500269534e+00 6.299258406043689007e+01 2.560000000000000000e+02
7.134949161338896673e+00 6.440141606053856549e+01 2.560000000000000000e+02
7.258206597177524699e+00 6.581024806064024801e+01 2.560000000000000000e+02
7.381464033016152726e+00 6.721908006074191633e+01 2.560000000000000000e+02
7.504721468854780753e+00 6.862791206084359885e+01 2.560000000000000000e+02
7.627978904693408779e+00 7.003674406094526717e+01 2.560000000000000000e+02
7.751236340532036806e+00 7.144557606104694969e+01 2.560000000000000000e+02
7.874493776370663944e+00 7.285440806114861800e+01 2.560000000000000000e+02
7.997751212209291971e+00 7.426324006125028632e+01 2.560000000000000000e+02
6.888434289661641508e+00 6.158375206033521465e+01 2.570000000000000000e+02
7.011691725500269534e+00 6.299258406043689007e+01 2.570000000000000000e+02
7.134949161338896673e+00 6.440141606053856549e+01 2.570000000000000000e+02
7.258206597177524699e+00 6.581024806064024801e+01 2.570000000000000000e+02
7.381464033016152726e+00 6.721908006074191633e+01 2.570000000000000000e+02
7.504721468854780753e+00 6.862791206084359885e+01 2.570000000000000000e+02
7.627978904693408779e+00 7.003674406094526717e+01 2.570000000000000000e+02
7.751236340532036806e+00 7.144557606104694969e+01 2.570000000000000000e+02
7.874493776370663944e+00 7.285440806114861800e+01 2.570000000000000000e+02
7.997751212209291971e+00 7.426324006125028632e+01 2.570000000000000000e+02
6.888434289661641508e+00 6.158375206033521465e+01 2.580000000000000000e+02
7.011691725500269534e+00 6.299258406043689007e+01 2.580000000000000000e+02
7.134949161338896673e+00 6.440141606053856549e+01 2.580000000000000000e+02
7.258206597177524699e+00 6.581024806064024801e+01 2.580000000000000000e+02
7.381464033016152726e+00 6.721908006074191633e+01 2.580000000000000000e+02
7.504721468854780753e+00 6.862791206084359885e+01 2.580000000000000000e+02
7.627978904693408779e+00 7.003674406094526717e+01 2.580000000000000000e+02
7.751236340532036806e+00 7.144557606104694969e+01 2.580000000000000000e+02
7.874493776370663944e+00 7.285440806114861800e+01 2.580000000000000000e+02
7.997751212209291971e+00 7.426324006125028632e+01 2.580000000000000000e+02
6.888434289661641508e+00 6.158375206033521465e+01 2.590000000000000000e+02
7.011691725500269534e+00 6.299258406043689007e+01 2.590000000000000000e+02
7.134949161338896673e+00 6.440141606053856549e+01 2.590000000000000000e+02
7.258206597177524699e+00 6.581024806064024801e+01 2.590000000000000000e+02
7.381464033016152726e+00 6.721908006074191633e+01 2.590000000000000000e+02
7.504721468854780753e+00 6.862791206084359885e+01 2.590000000000000000e+02
7.627978904693408779e+00 7.003674406094526717e+01 2.590000000000000000e+02
7.751236340532036806e+00 7.144557606104694969e+01 2.590000000000000000e+02
7.874493776370663944e+00 7.285440806114861800e+01 2.590000000000000000e+02
6.888434289661641508e+00 6.158375206033521465e+01 2.600000000000000000e+02
7.011691725500269534e+00 6.299258406043689007e+01 2.600000000000000000e+02
7.134949161338896673e+00 6.440141606053856549e+01 2.600000000000000000e+02
7.258206597177524699e+00 6.581024806064024801e+01 2.600000000000000000e+02
7.381464033016152726e+00 6.721908006074191633e+01 2.600000000000000000e+02
7.504721468854780753e+00 6.862791206084359885e+01 2.600000000000000000e+02
7.627978904693408779e+00 7.003674406094526717e+01 2.600000000000000000e+02
7.751236340532036806e+00 7.144557606104694969e+01 2.600000000000000000e+02
7.874493776370663944e+00 7.285440806114861800e+01 2.600000000000000000e+02
6.888434289661641508e+00 6.158375206033521465e+01 2.610000000000000000e+02
7.011691725500269534e+00 6.299258406043689007e+01 2.610000000000000000e+02
7.134949161338896673e+00 6.440141606053856549e+01 2.610000000000000000e+02
7.258206597177524699e+00 6.581024806064024801e+01 2.610000000000000000e+02
7.381464033016152726e+00 6.721908006074191633e+01 2.610000000000000000e+02
7.504721468854780753e+00 6.862791206084359885e+01 2.610000000000000000e+02
7.627978904693408779e+00 7.003674406094526717e+01 2.610000000000000000e+02
7.751236340532036806e+00 7.144557606104694969e+01 2.610000000000000000e+02
7.874493776370663944e+00 7.285440806114861800e+01 2.610000000000000000e+02
6.122389571691490673e+00 6.094096477820369273e+01 2.620000000000000000e+02
6.245647007530117811e+00 6.234979677830536815e+01 2.620000000000000000e+02
6.368904443368745838e+00 6.375862877840704357e+01 2.620000000000000000e+02
6.492161879207372976e+00 6.516746077850871188e+01 2.620000000000000000e+02
6.615419315046001003e+00 6.657629277861039441e+01 2.620000000000000000e+02
6.738676750884629030e+00 6.798512477871206272e+01 2.620000000000000000e+02
6.861934186723257056e+00 6.939395677881374525e+01 2.620000000000000000e+02
6.985191622561885083e+00 7.080278877891541356e+01 2.620000000000000000e+02
7.108449058400513110e+00 7.221162077901709608e+01 2.620000000000000000e+02
7.231706494239140248e+00 7.362045277911876440e+01 2.620000000000000000e+02
7.354963930077768275e+00 7.502928477922044692e+01 2.620000000000000000e+02
6.888434289661641508e+00 6.158375206033521465e+01 2.630000000000000000e+02
7.011691725500269534e+00 6.299258406043689007e+01 2.630000000000000000e+02
7.134949161338896673e+00 6.440141606053856549e+01 2.630000000000000000e+02
7.258206597177524699e+00 6.581024806064024801e+01 2.630000000000000000e+02
7.381464033016152726e+00 6.721908006074191633e+01 2.630000000000000000e+02
7.504721468854780753e+00 6.862791206084359885e+01 2.630000000000000000e+02
7.627978904693408779e+00 7.003674406094526717e+01 2.630000000000000000e+02
7.751236340532036806e+00 7.144557606104694969e+01 2.630000000000000000e+02
7.874493776370663944e+00 7.285440806114861800e+01 2.630000000000000000e+02
7.997751212209291971e+00 7.426324006125028632e+01 2.630000000000000000e+02
6.888434289661641508e+00 6.158375206033521465e+01 2.640000000000000000e+02
7.011691725500269534e+00 6.299258406043689007e+01 2.640000000000000000e+02
7.134949161338896673e+00 6.440141606053856549e+01 2.640000000000000000e+02
7.258206597177524699e+00 6.581024806064024801e+01 2.640000000000000000e+02
7.381464033016152726e+00 6.721908006074191633e+01 2.640000000000000000e+02
7.504721468854780753e+00 6.862791206084359885e+01 2.640000000000000000e+02
7.627978904693408779e+00 7.003674406094526717e+01 2.640000000000000000e+02
7.751236340532036806e+00 7.144557606104694969e+01 2.640000000000000000e+02
7.874493776370663944e+00 7.285440806114861800e+01 2.640000000000000000e+02
7.997751212209291971e+00 7.426324006125028632e+01 2.640000000000000000e+02
6.888434289661641508e+00 6.158375206033521465e+01 2.650000000000000000e+02
7.011691725500269534e+00 6.299258406043689007e+01 2.650000000000000000e+02
7.134949161338896673e+00 6.440141606053856549e+01 2.650000000000000000e+02
7.258206597177524699e+00 6.581024806064024801e+01 2.650000000000000000e+02
7.381464033016152726e+00 6.721908006074191633e+01 2.650000000000000000e+02
7.504721468854780753e+00 6.862791206084359885e+01 2.650000000000000000e+02
7.627978904693408779e+00 7.003674406094526717e+01 2.650000000000000000e+02
7.751236340532036806e+00 7.144557606104694969e+01 2.650000000000000000e+02
7.874493776370663944e+00 7.285440806114861800e+01 2.650000000000000000e+02
7.997751212209291971e+00 7.426324006125028632e+01 2.650000000000000000e+02
6.888434289661641508e+00 6.158375206033521465e+01 2.660000000000000000e+02
7.011691725500269534e+00 6.299258406043689007e+01 2.660000000000000000e+02
7.134949161338896673e+00 6.440141606053856549e+01 2.660000000000000000e+02
7.258206597177524699e+00 6.581024806064024801e+01 2.660000000000000000e+02
7.381464033016152726e+00 6.721908006074191633e+01 2.660000000000000000e+02
7.504721468854780753e+00 6.862791206084359885e+01 2.660000000000000000e+02
7.627978904693408779e+00 7.003674406094526717e+01 2.660000000000000000e+02
7.751236340532036806e+00 7.144557606104694969e+01 2.660000000000000000e+02
7.874493776370663944e+00 7.285440806114861800e+01 2.660000000000000000e+02
7.997751212209291971e+00 7.426324006125028632e+01 2.660000000000000000e+02
6.888434289661641508e+00 6.158375206033521465e+01 2.670000000000000000e+02
7.011691725500269534e+00 6.299258406043689007e+01 2.670000000000000000e+02
7.134949161338896673e+00 6.440141606053856549e+01 2.670000000000000000e+02
7.258206597177524699e+00 6.581024806064024801e+01 2.670000000000000000e+02
7.381464033016152726e+00 6.721908006074191633e+01 2.670000000000000000e+02
7.504721468854780753e+00 6.862791206084359885e+01 2.670000000000000000e+02
7.627978904693408779e+00 7.003674406094526717e+01 2.670000000000000000e+02
7.751236340532036806e+00 7.144557606104694969e+01 2.670000000000000000e+02
7.874493776370663944e+00 7.285440806114861800e+01 2.670000000000000000e+02
7.997751212209291971e+00 7.426324006125028632e+01 2.670000000000000000e+02
6.888434289661641508e+00 6.158375206033521465e+01 2.680000000000000000e+02
7.011691725500269534e+00 6.299258406043689007e+01 2.680000000000000000e+02
7.134949161338896673e+00 6.440141606053856549e+01 2.680000000000000000e+02
7.258206597177524699e+00 6.581024806064024801e+01 2.680000000000000000e+02
7.381464033016152726e+00 6.721908006074191633e+01 2.680000000000000000e+02
7.504721468854780753e+00 6.862791206084359885e+01 2.680000000000000000e+02
7.627978904693408779e+00 7.003674406094526717e+01 2.680000000000000000e+02
7.751236340532036806e+00 7.144557606104694969e+01 2.680000000000000000e+02
7.874493776370663944e+00 7.285440806114861800e+01 2.680000000000000000e+02
7.997751212209291971e+00 7.426324006125028632e+01 2.680000000000000000e+02
6.122389571691490673e+00 6.094096477820369273e+01 2.690000000000000000e+02
6.245647007530117811e+00 6.234979677830536815e+01 2.690000000000000000e+02
6.368904443368745838e+00 6.375862877840704357e+01 2.690000000000000000e+02
6.492161879207372976e+00 6.516746077850871188e+01 2.690000000000000000e+02
6.615419315046001003e+00 6.657629277861039441e+01 2.690000000000000000e+02
6.738676750884629030e+00 6.798512477871206272e+01 2.690000000000000000e+02
6.861934186723257056e+00 6.939395677881374525e+01 2.690000000000000000e+02
6.985191622561885083e+00 7.080278877891541356e+01 2.690000000000000000e+02
7.108449058400513110e+00 7.221162077901709608e+01 2.690000000000000000e+02
7.231706494239140248e+00 7.362045277911876440e+01 2.690000000000000000e+02
6.122389571691490673e+00 6.094096477820369273e+01 2.700000000000000000e+02
6.245647007530117811e+00 6.234979677830536815e+01 2.700000000000000000e+02
6.368904443368745838e+00 6.375862877840704357e+01 2.700000000000000000e+02
6.492161879207372976e+00 6.516746077850871188e+01 2.700000000000000000e+02
6.615419315046001003e+00 6.657629277861039441e+01 2.700000000000000000e+02
6.738676750884629030e+00 6.798512477871206272e+01 2.700000000000000000e+02
6.861934186723257056e+00 6.939395677881374525e+01 2.700000000000000000e+02
6.985191622561885083e+00 7.080278877891541356e+01 2.700000000000000000e+02
7.108449058400513110e+00 7.221162077901709608e+01 2.700000000000000000e+02
7.231706494239140248e+00 7.362045277911876440e+01 2.700000000000000000e+02
6.122389571691490673e+00 6.094096477820369273e+01 2.710000000000000000e+02
6.245647007530117811e+00 6.234979677830536815e+01 2.710000000000000000e+02
6.368904443368745838e+00 6.375862877840704357e+01 2.710000000000000000e+02
6.492161879207372976e+00 6.516746077850871188e+01 2.710000000000000000e+02
6.615419315046001003e+00 6.657629277861039441e+01 2.710000000000000000e+02
6.738676750884629030e+00 6.798512477871206272e+01 2.710000000000000000e+02
6.861934186723257056e+00 6.939395677881374525e+01 2.710000000000000000e+02
6.985191622561885083e+00 7.080278877891541356e+01 2.710000000000000000e+02
7.108449058400513110e+00 7.221162077901709608e+01 2.710000000000000000e+02
7.231706494239140248e+00 7.362045277911876440e+01 2.710000000000000000e+02
6.122389571691490673e+00 6.094096477820369273e+01 2.720000000000000000e+02
6.245647007530117811e+00 6.234979677830536815e+01 2.720000000000000000e+02
6.368904443368745838e+00 6.375862877840704357e+01 2.720000000000000000e+02
6.492161879207372976e+00 6.516746077850871188e+01 2.720000000000000000e+02
6.615419315046001003e+00 6.657629277861039441e+01 2.720000000000000000e+02
6.738676750884629030e+00 6.798512477871206272e+01 2.720000000000000000e+02
6.861934186723257056e+00 6.939395677881374525e+01 2.720000000000000000e+02
6.985191622561885083e+00 7.080278877891541356e+01 2.720000000000000000e+02
7.108449058400513110e+00 7.221162077901709608e+01 2.720000000000000000e+02
7.231706494239140248e+00 7.362045277911876440e+01 2.720000000000000000e+02
6.122389571691490673e+00 6.094096477820369273e+01 2.730000000000000000e+02
6.245647007530117811e+00 6.234979677830536815e+01 2.730000000000000000e+02
6.368904443368745838e+00 6.375862877840704357e+01 2.730000000000000000e+02
6.492161879207372976e+00 6.516746077850871188e+01 2.730000000000000000e+02
6.615419315046001003e+00 6.657629277861039441e+01 2.730000000000000000e+02
6.738676750884629030e+00 6.798512477871206272e+01 2.730000000000000000e+02
6.861934186723257056e+00 6.939395677881374525e+01 2.730000000000000000e+02
6.985191622561885083e+00 7.080278877891541356e+01 2.730000000000000000e+02
7.108449058400513110e+00 7.221162077901709608e+01 2.730000000000000000e+02
7.231706494239140248e+00 7.362045277911876440e+01 2.730000000000000000e+02
7.354963930077768275e+00 7.502928477922044692e+01 2.730000000000000000e+02
6.122389571691490673e+00 6.094096477820369273e+01 2.740000000000000000e+02
6.245647007530117811e+00 6.234979677830536815e+01 2.740000000000000000e+02
6.368904443368745838e+00 6.375862877840704357e+01 2.740000000000000000e+02
6.492161879207372976e+00 6.516746077850871188e+01 2.740000000000000000e+02
6.615419315046001003e+00 6.657629277861039441e+01 2.740000000000000000e+02
6.738676750884629030e+00 6.798512477871206272e+01 2.740000000000000000e+02
6.861934186723257056e+00 6.939395677881374525e+01 2.740000000000000000e+02
6.985191622561885083e+00 7.080278877891541356e+01 2.740000000000000000e+02
7.108449058400513110e+00 7.221162077901709608e+01 2.740000000000000000e+02
7.231706494239140248e+00 7.362045277911876440e+01 2.740000000000000000e+02
7.354963930077768275e+00 7.502928477922044692e+01 2.740000000000000000e+02
6.122389571691490673e+00 6.094096477820369273e+01 2.750000000000000000e+02
6.245647007530117811e+00 6.234979677830536815e+01 2.750000000000000000e+02
6.368904443368745838e+00 6.375862877840704357e+01 2.750000000000000000e+02
6.492161879207372976e+00 6.516746077850871188e+01 2.750000000000000000e+02
6.615419315046001003e+00 6.657629277861039441e+01 2.750000000000000000e+02
6.738676750884629030e+00 6.798512477871206272e+01 2.750000000000000000e+02
6.861934186723257056e+00 6.939395677881374525e+01 2.750000000000000000e+02
6.985191622561885083e+00 7.080278877891541356e+01 2.750000000000000000e+02
7.108449058400513110e+00 7.221162077901709608e+01 2.750000000000000000e+02
7.231706494239140248e+00 7.362045277911876440e+01 2.750000000000000000e+02
7.354963930077768275e+00 7.502928477922044692e+01 2.750000000000000000e+02
6.122389571691490673e+00 6.094096477820369273e+01 2.760000000000000000e+02
6.245647007530117811e+00 6.234979677830536815e+01 2.760000000000000000e+02
6.368904443368745838e+00 6.375862877840704357e+01 2.760000000000000000e+02
6.492161879207372976e+00 6.516746077850871188e+01 2.760000000000000000e+02
6.615419315046001003e+00 6.657629277861039441e+01 2.760000000000000000e+02
6.738676750884629030e+00 6.798512477871206272e+01 2.760000000000000000e+02
6.861934186723257056e+00 6.939395677881374525e+01 2.760000000000000000e+02
6.985191622561885083e+00 7.080278877891541356e+01 2.760000000000000000e+02
7.108449058400513110e+00 7.221162077901709608e+01 2.760000000000000000e+02
7.231706494239140248e+00 7.362045277911876440e+01 2.760000000000000000e+02
7.354963930077768275e+00 7.502928477922044692e+01 2.760000000000000000e+02
6.122389571691490673e+00 6.094096477820369273e+01 2.770000000000000000e+02
6.245647007530117811e+00 6.234979677830536815e+01 2.770000000000000000e+02
6.368904443368745838e+00 6.375862877840704357e+01 2.770000000000000000e+02
6.492161879207372976e+00 6.516746077850871188e+01 2.770000000000000000e+02
6.615419315046001003e+00 6.657629277861039441e+01 2.770000000000000000e+02
6.738676750884629030e+00 6.798512477871206272e+01 2.770000000000000000e+02
6.861934186723257056e+00 6.939395677881374525e+01 2.770000000000000000e+02
6.985191622561885083e+00 7.080278877891541356e+01 2.770000000000000000e+02
7.108449058400513110e+00 7.221162077901709608e+01 2.770000000000000000e+02
7.231706494239140248e+00 7.362045277911876440e+01 2.770000000000000000e+02
7.354963930077768275e+00 7.502928477922044692e+01 2.770000000000000000e+02
6.122389571691490673e+00 6.094096477820369273e+01 2.780000000000000000e+02
6.245647007530117811e+00 6.234979677830536815e+01 2.780000000000000000e+02
6.368904443368745838e+00 6.375862877840704357e+01 2.780000000000000000e+02
6.492161879207372976e+00 6.516746077850871188e+01 2.780000000000000000e+02
6.615419315046001003e+00 6.657629277861039441e+01 2.780000000000000000e+02
6.738676750884629030e+00 6.798512477871206272e+01 2.780000000000000000e+02
6.861934186723257056e+00 6.939395677881374525e+01 2.780000000000000000e+02
6.985191622561885083e+00 7.080278877891541356e+01 2.780000000000000000e+02
7.108449058400513110e+00 7.221162077901709608e+01 2.780000000000000000e+02
7.231706494239140248e+00 7.362045277911876440e+01 2.780000000000000000e+02
7.354963930077768275e+00 7.502928477922044692e+01 2.780000000000000000e+02
6.122389571691490673e+00 6.094096477820369273e+01 2.790000000000000000e+02
6.245647007530117811e+00 6.234979677830536815e+01 2.790000000000000000e+02
6.368904443368745838e+00 6.375862877840704357e+01 2.790000000000000000e+02
6.492161879207372976e+00 6.516746077850871188e+01 2.790000000000000000e+02
6.615419315046001003e+00 6.657629277861039441e+01 2.790000000000000000e+02
6.738676750884629030e+00 6.798512477871206272e+01 2.790000000000000000e+02
6.861934186723257056e+00 6.939395677881374525e+01 2.790000000000000000e+02
6.985191622561885083e+00 7.080278877891541356e+01 2.790000000000000000e+02
7.108449058400513110e+00 7.221162077901709608e+01 2.790000000000000000e+02
7.231706494239140248e+00 7.362045277911876440e+01 2.790000000000000000e+02
7.354963930077768275e+00 7.502928477922044692e+01 2.790000000000000000e+02
6.122389571691490673e+00 6.094096477820369273e+01 2.800000000000000000e+02
6.245647007530117811e+00 6.234979677830536815e+01 2.800000000000000000e+02
6.368904443368745838e+00 6.375862877840704357e+01 2.800000000000000000e+02
6.492161879207372976e+00 6.516746077850871188e+01 2.800000000000000000e+02
6.615419315046001003e+00 6.657629277861039441e+01 2.800000000000000000e+02
6.738676750884629030e+00 6.798512477871206272e+01 2.800000000000000000e+02
6.861934186723257056e+00 6.939395677881374525e+01 2.800000000000000000e+02
6.985191622561885083e+00 7.080278877891541356e+01 2.800000000000000000e+02
7.108449058400513110e+00 7.221162077901709608e+01 2.800000000000000000e+02
7.231706494239140248e+00 7.362045277911876440e+01 2.800000000000000000e+02
7.354963930077768275e+00 7.502928477922044692e+01 2.800000000000000000e+02
6.122389571691490673e+00 6.094096477820369273e+01 2.810000000000000000e+02
6.245647007530117811e+00 6.234979677830536815e+01 2.810000000000000000e+02
6.368904443368745838e+00 6.375862877840704357e+01 2.810000000000000000e+02
6.492161879207372976e+00 6.516746077850871188e+01 2.810000000000000000e+02
6.615419315046001003e+00 6.657629277861039441e+01 2.810000000000000000e+02
6.738676750884629030e+00 6.798512477871206272e+01 2.810000000000000000e+02
6.861934186723257056e+00 6.939395677881374525e+01 2.810000000000000000e+02
6.985191622561885083e+00 7.080278877891541356e+01 2.810000000000000000e+02
7.108449058400513110e+00 7.221162077901709608e+01 2.810000000000000000e+02
7.231706494239140248e+00 7.362045277911876440e+01 2.810000000000000000e+02
7.354963930077768275e+00 7.502928477922044692e+01 2.810000000000000000e+02
6.122389571691490673e+00 6.094096477820369273e+01 2.820000000000000000e+02
6.245647007530117811e+00 6.234979677830536815e+01 2.820000000000000000e+02
6.368904443368745838e+00 6.375862877840704357e+01 2.820000000000000000e+02
6.492161879207372976e+00 6.516746077850871188e+01 2.820000000000000000e+02
6.615419315046001003e+00 6.657629277861039441e+01 2.820000000000000000e+02
6.738676750884629030e+00 6.798512477871206272e+01 2.820000000000000000e+02
6.861934186723257056e+00 6.939395677881374525e+01 2.820000000000000000e+02
6.985191622561885083e+00 7.080278877891541356e+01 2.820000000000000000e+02
7.108449058400513110e+00 7.221162077901709608e+01 2.820000000000000000e+02
7.231706494239140248e+00 7.362045277911876440e+01 2.820000000000000000e+02
7.354963930077768275e+00 7.502928477922044692e+01 2.820000000000000000e+02
5.356344853721338950e+00 6.029817749607217081e+01 2.830000000000000000e+02
5.479602289559966977e+00 6.170700949617384623e+01 2.830000000000000000e+02
5.602859725398594115e+00 6.311584149627552165e+01 2.830000000000000000e+02
5.726117161237222142e+00 6.452467349637718996e+01 2.830000000000000000e+02
5.849374597075849280e+00 6.593350549647887249e+01 2.830000000000000000e+02
5.972632032914477307e+00 6.734233749658054080e+01 2.830000000000000000e+02
6.095889468753105334e+00 6.875116949668222333e+01 2.830000000000000000e+02
6.219146904591733360e+00 7.016000149678389164e+01 2.830000000000000000e+02
6.342404340430361387e+00 7.156883349688557416e+01 2.830000000000000000e+02
6.465661776268989414e+00 7.297766549698724248e+01 2.830000000000000000e+02
6.588919212107616552e+00 7.438649749708892500e+01 2.830000000000000000e+02
6.712176647946244579e+00 7.579532949719059332e+01 2.830000000000000000e+02
6.122389571691490673e+00 6.094096477820369273e+01 2.840000000000000000e+02
6.245647007530117811e+00 6.234979677830536815e+01 2.840000000000000000e+02
6.368904443368745838e+00 6.375862877840704357e+01 2.840000000000000000e+02
6.492161879207372976e+00 6.516746077850871188e+01 2.840000000000000000e+02
6.615419315046001003e+00 6.657629277861039441e+01 2.840000000000000000e+02
6.738676750884629030e+00 6.798512477871206272e+01 2.840000000000000000e+02
6.861934186723257056e+00 6.939395677881374525e+01 2.840000000000000000e+02
6.985191622561885083e+00 7.080278877891541356e+01 2.840000000000000000e+02
7.108449058400513110e+00 7.221162077901709608e+01 2.840000000000000000e+02
7.231706494239140248e+00 7.362045277911876440e+01 2.840000000000000000e+02
7.354963930077768275e+00 7.502928477922044692e+01 2.840000000000000000e+02
6.122389571691490673e+00 6.094096477820369273e+01 2.850000000000000000e+02
6.245647007530117811e+00 6.234979677830536815e+01 2.850000000000000000e+02
6.368904443368745838e+00 6.375862877840704357e+01 2.850000000000000000e+02
6.492161879207372976e+00 6.516746077850871188e+01 2.850000000000000000e+02
6.615419315046001003e+00 6.657629277861039441e+01 2.850000000000000000e+02
6.738676750884629030e+00 6.798512477871206272e+01 2.850000000000000000e+02
6.861934186723257056e+00 6.939395677881374525e+01 2.850000000000000000e+02
6.985191622561885083e+00 7.080278877891541356e+01 2.850000000000000000e+02
7.108449058400513110e+00 7.221162077901709608e+01 2.850000000000000000e+02
7.231706494239140248e+00 7.362045277911876440e+01 2.850000000000000000e+02
7.354963930077768275e+00 7.502928477922044692e+01 2.850000000000000000e+02
6.122389571691490673e+00 6.094096477820369273e+01 2.860000000000000000e+02
6.245647007530117811e+00 6.234979677830536815e+01 2.860000000000000000e+02
6.368904443368745838e+00 6.375862877840704357e+01 2.860000000000000000e+02
6.492161879207372976e+00 6.516746077850871188e+01 2.860000000000000000e+02
6.615419315046001003e+00 6.657629277861039441e+01 2.860000000000000000e+02
6.738676750884629030e+00 6.798512477871206272e+01 2.860000000000000000e+02
6.861934186723257056e+00 6.939395677881374525e+01 2.860000000000000000e+02
6.985191622561885083e+00 7.080278877891541356e+01 2.860000000000000000e+02
7.108449058400513110e+00 7.221162077901709608e+01 2.860000000000000000e+02
7.231706494239140248e+00 7.362045277911876440e+01 2.860000000000000000e+02
7.354963930077768275e+00 7.502928477922044692e+01 2.860000000000000000e+02
6.122389571691490673e+00 6.094096477820369273e+01 2.870000000000000000e+02
6.245647007530117811e+00 6.234979677830536815e+01 2.870000000000000000e+02
6.368904443368745838e+00 6.375862877840704357e+01 2.870000000000000000e+02
6.492161879207372976e+00 6.516746077850871188e+01 2.870000000000000000e+02
6.615419315046001003e+00 6.657629277861039441e+01 2.870000000000000000e+02
6.738676750884629030e+00 6.798512477871206272e+01 2.870000000000000000e+02
6.861934186723257056e+00 6.939395677881374525e+01 2.870000000000000000e+02
6.985191622561885083e+00 7.080278877891541356e+01 2.870000000000000000e+02
7.108449058400513110e+00 7.221162077901709608e+01 2.870000000000000000e+02
7.231706494239140248e+00 7.362045277911876440e+01 2.870000000000000000e+02
7.354963930077768275e+00 7.502928477922044692e+01 2.870000000000000000e+02
6.122389571691490673e+00 6.094096477820369273e+01 2.880000000000000000e+02
6.245647007530117811e+00 6.234979677830536815e+01 2.880000000000000000e+02
6.368904443368745838e+00 6.375862877840704357e+01 2.880000000000000000e+02
6.492161879207372976e+00 6.516746077850871188e+01 2.880000000000000000e+02
6.615419315046001003e+00 6.657629277861039441e+01 2.880000000000000000e+02
6.738676750884629030e+00 6.798512477871206272e+01 2.880000000000000000e+02
6.861934186723257056e+00 6.939395677881374525e+01 2.880000000000000000e+02
6.985191622561885083e+00 7.080278877891541356e+01 2.880000000000000000e+02
7.108449058400513110e+00 7.221162077901709608e+01 2.880000000000000000e+02
7.231706494239140248e+00 7.362045277911876440e+01 2.880000000000000000e+02
7.354963930077768275e+00 7.502928477922044692e+01 2.880000000000000000e+02
6.122389571691490673e+00 6.094096477820369273e+01 2.890000000000000000e+02
6.245647007530117811e+00 6.234979677830536815e+01 2.890000000000000000e+02
6.368904443368745838e+00 6.375862877840704357e+01 2.890000000000000000e+02
6.492161879207372976e+00 6.516746077850871188e+01 2.890000000000000000e+02
6.615419315046001003e+00 6.657629277861039441e+01 2.890000000000000000e+02
6.738676750884629030e+00 6.798512477871206272e+01 2.890000000000000000e+02
6.861934186723257056e+00 6.939395677881374525e+01 2.890000000000000000e+02
6.985191622561885083e+00 7.080278877891541356e+01 2.890000000000000000e+02
7.108449058400513110e+00 7.221162077901709608e+01 2.890000000000000000e+02
7.231706494239140248e+00 7.362045277911876440e+01 2.890000000000000000e+02
7.354963930077768275e+00 7.502928477922044692e+01 2.890000000000000000e+02
6.122389571691490673e+00 6.094096477820369273e+01 2.900000000000000000e+02
6.245647007530117811e+00 6.234979677830536815e+01 2.900000000000000000e+02
6.368904443368745838e+00 6.375862877840704357e+01 2.900000000000000000e+02
6.492161879207372976e+00 6.516746077850871188e+01 2.900000000000000000e+02
6.615419315046001003e+00 6.657629277861039441e+01 2.900000000000000000e+02
6.738676750884629030e+00 6.798512477871206272e+01 2.900000000000000000e+02
6.861934186723257056e+00 6.939395677881374525e+01 2.900000000000000000e+02
6.985191622561885083e+00 7.080278877891541356e+01 2.900000000000000000e+02
7.108449058400513110e+00 7.221162077901709608e+01 2.900000000000000000e+02
7.231706494239140248e+00 7.362045277911876440e+01 2.900000000000000000e+02
7.354963930077768275e+00 7.502928477922044692e+01 2.900000000000000000e+02
6.122389571691490673e+00 6.094096477820369273e+01 2.910000000000000000e+02
6.245647007530117811e+00 6.234979677830536815e+01 2.910000000000000000e+02
6.368904443368745838e+00 6.375862877840704357e+01 2.910000000000000000e+02
6.492161879207372976e+00 6.516746077850871188e+01 2.910000000000000000e+02
6.615419315046001003e+00 6.657629277861039441e+01 2.910000000000000000e+02
6.738676750884629030e+00 6.798512477871206272e+01 2.910000000000000000e+02
6.861934186723257056e+00 6.939395677881374525e+01 2.910000000000000000e+02
6.985191622561885083e+00 7.080278877891541356e+01 2.910000000000000000e+02
7.108449058400513110e+00 7.221162077901709608e+01 2.910000000000000000e+02
7.231706494239140248e+00 7.362045277911876440e+01 2.910000000000000000e+02
7.354963930077768275e+00 7.502928477922044692e+01 2.910000000000000000e+02
5.356344853721338950e+00 6.029817749607217081e+01 2.920000000000000000e+02
5.479602289559966977e+00 6.170700949617384623e+01 2.920000000000000000e+02
5.602859725398594115e+00 6.311584149627552165e+01 2.920000000000000000e+02
5.726117161237222142e+00 6.452467349637718996e+01 2.920000000000000000e+02
5.849374597075849280e+00 6.593350549647887249e+01 2.920000000000000000e+02
5.972632032914477307e+00 6.734233749658054080e+01 2.920000000000000000e+02
6.095889468753105334e+00 6.875116949668222333e+01 2.920000000000000000e+02
6.219146904591733360e+00 7.016000149678389164e+01 2.920000000000000000e+02
6.342404340430361387e+00 7.156883349688557416e+01 2.920000000000000000e+02
6.465661776268989414e+00 7.297766549698724248e+01 2.920000000000000000e+02
6.588919212107616552e+00 7.438649749708892500e+01 2.920000000000000000e+02
6.712176647946244579e+00 7.579532949719059332e+01 2.920000000000000000e+02
5.356344853721338950e+00 6.029817749607217081e+01 2.930000000000000000e+02
5.479602289559966977e+00 6.170700949617384623e+01 2.930000000000000000e+02
5.602859725398594115e+00 6.311584149627552165e+01 2.930000000000000000e+02
5.726117161237222142e+00 6.452467349637718996e+01 2.930000000000000000e+02
5.849374597075849280e+00 6.593350549647887249e+01 2.930000000000000000e+02
5.972632032914477307e+00 6.734233749658054080e+01 2.930000000000000000e+02
6.095889468753105334e+00 6.875116949668222333e+01 2.930000000000000000e+02
6.219146904591733360e+00 7.016000149678389164e+01 2.930000000000000000e+02
6.342404340430361387e+00 7.156883349688557416e+01 2.930000000000000000e+02
6.465661776268989414e+00 7.297766549698724248e+01 2.930000000000000000e+02
6.588919212107616552e+00 7.438649749708892500e+01 2.930000000000000000e+02
6.712176647946244579e+00 7.579532949719059332e+01 2.930000000000000000e+02
6.122389571691490673e+00 6.094096477820369273e+01 2.940000000000000000e+02
6.245647007530117811e+00 6.234979677830536815e+01 2.940000000000000000e+02
6.368904443368745838e+00 6.375862877840704357e+01 2.940000000000000000e+02
6.492161879207372976e+00 6.516746077850871188e+01 2.940000000000000000e+02
6.615419315046001003e+00 6.657629277861039441e+01 2.940000000000000000e+02
6.738676750884629030e+00 6.798512477871206272e+01 2.940000000000000000e+02
6.861934186723257056e+00 6.939395677881374525e+01 2.940000000000000000e+02
6.985191622561885083e+00 7.080278877891541356e+01 2.940000000000000000e+02
7.108449058400513110e+00 7.221162077901709608e+01 2.940000000000000000e+02
7.231706494239140248e+00 7.362045277911876440e+01 2.940000000000000000e+02
7.354963930077768275e+00 7.502928477922044692e+01 2.940000000000000000e+02
6.122389571691490673e+00 6.094096477820369273e+01 2.950000000000000000e+02
6.245647007530117811e+00 6.234979677830536815e+01 2.950000000000000000e+02
6.368904443368745838e+00 6.375862877840704357e+01 2.950000000000000000e+02
6.492161879207372976e+00 6.516746077850871188e+01 2.950000000000000000e+02
6.615419315046001003e+00 6.657629277861039441e+01 2.950000000000000000e+02
6.738676750884629030e+00 6.798512477871206272e+01 2.950000000000000000e+02
6.861934186723257056e+00 6.939395677881374525e+01 2.950000000000000000e+02
6.985191622561885083e+00 7.080278877891541356e+01 2.950000000000000000e+02
7.108449058400513110e+00 7.221162077901709608e+01 2.950000000000000000e+02
7.231706494239140248e+00 7.362045277911876440e+01 2.950000000000000000e+02
7.354963930077768275e+00 7.502928477922044692e+01 2.950000000000000000e+02
6.122389571691490673e+00 6.094096477820369273e+01 2.960000000000000000e+02
6.245647007530117811e+00 6.234979677830536815e+01 2.960000000000000000e+02
6.368904443368745838e+00 6.375862877840704357e+01 2.960000000000000000e+02
6.492161879207372976e+00 6.516746077850871188e+01 2.960000000000000000e+02
6.615419315046001003e+00 6.657629277861039441e+01 2.960000000000000000e+02
6.738676750884629030e+00 6.798512477871206272e+01 2.960000000000000000e+02
6.861934186723257056e+00 6.939395677881374525e+01 2.960000000000000000e+02
6.985191622561885083e+00 7.080278877891541356e+01 2.960000000000000000e+02
7.108449058400513110e+00 7.221162077901709608e+01 2.960000000000000000e+02
7.231706494239140248e+00 7.362045277911876440e+01 2.960000000000000000e+02
7.354963930077768275e+00 7.502928477922044692e+01 2.960000000000000000e+02
5.356344853721338950e+00 6.029817749607217081e+01 2.970000000000000000e+02
5.479602289559966977e+00 6.170700949617384623e+01 2.970000000000000000e+02
5.602859725398594115e+00 6.311584149627552165e+01 2.970000000000000000e+02
5.726117161237222142e+00 6.452467349637718996e+01 2.970000000000000000e+02
5.849374597075849280e+00 6.593350549647887249e+01 2.970000000000000000e+02
5.972632032914477307e+00 6.734233749658054080e+01 2.970000000000000000e+02
6.095889468753105334e+00 6.875116949668222333e+01 2.970000000000000000e+02
6.219146904591733360e+00 7.016000149678389164e+01 2.970000000000000000e+02
6.342404340430361387e+00 7.156883349688557416e+01 2.970000000000000000e+02
6.465661776268989414e+00 7.297766549698724248e+01 2.970000000000000000e+02
6.588919212107616552e+00 7.438649749708892500e+01 2.970000000000000000e+02
6.712176647946244579e+00 7.579532949719059332e+01 2.970000000000000000e+02
5.356344853721338950e+00 6.029817749607217081e+01 2.980000000000000000e+02
5.479602289559966977e+00 6.170700949617384623e+01 2.980000000000000000e+02
5.602859725398594115e+00 6.311584149627552165e+01 2.980000000000000000e+02
5.726117161237222142e+00 6.452467349637718996e+01 2.980000000000000000e+02
5.849374597075849280e+00 6.593350549647887249e+01 2.980000000000000000e+02
5.972632032914477307e+00 6.734233749658054080e+01 2.980000000000000000e+02
6.095889468753105334e+00 6.875116949668222333e+01 2.980000000000000000e+02
6.219146904591733360e+00 7.016000149678389164e+01 2.980000000000000000e+02
6.342404340430361387e+00 7.156883349688557416e+01 2.980000000000000000e+02
6.465661776268989414e+00 7.297766549698724248e+01 2.980000000000000000e+02
6.588919212107616552e+00 7.438649749708892500e+01 2.980000000000000000e+02
6.712176647946244579e+00 7.579532949719059332e+01 2.980000000000000000e+02
5.356344853721338950e+00 6.029817749607217081e+01 2.990000000000000000e+02
5.479602289559966977e+00 6.170700949617384623e+01 2.990000000000000000e+02
5.602859725398594115e+00 6.311584149627552165e+01 2.990000000000000000e+02
5.726117161237222142e+00 6.452467349637718996e+01 2.990000000000000000e+02
5.849374597075849280e+00 6.593350549647887249e+01 2.990000000000000000e+02
5.972632032914477307e+00 6.734233749658054080e+01 2.990000000000000000e+02
6.095889468753105334e+00 6.875116949668222333e+01 2.990000000000000000e+02
6.219146904591733360e+00 7.016000149678389164e+01 2.990000000000000000e+02
6.342404340430361387e+00 7.156883349688557416e+01 2.990000000000000000e+02
6.465661776268989414e+00 7.297766549698724248e+01 2.990000000000000000e+02
6.588919212107616552e+00 7.438649749708892500e+01 2.990000000000000000e+02
6.712176647946244579e+00 7.579532949719059332e+01 2.990000000000000000e+02
5.356344853721338950e+00 6.029817749607217081e+01 3.000000000000000000e+02
5.479602289559966977e+00 6.170700949617384623e+01 3.000000000000000000e+02
5.602859725398594115e+00 6.311584149627552165e+01 3.000000000000000000e+02
5.726117161237222142e+00 6.452467349637718996e+01 3.000000000000000000e+02
5.849374597075849280e+00 6.593350549647887249e+01 3.000000000000000000e+02
5.972632032914477307e+00 6.734233749658054080e+01 3.000000000000000000e+02
6.095889468753105334e+00 6.875116949668222333e+01 3.000000000000000000e+02
6.219146904591733360e+00 7.016000149678389164e+01 3.000000000000000000e+02
6.342404340430361387e+00 7.156883349688557416e+01 3.000000000000000000e+02
6.465661776268989414e+00 7.297766549698724248e+01 3.000000000000000000e+02
6.588919212107616552e+00 7.438649749708892500e+01 3.000000000000000000e+02
6.712176647946244579e+00 7.579532949719059332e+01 3.000000000000000000e+02
5.356344853721338950e+00 6.029817749607217081e+01 3.010000000000000000e+02
5.479602289559966977e+00 6.170700949617384623e+01 3.010000000000000000e+02
5.602859725398594115e+00 6.311584149627552165e+01 3.010000000000000000e+02
5.726117161237222142e+00 6.452467349637718996e+01 3.010000000000000000e+02
5.849374597075849280e+00 6.593350549647887249e+01 3.010000000000000000e+02
5.972632032914477307e+00 6.734233749658054080e+01 3.010000000000000000e+02
6.095889468753105334e+00 6.875116949668222333e+01 3.010000000000000000e+02
6.219146904591733360e+00 7.016000149678389164e+01 3.010000000000000000e+02
6.342404340430361387e+00 7.156883349688557416e+01 3.010000000000000000e+02
6.465661776268989414e+00 7.297766549698724248e+01 3.010000000000000000e+02
6.588919212107616552e+00 7.438649749708892500e+01 3.010000000000000000e+02
6.712176647946244579e+00 7.579532949719059332e+01 3.010000000000000000e+02
5.356344853721338950e+00 6.029817749607217081e+01 3.020000000000000000e+02
5.479602289559966977e+00 6.170700949617384623e+01 3.020000000000000000e+02
5.602859725398594115e+00 6.311584149627552165e+01 3.020000000000000000e+02
5.726117161237222142e+00 6.452467349637718996e+01 3.020000000000000000e+02
5.849374597075849280e+00 6.593350549647887249e+01 3.020000000000000000e+02
5.972632032914477307e+00 6.734233749658054080e+01 3.020000000000000000e+02
6.095889468753105334e+00 6.875116949668222333e+01 3.020000000000000000e+02
6.219146904591733360e+00 7.016000149678389164e+01 3.020000000000000000e+02
6.342404340430361387e+00 7.156883349688557416e+01 3.020000000000000000e+02
6.465661776268989414e+00 7.297766549698724248e+01 3.020000000000000000e+02
6.588919212107616552e+00 7.438649749708892500e+01 3.020000000000000000e+02
6.712176647946244579e+00 7.579532949719059332e+01 3.020000000000000000e+02
5.356344853721338950e+00 6.029817749607217081e+01 3.030000000000000000e+02
5.479602289559966977e+00 6.170700949617384623e+01 3.030000000000000000e+02
5.602859725398594115e+00 6.311584149627552165e+01 3.030000000000000000e+02
5.726117161237222142e+00 6.452467349637718996e+01 3.030000000000000000e+02
5.849374597075849280e+00 6.593350549647887249e+01 3.030000000000000000e+02
5.972632032914477307e+00 6.734233749658054080e+01 3.030000000000000000e+02
6.095889468753105334e+00 6.875116949668222333e+01 3.030000000000000000e+02
6.219146904591733360e+00 7.016000149678389164e+01 3.030000000000000000e+02
6.342404340430361387e+00 7.156883349688557416e+01 3.030000000000000000e+02
6.465661776268989414e+00 7.297766549698724248e+01 3.030000000000000000e+02
6.588919212107616552e+00 7.438649749708892500e+01 3.030000000000000000e+02
6.712176647946244579e+00 7.579532949719059332e+01 3.030000000000000000e+02
5.356344853721338950e+00 6.029817749607217081e+01 3.040000000000000000e+02
5.479602289559966977e+00 6.170700949617384623e+01 3.040000000000000000e+02
5.602859725398594115e+00 6.311584149627552165e+01 3.040000000000000000e+02
5.726117161237222142e+00 6.452467349637718996e+01 3.040000000000000000e+02
5.849374597075849280e+00 6.593350549647887249e+01 3.040000000000000000e+02
5.972632032914477307e+00 6.734233749658054080e+01 3.040000000000000000e+02
6.095889468753105334e+00 6.875116949668222333e+01 3.040000000000000000e+02
6.219146904591733360e+00 7.016000149678389164e+01 3.040000000000000000e+02
