4.771657105847032732e+00 7.076067343892368910e+01 3.730000000000000000e+02
3.419236793712621569e+00 7.034720119157658758e+01 3.730000000000000000e+02
2.066816481578210407e+00 6.993372894422950026e+01 3.730000000000000000e+02
7.143961694437983567e-01 6.952025669688239873e+01 3.730000000000000000e+02
-6.380241426906128055e-01 6.910678444953529720e+01 3.730000000000000000e+02
-1.990444454825023968e+00 6.869331220218819567e+01 3.730000000000000000e+02
1.018133835438467827e+01 7.241456242831209522e+01 3.740000000000000000e+02
8.828918042250267106e+00 7.200109018096499369e+01 3.740000000000000000e+02
7.476497730115855944e+00 7.158761793361789216e+01 3.740000000000000000e+02
6.124077417981444782e+00 7.117414568627079063e+01 3.740000000000000000e+02
4.771657105847032732e+00 7.076067343892368910e+01 3.740000000000000000e+02
3.419236793712621569e+00 7.034720119157658758e+01 3.740000000000000000e+02
2.066816481578210407e+00 6.993372894422950026e+01 3.740000000000000000e+02
7.143961694437983567e-01 6.952025669688239873e+01 3.740000000000000000e+02
-6.380241426906128055e-01 6.910678444953529720e+01 3.740000000000000000e+02
-1.990444454825023968e+00 6.869331220218819567e+01 3.740000000000000000e+02
1.018133835438467827e+01 7.241456242831209522e+01 3.750000000000000000e+02
8.828918042250267106e+00 7.200109018096499369e+01 3.750000000000000000e+02
7.476497730115855944e+00 7.158761793361789216e+01 3.750000000000000000e+02
6.124077417981444782e+00 7.117414568627079063e+01 3.750000000000000000e+02
4.771657105847032732e+00 7.076067343892368910e+01 3.750000000000000000e+02
3.419236793712621569e+00 7.034720119157658758e+01 3.750000000000000000e+02
2.066816481578210407e+00 6.993372894422950026e+01 3.750000000000000000e+02
7.143961694437983567e-01 6.952025669688239873e+01 3.750000000000000000e+02
-6.380241426906128055e-01 6.910678444953529720e+01 3.750000000000000000e+02
-1.990444454825023968e+00 6.869331220218819567e+01 3.750000000000000000e+02
1.018133835438467827e+01 7.241456242831209522e+01 3.760000000000000000e+02
8.828918042250267106e+00 7.200109018096499369e+01 3.760000000000000000e+02
7.476497730115855944e+00 7.158761793361789216e+01 3.760000000000000000e+02
6.124077417981444782e+00 7.117414568627079063e+01 3.760000000000000000e+02
4.771657105847032732e+00 7.076067343892368910e+01 3.760000000000000000e+02
3.419236793712621569e+00 7.034720119157658758e+01 3.760000000000000000e+02
2.066816481578210407e+00 6.993372894422950026e+01 3.760000000000000000e+02
7.143961694437983567e-01 6.952025669688239873e+01 3.760000000000000000e+02
-6.380241426906128055e-01 6.910678444953529720e+01 3.760000000000000000e+02
-1.990444454825023968e+00 6.869331220218819567e+01 3.760000000000000000e+02
1.018133835438467827e+01 7.241456242831209522e+01 3.770000000000000000e+02
8.828918042250267106e+00 7.200109018096499369e+01 3.770000000000000000e+02
7.476497730115855944e+00 7.158761793361789216e+01 3.770000000000000000e+02
6.124077417981444782e+00 7.117414568627079063e+01 3.770000000000000000e+02
4.771657105847032732e+00 7.076067343892368910e+01 3.770000000000000000e+02
3.419236793712621569e+00 7.034720119157658758e+01 3.770000000000000000e+02
2.066816481578210407e+00 6.993372894422950026e+01 3.770000000000000000e+02
7.143961694437983567e-01 6.952025669688239873e+01 3.770000000000000000e+02
-6.380241426906128055e-01 6.910678444953529720e+01 3.770000000000000000e+02
-1.990444454825023968e+00 6.869331220218819567e+01 3.770000000000000000e+02
1.018133835438467827e+01 7.241456242831209522e+01 3.780000000000000000e+02
8.828918042250267106e+00 7.200109018096499369e+01 3.780000000000000000e+02
7.476497730115855944e+00 7.158761793361789216e+01 3.780000000000000000e+02
6.124077417981444782e+00 7.117414568627079063e+01 3.780000000000000000e+02
4.771657105847032732e+00 7.076067343892368910e+01 3.780000000000000000e+02
3.419236793712621569e+00 7.034720119157658758e+01 3.780000000000000000e+02
2.066816481578210407e+00 6.993372894422950026e+01 3.780000000000000000e+02
7.143961694437983567e-01 6.952025669688239873e+01 3.780000000000000000e+02
-6.380241426906128055e-01 6.910678444953529720e+01 3.780000000000000000e+02
-1.990444454825023968e+00 6.869331220218819567e+01 3.780000000000000000e+02
1.018133835438467827e+01 7.241456242831209522e+01 3.790000000000000000e+02
8.828918042250267106e+00 7.200109018096499369e+01 3.790000000000000000e+02
7.476497730115855944e+00 7.158761793361789216e+01 3.790000000000000000e+02
6.124077417981444782e+00 7.117414568627079063e+01 3.790000000000000000e+02
4.771657105847032732e+00 7.076067343892368910e+01 3.790000000000000000e+02
3.419236793712621569e+00 7.034720119157658758e+01 3.790000000000000000e+02
2.066816481578210407e+00 6.993372894422950026e+01 3.790000000000000000e+02
7.143961694437983567e-01 6.952025669688239873e+01 3.790000000000000000e+02
-6.380241426906128055e-01 6.910678444953529720e+01 3.790000000000000000e+02
-1.990444454825023968e+00 6.869331220218819567e+01 3.790000000000000000e+02
1.018133835438467827e+01 7.241456242831209522e+01 3.800000000000000000e+02
8.828918042250267106e+00 7.200109018096499369e+01 3.800000000000000000e+02
7.476497730115855944e+00 7.158761793361789216e+01 3.800000000000000000e+02
6.124077417981444782e+00 7.117414568627079063e+01 3.800000000000000000e+02
4.771657105847032732e+00 7.076067343892368910e+01 3.800000000000000000e+02
3.419236793712621569e+00 7.034720119157658758e+01 3.800000000000000000e+02
2.066816481578210407e+00 6.993372894422950026e+01 3.800000000000000000e+02
7.143961694437983567e-01 6.952025669688239873e+01 3.800000000000000000e+02
-6.380241426906128055e-01 6.910678444953529720e+01 3.800000000000000000e+02
-1.990444454825023968e+00 6.869331220218819567e+01 3.800000000000000000e+02
1.018133835438467827e+01 7.241456242831209522e+01 3.810000000000000000e+02
8.828918042250267106e+00 7.200109018096499369e+01 3.810000000000000000e+02
7.476497730115855944e+00 7.158761793361789216e+01 3.810000000000000000e+02
6.124077417981444782e+00 7.117414568627079063e+01 3.810000000000000000e+02
4.771657105847032732e+00 7.076067343892368910e+01 3.810000000000000000e+02
3.419236793712621569e+00 7.034720119157658758e+01 3.810000000000000000e+02
2.066816481578210407e+00 6.993372894422950026e+01 3.810000000000000000e+02
7.143961694437983567e-01 6.952025669688239873e+01 3.810000000000000000e+02
-6.380241426906128055e-01 6.910678444953529720e+01 3.810000000000000000e+02
-1.990444454825023968e+00 6.869331220218819567e+01 3.810000000000000000e+02
1.018133835438467827e+01 7.241456242831209522e+01 3.820000000000000000e+02
8.828918042250267106e+00 7.200109018096499369e+01 3.820000000000000000e+02
7.476497730115855944e+00 7.158761793361789216e+01 3.820000000000000000e+02
6.124077417981444782e+00 7.117414568627079063e+01 3.820000000000000000e+02
4.771657105847032732e+00 7.076067343892368910e+01 3.820000000000000000e+02
3.419236793712621569e+00 7.034720119157658758e+01 3.820000000000000000e+02
2.066816481578210407e+00 6.993372894422950026e+01 3.820000000000000000e+02
7.143961694437983567e-01 6.952025669688239873e+01 3.820000000000000000e+02
-6.380241426906128055e-01 6.910678444953529720e+01 3.820000000000000000e+02
-1.990444454825023968e+00 6.869331220218819567e+01 3.820000000000000000e+02
1.018133835438467827e+01 7.241456242831209522e+01 3.830000000000000000e+02
8.828918042250267106e+00 7.200109018096499369e+01 3.830000000000000000e+02
7.476497730115855944e+00 7.158761793361789216e+01 3.830000000000000000e+02
6.124077417981444782e+00 7.117414568627079063e+01 3.830000000000000000e+02
4.771657105847032732e+00 7.076067343892368910e+01 3.830000000000000000e+02
3.419236793712621569e+00 7.034720119157658758e+01 3.830000000000000000e+02
2.066816481578210407e+00 6.993372894422950026e+01 3.830000000000000000e+02
7.143961694437983567e-01 6.952025669688239873e+01 3.830000000000000000e+02
-6.380241426906128055e-01 6.910678444953529720e+01 3.830000000000000000e+02
-1.990444454825023968e+00 6.869331220218819567e+01 3.830000000000000000e+02
1.018133835438467827e+01 7.241456242831209522e+01 3.840000000000000000e+02
8.828918042250267106e+00 7.200109018096499369e+01 3.840000000000000000e+02
7.476497730115855944e+00 7.158761793361789216e+01 3.840000000000000000e+02
6.124077417981444782e+00 7.117414568627079063e+01 3.840000000000000000e+02
4.771657105847032732e+00 7.076067343892368910e+01 3.840000000000000000e+02
3.419236793712621569e+00 7.034720119157658758e+01 3.840000000000000000e+02
2.066816481578210407e+00 6.993372894422950026e+01 3.840000000000000000e+02
7.143961694437983567e-01 6.952025669688239873e+01 3.840000000000000000e+02
-6.380241426906128055e-01 6.910678444953529720e+01 3.840000000000000000e+02
-1.990444454825023968e+00 6.869331220218819567e+01 3.840000000000000000e+02
1.018133835438467827e+01 7.241456242831209522e+01 3.850000000000000000e+02
8.828918042250267106e+00 7.200109018096499369e+01 3.850000000000000000e+02
7.476497730115855944e+00 7.158761793361789216e+01 3.850000000000000000e+02
6.124077417981444782e+00 7.117414568627079063e+01 3.850000000000000000e+02
4.771657105847032732e+00 7.076067343892368910e+01 3.850000000000000000e+02
3.419236793712621569e+00 7.034720119157658758e+01 3.850000000000000000e+02
2.066816481578210407e+00 6.993372894422950026e+01 3.850000000000000000e+02
7.143961694437983567e-01 6.952025669688239873e+01 3.850000000000000000e+02
-6.380241426906128055e-01 6.910678444953529720e+01 3.850000000000000000e+02
-1.990444454825023968e+00 6.869331220218819567e+01 3.850000000000000000e+02
1.018133835438467827e+01 7.241456242831209522e+01 3.860000000000000000e+02
8.828918042250267106e+00 7.200109018096499369e+01 3.860000000000000000e+02
7.476497730115855944e+00 7.158761793361789216e+01 3.860000000000000000e+02
6.124077417981444782e+00 7.117414568627079063e+01 3.860000000000000000e+02
4.771657105847032732e+00 7.076067343892368910e+01 3.860000000000000000e+02
3.419236793712621569e+00 7.034720119157658758e+01 3.860000000000000000e+02
2.066816481578210407e+00 6.993372894422950026e+01 3.860000000000000000e+02
7.143961694437983567e-01 6.952025669688239873e+01 3.860000000000000000e+02
-6.380241426906128055e-01 6.910678444953529720e+01 3.860000000000000000e+02
-1.990444454825023968e+00 6.869331220218819567e+01 3.860000000000000000e+02
1.018133835438467827e+01 7.241456242831209522e+01 3.870000000000000000e+02
8.828918042250267106e+00 7.200109018096499369e+01 3.870000000000000000e+02
7.476497730115855944e+00 7.158761793361789216e+01 3.870000000000000000e+02
6.124077417981444782e+00 7.117414568627079063e+01 3.870000000000000000e+02
4.771657105847032732e+00 7.076067343892368910e+01 3.870000000000000000e+02
3.419236793712621569e+00 7.034720119157658758e+01 3.870000000000000000e+02
2.066816481578210407e+00 6.993372894422950026e+01 3.870000000000000000e+02
7.143961694437983567e-01 6.952025669688239873e+01 3.870000000000000000e+02
-6.380241426906128055e-01 6.910678444953529720e+01 3.870000000000000000e+02
-1.990444454825023968e+00 6.869331220218819567e+01 3.870000000000000000e+02
1.018133835438467827e+01 7.241456242831209522e+01 3.880000000000000000e+02
8.828918042250267106e+00 7.200109018096499369e+01 3.880000000000000000e+02
7.476497730115855944e+00 7.158761793361789216e+01 3.880000000000000000e+02
6.124077417981444782e+00 7.117414568627079063e+01 3.880000000000000000e+02
4.771657105847032732e+00 7.076067343892368910e+01 3.880000000000000000e+02
3.419236793712621569e+00 7.034720119157658758e+01 3.880000000000000000e+02
2.066816481578210407e+00 6.993372894422950026e+01 3.880000000000000000e+02
7.143961694437983567e-01 6.952025669688239873e+01 3.880000000000000000e+02
-6.380241426906128055e-01 6.910678444953529720e+01 3.880000000000000000e+02
-1.990444454825023968e+00 6.869331220218819567e+01 3.880000000000000000e+02
1.018133835438467827e+01 7.241456242831209522e+01 3.890000000000000000e+02
8.828918042250267106e+00 7.200109018096499369e+01 3.890000000000000000e+02
7.476497730115855944e+00 7.158761793361789216e+01 3.890000000000000000e+02
6.124077417981444782e+00 7.117414568627079063e+01 3.890000000000000000e+02
4.771657105847032732e+00 7.076067343892368910e+01 3.890000000000000000e+02
3.419236793712621569e+00 7.034720119157658758e+01 3.890000000000000000e+02
2.066816481578210407e+00 6.993372894422950026e+01 3.890000000000000000e+02
7.143961694437983567e-01 6.952025669688239873e+01 3.890000000000000000e+02
-6.380241426906128055e-01 6.910678444953529720e+01 3.890000000000000000e+02
-1.990444454825023968e+00 6.869331220218819567e+01 3.890000000000000000e+02
1.018133835438467827e+01 7.241456242831209522e+01 3.900000000000000000e+02
8.828918042250267106e+00 7.200109018096499369e+01 3.900000000000000000e+02
7.476497730115855944e+00 7.158761793361789216e+01 3.900000000000000000e+02
6.124077417981444782e+00 7.117414568627079063e+01 3.900000000000000000e+02
4.771657105847032732e+00 7.076067343892368910e+01 3.900000000000000000e+02
3.419236793712621569e+00 7.034720119157658758e+01 3.900000000000000000e+02
2.066816481578210407e+00 6.993372894422950026e+01 3.900000000000000000e+02
7.143961694437983567e-01 6.952025669688239873e+01 3.900000000000000000e+02
-6.380241426906128055e-01 6.910678444953529720e+01 3.900000000000000000e+02
-1.990444454825023968e+00 6.869331220218819567e+01 3.900000000000000000e+02
1.018133835438467827e+01 7.241456242831209522e+01 3.910000000000000000e+02
8.828918042250267106e+00 7.200109018096499369e+01 3.910000000000000000e+02
7.476497730115855944e+00 7.158761793361789216e+01 3.910000000000000000e+02
6.124077417981444782e+00 7.117414568627079063e+01 3.910000000000000000e+02
4.771657105847032732e+00 7.076067343892368910e+01 3.910000000000000000e+02
3.419236793712621569e+00 7.034720119157658758e+01 3.910000000000000000e+02
2.066816481578210407e+00 6.993372894422950026e+01 3.910000000000000000e+02
7.143961694437983567e-01 6.952025669688239873e+01 3.910000000000000000e+02
-6.380241426906128055e-01 6.910678444953529720e+01 3.910000000000000000e+02
-1.990444454825023968e+00 6.869331220218819567e+01 3.910000000000000000e+02
1.018133835438467827e+01 7.241456242831209522e+01 3.920000000000000000e+02
8.828918042250267106e+00 7.200109018096499369e+01 3.920000000000000000e+02
7.476497730115855944e+00 7.158761793361789216e+01 3.920000000000000000e+02
6.124077417981444782e+00 7.117414568627079063e+01 3.920000000000000000e+02
4.771657105847032732e+00 7.076067343892368910e+01 3.920000000000000000e+02
3.419236793712621569e+00 7.034720119157658758e+01 3.920000000000000000e+02
2.066816481578210407e+00 6.993372894422950026e+01 3.920000000000000000e+02
7.143961694437983567e-01 6.952025669688239873e+01 3.920000000000000000e+02
-6.380241426906128055e-01 6.910678444953529720e+01 3.920000000000000000e+02
-1.990444454825023968e+00 6.869331220218819567e+01 3.920000000000000000e+02
1.018133835438467827e+01 7.241456242831209522e+01 3.930000000000000000e+02
8.828918042250267106e+00 7.200109018096499369e+01 3.930000000000000000e+02
7.476497730115855944e+00 7.158761793361789216e+01 3.930000000000000000e+02
6.124077417981444782e+00 7.117414568627079063e+01 3.930000000000000000e+02
4.771657105847032732e+00 7.076067343892368910e+01 3.930000000000000000e+02
3.419236793712621569e+00 7.034720119157658758e+01 3.930000000000000000e+02
2.066816481578210407e+00 6.993372894422950026e+01 3.930000000000000000e+02
7.143961694437983567e-01 6.952025669688239873e+01 3.930000000000000000e+02
-6.380241426906128055e-01 6.910678444953529720e+01 3.930000000000000000e+02
-1.990444454825023968e+00 6.869331220218819567e+01 3.930000000000000000e+02
1.018133835438467827e+01 7.241456242831209522e+01 3.940000000000000000e+02
8.828918042250267106e+00 7.200109018096499369e+01 3.940000000000000000e+02
7.476497730115855944e+00 7.158761793361789216e+01 3.940000000000000000e+02
6.124077417981444782e+00 7.117414568627079063e+01 3.940000000000000000e+02
4.771657105847032732e+00 7.076067343892368910e+01 3.940000000000000000e+02
3.419236793712621569e+00 7.034720119157658758e+01 3.940000000000000000e+02
2.066816481578210407e+00 6.993372894422950026e+01 3.940000000000000000e+02
7.143961694437983567e-01 6.952025669688239873e+01 3.940000000000000000e+02
-6.380241426906128055e-01 6.910678444953529720e+01 3.940000000000000000e+02
-1.990444454825023968e+00 6.869331220218819567e+01 3.940000000000000000e+02
1.018133835438467827e+01 7.241456242831209522e+01 3.950000000000000000e+02
8.828918042250267106e+00 7.200109018096499369e+01 3.950000000000000000e+02
7.476497730115855944e+00 7.158761793361789216e+01 3.950000000000000000e+02
6.124077417981444782e+00 7.117414568627079063e+01 3.950000000000000000e+02
4.771657105847032732e+00 7.076067343892368910e+01 3.950000000000000000e+02
3.419236793712621569e+00 7.034720119157658758e+01 3.950000000000000000e+02
2.066816481578210407e+00 6.993372894422950026e+01 3.950000000000000000e+02
7.143961694437983567e-01 6.952025669688239873e+01 3.950000000000000000e+02
-6.380241426906128055e-01 6.910678444953529720e+01 3.950000000000000000e+02
-1.990444454825023968e+00 6.869331220218819567e+01 3.950000000000000000e+02
1.018133835438467827e+01 7.241456242831209522e+01 3.960000000000000000e+02
8.828918042250267106e+00 7.200109018096499369e+01 3.960000000000000000e+02
7.476497730115855944e+00 7.158761793361789216e+01 3.960000000000000000e+02
6.124077417981444782e+00 7.117414568627079063e+01 3.960000000000000000e+02
4.771657105847032732e+00 7.076067343892368910e+01 3.960000000000000000e+02
3.419236793712621569e+00 7.034720119157658758e+01 3.960000000000000000e+02
2.066816481578210407e+00 6.993372894422950026e+01 3.960000000000000000e+02
7.143961694437983567e-01 6.952025669688239873e+01 3.960000000000000000e+02
-6.380241426906128055e-01 6.910678444953529720e+01 3.960000000000000000e+02
-1.990444454825023968e+00 6.869331220218819567e+01 3.960000000000000000e+02
1.018133835438467827e+01 7.241456242831209522e+01 3.970000000000000000e+02
8.828918042250267106e+00 7.200109018096499369e+01 3.970000000000000000e+02
7.476497730115855944e+00 7.158761793361789216e+01 3.970000000000000000e+02
6.124077417981444782e+00 7.117414568627079063e+01 3.970000000000000000e+02
4.771657105847032732e+00 7.076067343892368910e+01 3.970000000000000000e+02
3.419236793712621569e+00 7.034720119157658758e+01 3.970000000000000000e+02
2.066816481578210407e+00 6.993372894422950026e+01 3.970000000000000000e+02
7.143961694437983567e-01 6.952025669688239873e+01 3.970000000000000000e+02
-6.380241426906128055e-01 6.910678444953529720e+01 3.970000000000000000e+02
-1.990444454825023968e+00 6.869331220218819567e+01 3.970000000000000000e+02
1.018133835438467827e+01 7.241456242831209522e+01 3.980000000000000000e+02
8.828918042250267106e+00 7.200109018096499369e+01 3.980000000000000000e+02
7.476497730115855944e+00 7.158761793361789216e+01 3.980000000000000000e+02
6.124077417981444782e+00 7.117414568627079063e+01 3.980000000000000000e+02
4.771657105847032732e+00 7.076067343892368910e+01 3.980000000000000000e+02
3.419236793712621569e+00 7.034720119157658758e+01 3.980000000000000000e+02
2.066816481578210407e+00 6.993372894422950026e+01 3.980000000000000000e+02
7.143961694437983567e-01 6.952025669688239873e+01 3.980000000000000000e+02
-6.380241426906128055e-01 6.910678444953529720e+01 3.980000000000000000e+02
-1.990444454825023968e+00 6.869331220218819567e+01 3.980000000000000000e+02
1.018133835438467827e+01 7.241456242831209522e+01 3.990000000000000000e+02
8.828918042250267106e+00 7.200109018096499369e+01 3.990000000000000000e+02
7.476497730115855944e+00 7.158761793361789216e+01 3.990000000000000000e+02
6.124077417981444782e+00 7.117414568627079063e+01 3.990000000000000000e+02
4.771657105847032732e+00 7.076067343892368910e+01 3.990000000000000000e+02
3.419236793712621569e+00 7.034720119157658758e+01 3.990000000000000000e+02
2.066816481578210407e+00 6.993372894422950026e+01 3.990000000000000000e+02
7.143961694437983567e-01 6.952025669688239873e+01 3.990000000000000000e+02
-6.380241426906128055e-01 6.910678444953529720e+01 3.990000000000000000e+02
-1.990444454825023968e+00 6.869331220218819567e+01 3.990000000000000000e+02
1.018133835438467827e+01 7.241456242831209522e+01 4.000000000000000000e+02
8.828918042250267106e+00 7.200109018096499369e+01 4.000000000000000000e+02
7.476497730115855944e+00 7.158761793361789216e+01 4.000000000000000000e+02
6.124077417981444782e+00 7.117414568627079063e+01 4.000000000000000000e+02
4.771657105847032732e+00 7.076067343892368910e+01 4.000000000000000000e+02
3.419236793712621569e+00 7.034720119157658758e+01 4.000000000000000000e+02
2.066816481578210407e+00 6.993372894422950026e+01 4.000000000000000000e+02
7.143961694437983567e-01 6.952025669688239873e+01 4.000000000000000000e+02
-6.380241426906128055e-01 6.910678444953529720e+01 4.000000000000000000e+02
-1.990444454825023968e+00 6.869331220218819567e+01 4.000000000000000000e+02
1.018133835438467827e+01 7.241456242831209522e+01 4.010000000000000000e+02
8.828918042250267106e+00 7.200109018096499369e+01 4.010000000000000000e+02
7.476497730115855944e+00 7.158761793361789216e+01 4.010000000000000000e+02
6.124077417981444782e+00 7.117414568627079063e+01 4.010000000000000000e+02
4.771657105847032732e+00 7.076067343892368910e+01 4.010000000000000000e+02
3.419236793712621569e+00 7.034720119157658758e+01 4.010000000000000000e+02
2.066816481578210407e+00 6.993372894422950026e+01 4.010000000000000000e+02
7.143961694437983567e-01 6.952025669688239873e+01 4.010000000000000000e+02
-6.380241426906128055e-01 6.910678444953529720e+01 4.010000000000000000e+02
1.018133835438467827e+01 7.241456242831209522e+01 4.020000000000000000e+02
8.828918042250267106e+00 7.200109018096499369e+01 4.020000000000000000e+02
7.476497730115855944e+00 7.158761793361789216e+01 4.020000000000000000e+02
6.124077417981444782e+00 7.117414568627079063e+01 4.020000000000000000e+02
4.771657105847032732e+00 7.076067343892368910e+01 4.020000000000000000e+02
3.419236793712621569e+00 7.034720119157658758e+01 4.020000000000000000e+02
2.066816481578210407e+00 6.993372894422950026e+01 4.020000000000000000e+02
7.143961694437983567e-01 6.952025669688239873e+01 4.020000000000000000e+02
-6.380241426906128055e-01 6.910678444953529720e+01 4.020000000000000000e+02
1.018133835438467827e+01 7.241456242831209522e+01 4.030000000000000000e+02
8.828918042250267106e+00 7.200109018096499369e+01 4.030000000000000000e+02
7.476497730115855944e+00 7.158761793361789216e+01 4.030000000000000000e+02
6.124077417981444782e+00 7.117414568627079063e+01 4.030000000000000000e+02
4.771657105847032732e+00 7.076067343892368910e+01 4.030000000000000000e+02
3.419236793712621569e+00 7.034720119157658758e+01 4.030000000000000000e+02
2.066816481578210407e+00 6.993372894422950026e+01 4.030000000000000000e+02
7.143961694437983567e-01 6.952025669688239873e+01 4.030000000000000000e+02
-6.380241426906128055e-01 6.910678444953529720e+01 4.030000000000000000e+02
-1.990444454825023968e+00 6.869331220218819567e+01 4.030000000000000000e+02
1.018133835438467827e+01 7.241456242831209522e+01 4.040000000000000000e+02
8.828918042250267106e+00 7.200109018096499369e+01 4.040000000000000000e+02
7.476497730115855944e+00 7.158761793361789216e+01 4.040000000000000000e+02
6.124077417981444782e+00 7.117414568627079063e+01 4.040000000000000000e+02
4.771657105847032732e+00 7.076067343892368910e+01 4.040000000000000000e+02
3.419236793712621569e+00 7.034720119157658758e+01 4.040000000000000000e+02
2.066816481578210407e+00 6.993372894422950026e+01 4.040000000000000000e+02
7.143961694437983567e-01 6.952025669688239873e+01 4.040000000000000000e+02
-6.380241426906128055e-01 6.910678444953529720e+01 4.040000000000000000e+02
-1.990444454825023968e+00 6.869331220218819567e+01 4.040000000000000000e+02
1.018133835438467827e+01 7.241456242831209522e+01 4.050000000000000000e+02
8.828918042250267106e+00 7.200109018096499369e+01 4.050000000000000000e+02
7.476497730115855944e+00 7.158761793361789216e+01 4.050000000000000000e+02
6.124077417981444782e+00 7.117414568627079063e+01 4.050000000000000000e+02
4.771657105847032732e+00 7.076067343892368910e+01 4.050000000000000000e+02
3.419236793712621569e+00 7.034720119157658758e+01 4.050000000000000000e+02
2.066816481578210407e+00 6.993372894422950026e+01 4.050000000000000000e+02
7.143961694437983567e-01 6.952025669688239873e+01 4.050000000000000000e+02
-6.380241426906128055e-01 6.910678444953529720e+01 4.050000000000000000e+02
-1.990444454825023968e+00 6.869331220218819567e+01 4.050000000000000000e+02
1.018133835438467827e+01 7.241456242831209522e+01 4.060000000000000000e+02
8.828918042250267106e+00 7.200109018096499369e+01 4.060000000000000000e+02
7.476497730115855944e+00 7.158761793361789216e+01 4.060000000000000000e+02
6.124077417981444782e+00 7.117414568627079063e+01 4.060000000000000000e+02
4.771657105847032732e+00 7.076067343892368910e+01 4.060000000000000000e+02
3.419236793712621569e+00 7.034720119157658758e+01 4.060000000000000000e+02
2.066816481578210407e+00 6.993372894422950026e+01 4.060000000000000000e+02
7.143961694437983567e-01 6.952025669688239873e+01 4.060000000000000000e+02
-6.380241426906128055e-01 6.910678444953529720e+01 4.060000000000000000e+02
-1.990444454825023968e+00 6.869331220218819567e+01 4.060000000000000000e+02
1.018133835438467827e+01 7.241456242831209522e+01 4.070000000000000000e+02
8.828918042250267106e+00 7.200109018096499369e+01 4.070000000000000000e+02
7.476497730115855944e+00 7.158761793361789216e+01 4.070000000000000000e+02
6.124077417981444782e+00 7.117414568627079063e+01 4.070000000000000000e+02
4.771657105847032732e+00 7.076067343892368910e+01 4.070000000000000000e+02
3.419236793712621569e+00 7.034720119157658758e+01 4.070000000000000000e+02
2.066816481578210407e+00 6.993372894422950026e+01 4.070000000000000000e+02
7.143961694437983567e-01 6.952025669688239873e+01 4.070000000000000000e+02
-6.380241426906128055e-01 6.910678444953529720e+01 4.070000000000000000e+02
1.018133835438467827e+01 7.241456242831209522e+01 4.080000000000000000e+02
8.828918042250267106e+00 7.200109018096499369e+01 4.080000000000000000e+02
7.476497730115855944e+00 7.158761793361789216e+01 4.080000000000000000e+02
6.124077417981444782e+00 7.117414568627079063e+01 4.080000000000000000e+02
4.771657105847032732e+00 7.076067343892368910e+01 4.080000000000000000e+02
3.419236793712621569e+00 7.034720119157658758e+01 4.080000000000000000e+02
2.066816481578210407e+00 6.993372894422950026e+01 4.080000000000000000e+02
7.143961694437983567e-01 6.952025669688239873e+01 4.080000000000000000e+02
-6.380241426906128055e-01 6.910678444953529720e+01 4.080000000000000000e+02
-1.990444454825023968e+00 6.869331220218819567e+01 4.080000000000000000e+02
1.018133835438467827e+01 7.241456242831209522e+01 4.090000000000000000e+02
8.828918042250267106e+00 7.200109018096499369e+01 4.090000000000000000e+02
7.476497730115855944e+00 7.158761793361789216e+01 4.090000000000000000e+02
6.124077417981444782e+00 7.117414568627079063e+01 4.090000000000000000e+02
4.771657105847032732e+00 7.076067343892368910e+01 4.090000000000000000e+02
3.419236793712621569e+00 7.034720119157658758e+01 4.090000000000000000e+02
2.066816481578210407e+00 6.993372894422950026e+01 4.090000000000000000e+02
7.143961694437983567e-01 6.952025669688239873e+01 4.090000000000000000e+02
-6.380241426906128055e-01 6.910678444953529720e+01 4.090000000000000000e+02
-1.990444454825023968e+00 6.869331220218819567e+01 4.090000000000000000e+02
1.018133835438467827e+01 7.241456242831209522e+01 4.100000000000000000e+02
8.828918042250267106e+00 7.200109018096499369e+01 4.100000000000000000e+02
7.476497730115855944e+00 7.158761793361789216e+01 4.100000000000000000e+02
6.124077417981444782e+00 7.117414568627079063e+01 4.100000000000000000e+02
4.771657105847032732e+00 7.076067343892368910e+01 4.100000000000000000e+02
3.419236793712621569e+00 7.034720119157658758e+01 4.100000000000000000e+02
2.066816481578210407e+00 6.993372894422950026e+01 4.100000000000000000e+02
7.143961694437983567e-01 6.952025669688239873e+01 4.100000000000000000e+02
-6.380241426906128055e-01 6.910678444953529720e+01 4.100000000000000000e+02
1.018133835438467827e+01 7.241456242831209522e+01 4.110000000000000000e+02
8.828918042250267106e+00 7.200109018096499369e+01 4.110000000000000000e+02
7.476497730115855944e+00 7.158761793361789216e+01 4.110000000000000000e+02
6.124077417981444782e+00 7.117414568627079063e+01 4.110000000000000000e+02
4.771657105847032732e+00 7.076067343892368910e+01 4.110000000000000000e+02
3.419236793712621569e+00 7.034720119157658758e+01 4.110000000000000000e+02
2.066816481578210407e+00 6.993372894422950026e+01 4.110000000000000000e+02
7.143961694437983567e-01 6.952025669688239873e+01 4.110000000000000000e+02
-6.380241426906128055e-01 6.910678444953529720e+01 4.110000000000000000e+02
1.018133835438467827e+01 7.241456242831209522e+01 4.120000000000000000e+02
8.828918042250267106e+00 7.200109018096499369e+01 4.120000000000000000e+02
7.476497730115855944e+00 7.158761793361789216e+01 4.120000000000000000e+02
6.124077417981444782e+00 7.117414568627079063e+01 4.120000000000000000e+02
4.771657105847032732e+00 7.076067343892368910e+01 4.120000000000000000e+02
3.419236793712621569e+00 7.034720119157658758e+01 4.120000000000000000e+02
2.066816481578210407e+00 6.993372894422950026e+01 4.120000000000000000e+02
7.143961694437983567e-01 6.952025669688239873e+01 4.120000000000000000e+02
-6.380241426906128055e-01 6.910678444953529720e+01 4.120000000000000000e+02
1.018133835438467827e+01 7.241456242831209522e+01 4.130000000000000000e+02
8.828918042250267106e+00 7.200109018096499369e+01 4.130000000000000000e+02
7.476497730115855944e+00 7.158761793361789216e+01 4.130000000000000000e+02
6.124077417981444782e+00 7.117414568627079063e+01 4.130000000000000000e+02
4.771657105847032732e+00 7.076067343892368910e+01 4.130000000000000000e+02
3.419236793712621569e+00 7.034720119157658758e+01 4.130000000000000000e+02
2.066816481578210407e+00 6.993372894422950026e+01 4.130000000000000000e+02
7.143961694437983567e-01 6.952025669688239873e+01 4.130000000000000000e+02
-6.380241426906128055e-01 6.910678444953529720e+01 4.130000000000000000e+02
1.018133835438467827e+01 7.241456242831209522e+01 4.140000000000000000e+02
8.828918042250267106e+00 7.200109018096499369e+01 4.140000000000000000e+02
7.476497730115855944e+00 7.158761793361789216e+01 4.140000000000000000e+02
6.124077417981444782e+00 7.117414568627079063e+01 4.140000000000000000e+02
4.771657105847032732e+00 7.076067343892368910e+01 4.140000000000000000e+02
3.419236793712621569e+00 7.034720119157658758e+01 4.140000000000000000e+02
2.066816481578210407e+00 6.993372894422950026e+01 4.140000000000000000e+02
7.143961694437983567e-01 6.952025669688239873e+01 4.140000000000000000e+02
-6.380241426906128055e-01 6.910678444953529720e+01 4.140000000000000000e+02
1.018133835438467827e+01 7.241456242831209522e+01 4.150000000000000000e+02
8.828918042250267106e+00 7.200109018096499369e+01 4.150000000000000000e+02
7.476497730115855944e+00 7.158761793361789216e+01 4.150000000000000000e+02
6.124077417981444782e+00 7.117414568627079063e+01 4.150000000000000000e+02
4.771657105847032732e+00 7.076067343892368910e+01 4.150000000000000000e+02
3.419236793712621569e+00 7.034720119157658758e+01 4.150000000000000000e+02
2.066816481578210407e+00 6.993372894422950026e+01 4.150000000000000000e+02
7.143961694437983567e-01 6.952025669688239873e+01 4.150000000000000000e+02
-6.380241426906128055e-01 6.910678444953529720e+01 4.150000000000000000e+02
1.018133835438467827e+01 7.241456242831209522e+01 4.160000000000000000e+02
8.828918042250267106e+00 7.200109018096499369e+01 4.160000000000000000e+02
7.476497730115855944e+00 7.158761793361789216e+01 4.160000000000000000e+02
6.124077417981444782e+00 7.117414568627079063e+01 4.160000000000000000e+02
4.771657105847032732e+00 7.076067343892368910e+01 4.160000000000000000e+02
3.419236793712621569e+00 7.034720119157658758e+01 4.160000000000000000e+02
2.066816481578210407e+00 6.993372894422950026e+01 4.160000000000000000e+02
7.143961694437983567e-01 6.952025669688239873e+01 4.160000000000000000e+02
-6.380241426906128055e-01 6.910678444953529720e+01 4.160000000000000000e+02
-1.990444454825023968e+00 6.869331220218819567e+01 4.160000000000000000e+02
1.018133835438467827e+01 7.241456242831209522e+01 4.170000000000000000e+02
8.828918042250267106e+00 7.200109018096499369e+01 4.170000000000000000e+02
7.476497730115855944e+00 7.158761793361789216e+01 4.170000000000000000e+02
6.124077417981444782e+00 7.117414568627079063e+01 4.170000000000000000e+02
4.771657105847032732e+00 7.076067343892368910e+01 4.170000000000000000e+02
3.419236793712621569e+00 7.034720119157658758e+01 4.170000000000000000e+02
2.066816481578210407e+00 6.993372894422950026e+01 4.170000000000000000e+02
7.143961694437983567e-01 6.952025669688239873e+01 4.170000000000000000e+02
-6.380241426906128055e-01 6.910678444953529720e+01 4.170000000000000000e+02
-1.990444454825023968e+00 6.869331220218819567e+01 4.170000000000000000e+02
1.018133835438467827e+01 7.241456242831209522e+01 4.180000000000000000e+02
8.828918042250267106e+00 7.200109018096499369e+01 4.180000000000000000e+02
7.476497730115855944e+00 7.158761793361789216e+01 4.180000000000000000e+02
6.124077417981444782e+00 7.117414568627079063e+01 4.180000000000000000e+02
4.771657105847032732e+00 7.076067343892368910e+01 4.180000000000000000e+02
3.419236793712621569e+00 7.034720119157658758e+01 4.180000000000000000e+02
2.066816481578210407e+00 6.993372894422950026e+01 4.180000000000000000e+02
7.143961694437983567e-01 6.952025669688239873e+01 4.180000000000000000e+02
-6.380241426906128055e-01 6.910678444953529720e+01 4.180000000000000000e+02
-1.990444454825023968e+00 6.869331220218819567e+01 4.180000000000000000e+02
1.018133835438467827e+01 7.241456242831209522e+01 4.190000000000000000e+02
8.828918042250267106e+00 7.200109018096499369e+01 4.190000000000000000e+02
7.476497730115855944e+00 7.158761793361789216e+01 4.190000000000000000e+02
6.124077417981444782e+00 7.117414568627079063e+01 4.190000000000000000e+02
4.771657105847032732e+00 7.076067343892368910e+01 4.190000000000000000e+02
3.419236793712621569e+00 7.034720119157658758e+01 4.190000000000000000e+02
2.066816481578210407e+00 6.993372894422950026e+01 4.190000000000000000e+02
7.143961694437983567e-01 6.952025669688239873e+01 4.190000000000000000e+02
-6.380241426906128055e-01 6.910678444953529720e+01 4.190000000000000000e+02
-1.990444454825023968e+00 6.869331220218819567e+01 4.190000000000000000e+02
1.018133835438467827e+01 7.241456242831209522e+01 4.200000000000000000e+02
8.828918042250267106e+00 7.200109018096499369e+01 4.200000000000000000e+02
7.476497730115855944e+00 7.158761793361789216e+01 4.200000000000000000e+02
6.124077417981444782e+00 7.117414568627079063e+01 4.200000000000000000e+02
4.771657105847032732e+00 7.076067343892368910e+01 4.200000000000000000e+02
3.419236793712621569e+00 7.034720119157658758e+01 4.200000000000000000e+02
2.066816481578210407e+00 6.993372894422950026e+01 4.200000000000000000e+02
7.143961694437983567e-01 6.952025669688239873e+01 4.200000000000000000e+02
-6.380241426906128055e-01 6.910678444953529720e+01 4.200000000000000000e+02
-1.990444454825023968e+00 6.869331220218819567e+01 4.200000000000000000e+02
1.018133835438467827e+01 7.241456242831209522e+01 4.210000000000000000e+02
8.828918042250267106e+00 7.200109018096499369e+01 4.210000000000000000e+02
7.476497730115855944e+00 7.158761793361789216e+01 4.210000000000000000e+02
6.124077417981444782e+00 7.117414568627079063e+01 4.210000000000000000e+02
4.771657105847032732e+00 7.076067343892368910e+01 4.210000000000000000e+02
3.419236793712621569e+00 7.034720119157658758e+01 4.210000000000000000e+02
2.066816481578210407e+00 6.993372894422950026e+01 4.210000000000000000e+02
7.143961694437983567e-01 6.952025669688239873e+01 4.210000000000000000e+02
-6.380241426906128055e-01 6.910678444953529720e+01 4.210000000000000000e+02
-1.990444454825023968e+00 6.869331220218819567e+01 4.210000000000000000e+02
1.106428463412543373e+01 7.194508839591843241e+01 4.220000000000000000e+02
9.711864321991022564e+00 7.153161614857133088e+01 4.220000000000000000e+02
8.359444009856611402e+00 7.111814390122424356e+01 4.220000000000000000e+02
7.007023697722200239e+00 7.070467165387714203e+01 4.220000000000000000e+02
5.654603385587789077e+00 7.029119940653004051e+01 4.220000000000000000e+02
4.302183073453377027e+00 6.987772715918293898e+01 4.220000000000000000e+02
2.949762761318965865e+00 6.946425491183583745e+01 4.220000000000000000e+02
1.597342449184554702e+00 6.905078266448873592e+01 4.220000000000000000e+02
2.449221370501426520e-01 6.863731041714163439e+01 4.220000000000000000e+02
-1.107498175084268510e+00 6.822383816979453286e+01 4.220000000000000000e+02
-2.459918487218679672e+00 6.781036592244744554e+01 4.220000000000000000e+02
1.018133835438467827e+01 7.241456242831209522e+01 4.230000000000000000e+02
8.828918042250267106e+00 7.200109018096499369e+01 4.230000000000000000e+02
7.476497730115855944e+00 7.158761793361789216e+01 4.230000000000000000e+02
6.124077417981444782e+00 7.117414568627079063e+01 4.230000000000000000e+02
4.771657105847032732e+00 7.076067343892368910e+01 4.230000000000000000e+02
3.419236793712621569e+00 7.034720119157658758e+01 4.230000000000000000e+02
2.066816481578210407e+00 6.993372894422950026e+01 4.230000000000000000e+02
7.143961694437983567e-01 6.952025669688239873e+01 4.230000000000000000e+02
-6.380241426906128055e-01 6.910678444953529720e+01 4.230000000000000000e+02
-1.990444454825023968e+00 6.869331220218819567e+01 4.230000000000000000e+02
1.018133835438467827e+01 7.241456242831209522e+01 4.240000000000000000e+02
8.828918042250267106e+00 7.200109018096499369e+01 4.240000000000000000e+02
7.476497730115855944e+00 7.158761793361789216e+01 4.240000000000000000e+02
6.124077417981444782e+00 7.117414568627079063e+01 4.240000000000000000e+02
4.771657105847032732e+00 7.076067343892368910e+01 4.240000000000000000e+02
3.419236793712621569e+00 7.034720119157658758e+01 4.240000000000000000e+02
2.066816481578210407e+00 6.993372894422950026e+01 4.240000000000000000e+02
7.143961694437983567e-01 6.952025669688239873e+01 4.240000000000000000e+02
-6.380241426906128055e-01 6.910678444953529720e+01 4.240000000000000000e+02
-1.990444454825023968e+00 6.869331220218819567e+01 4.240000000000000000e+02
1.018133835438467827e+01 7.241456242831209522e+01 4.250000000000000000e+02
8.828918042250267106e+00 7.200109018096499369e+01 4.250000000000000000e+02
7.476497730115855944e+00 7.158761793361789216e+01 4.250000000000000000e+02
6.124077417981444782e+00 7.117414568627079063e+01 4.250000000000000000e+02
4.771657105847032732e+00 7.076067343892368910e+01 4.250000000000000000e+02
3.419236793712621569e+00 7.034720119157658758e+01 4.250000000000000000e+02
2.066816481578210407e+00 6.993372894422950026e+01 4.250000000000000000e+02
7.143961694437983567e-01 6.952025669688239873e+01 4.250000000000000000e+02
-6.380241426906128055e-01 6.910678444953529720e+01 4.250000000000000000e+02
-1.990444454825023968e+00 6.869331220218819567e+01 4.250000000000000000e+02
1.106428463412543373e+01 7.194508839591843241e+01 4.260000000000000000e+02
9.711864321991022564e+00 7.153161614857133088e+01 4.260000000000000000e+02
8.359444009856611402e+00 7.111814390122424356e+01 4.260000000000000000e+02
7.007023697722200239e+00 7.070467165387714203e+01 4.260000000000000000e+02
5.654603385587789077e+00 7.029119940653004051e+01 4.260000000000000000e+02
4.302183073453377027e+00 6.987772715918293898e+01 4.260000000000000000e+02
2.949762761318965865e+00 6.946425491183583745e+01 4.260000000000000000e+02
1.597342449184554702e+00 6.905078266448873592e+01 4.260000000000000000e+02
2.449221370501426520e-01 6.863731041714163439e+01 4.260000000000000000e+02
-1.107498175084268510e+00 6.822383816979453286e+01 4.260000000000000000e+02
-2.459918487218679672e+00 6.781036592244744554e+01 4.260000000000000000e+02
1.106428463412543373e+01 7.194508839591843241e+01 4.270000000000000000e+02
9.711864321991022564e+00 7.153161614857133088e+01 4.270000000000000000e+02
8.359444009856611402e+00 7.111814390122424356e+01 4.270000000000000000e+02
7.007023697722200239e+00 7.070467165387714203e+01 4.270000000000000000e+02
5.654603385587789077e+00 7.029119940653004051e+01 4.270000000000000000e+02
4.302183073453377027e+00 6.987772715918293898e+01 4.270000000000000000e+02
2.949762761318965865e+00 6.946425491183583745e+01 4.270000000000000000e+02
1.597342449184554702e+00 6.905078266448873592e+01 4.270000000000000000e+02
2.449221370501426520e-01 6.863731041714163439e+01 4.270000000000000000e+02
-1.107498175084268510e+00 6.822383816979453286e+01 4.270000000000000000e+02
-2.459918487218679672e+00 6.781036592244744554e+01 4.270000000000000000e+02
1.106428463412543373e+01 7.194508839591843241e+01 4.280000000000000000e+02
9.711864321991022564e+00 7.153161614857133088e+01 4.280000000000000000e+02
8.359444009856611402e+00 7.111814390122424356e+01 4.280000000000000000e+02
7.007023697722200239e+00 7.070467165387714203e+01 4.280000000000000000e+02
5.654603385587789077e+00 7.029119940653004051e+01 4.280000000000000000e+02
4.302183073453377027e+00 6.987772715918293898e+01 4.280000000000000000e+02
2.949762761318965865e+00 6.946425491183583745e+01 4.280000000000000000e+02
1.597342449184554702e+00 6.905078266448873592e+01 4.280000000000000000e+02
2.449221370501426520e-01 6.863731041714163439e+01 4.280000000000000000e+02
-1.107498175084268510e+00 6.822383816979453286e+01 4.280000000000000000e+02
1.106428463412543373e+01 7.194508839591843241e+01 4.290000000000000000e+02
9.711864321991022564e+00 7.153161614857133088e+01 4.290000000000000000e+02
8.359444009856611402e+00 7.111814390122424356e+01 4.290000000000000000e+02
7.007023697722200239e+00 7.070467165387714203e+01 4.290000000000000000e+02
5.654603385587789077e+00 7.029119940653004051e+01 4.290000000000000000e+02
4.302183073453377027e+00 6.987772715918293898e+01 4.290000000000000000e+02
2.949762761318965865e+00 6.946425491183583745e+01 4.290000000000000000e+02
1.597342449184554702e+00 6.905078266448873592e+01 4.290000000000000000e+02
2.449221370501426520e-01 6.863731041714163439e+01 4.290000000000000000e+02
-1.107498175084268510e+00 6.822383816979453286e+01 4.290000000000000000e+02
1.106428463412543373e+01 7.194508839591843241e+01 4.300000000000000000e+02
9.711864321991022564e+00 7.153161614857133088e+01 4.300000000000000000e+02
8.359444009856611402e+00 7.111814390122424356e+01 4.300000000000000000e+02
7.007023697722200239e+00 7.070467165387714203e+01 4.300000000000000000e+02
5.654603385587789077e+00 7.029119940653004051e+01 4.300000000000000000e+02
4.302183073453377027e+00 6.987772715918293898e+01 4.300000000000000000e+02
2.949762761318965865e+00 6.946425491183583745e+01 4.300000000000000000e+02
1.597342449184554702e+00 6.905078266448873592e+01 4.300000000000000000e+02
2.449221370501426520e-01 6.863731041714163439e+01 4.300000000000000000e+02
-1.107498175084268510e+00 6.822383816979453286e+01 4.300000000000000000e+02
1.194723091386618918e+01 7.147561436352478381e+01 4.310000000000000000e+02
1.059481060173177802e+01 7.106214211617768228e+01 4.310000000000000000e+02
9.242390289597366859e+00 7.064866986883058075e+01 4.310000000000000000e+02
7.889969977462955697e+00 7.023519762148347922e+01 4.310000000000000000e+02
6.537549665328544535e+00 6.982172537413637770e+01 4.310000000000000000e+02
5.185129353194133373e+00 6.940825312678927617e+01 4.310000000000000000e+02
3.832709041059721322e+00 6.899478087944218885e+01 4.310000000000000000e+02
2.480288728925310160e+00 6.858130863209508732e+01 4.310000000000000000e+02
1.127868416790898998e+00 6.816783638474798579e+01 4.310000000000000000e+02
-2.245518953435130527e-01 6.775436413740088426e+01 4.310000000000000000e+02
-1.576972207477924215e+00 6.734089189005378273e+01 4.310000000000000000e+02
-2.929392519612335377e+00 6.692741964270668120e+01 4.310000000000000000e+02
1.283017719360694464e+01 7.100614033113112100e+01 4.320000000000000000e+02
1.147775688147253348e+01 7.059266808378401947e+01 4.320000000000000000e+02
1.012533656933812232e+01 7.017919583643693215e+01 4.320000000000000000e+02
8.772916257203711154e+00 6.976572358908983063e+01 4.320000000000000000e+02
7.420495945069299992e+00 6.935225134174272910e+01 4.320000000000000000e+02
6.068075632934888830e+00 6.893877909439562757e+01 4.320000000000000000e+02
4.715655320800476780e+00 6.852530684704852604e+01 4.320000000000000000e+02
3.363235008666065617e+00 6.811183459970142451e+01 4.320000000000000000e+02
2.010814696531654455e+00 6.769836235235432298e+01 4.320000000000000000e+02
6.583943843972424048e-01 6.728489010500722145e+01 4.320000000000000000e+02
-6.940259277371687574e-01 6.687141785766013413e+01 4.320000000000000000e+02
-2.046446239871579920e+00 6.645794561031303260e+01 4.320000000000000000e+02
-3.398866552005991082e+00 6.604447336296593107e+01 4.320000000000000000e+02
1.194723091386618918e+01 7.147561436352478381e+01 4.330000000000000000e+02
1.059481060173177802e+01 7.106214211617768228e+01 4.330000000000000000e+02
9.242390289597366859e+00 7.064866986883058075e+01 4.330000000000000000e+02
7.889969977462955697e+00 7.023519762148347922e+01 4.330000000000000000e+02
6.537549665328544535e+00 6.982172537413637770e+01 4.330000000000000000e+02
5.185129353194133373e+00 6.940825312678927617e+01 4.330000000000000000e+02
3.832709041059721322e+00 6.899478087944218885e+01 4.330000000000000000e+02
2.480288728925310160e+00 6.858130863209508732e+01 4.330000000000000000e+02
1.127868416790898998e+00 6.816783638474798579e+01 4.330000000000000000e+02
-2.245518953435130527e-01 6.775436413740088426e+01 4.330000000000000000e+02
-1.576972207477924215e+00 6.734089189005378273e+01 4.330000000000000000e+02
-2.929392519612335377e+00 6.692741964270668120e+01 4.330000000000000000e+02
1.194723091386618918e+01 7.147561436352478381e+01 4.340000000000000000e+02
1.059481060173177802e+01 7.106214211617768228e+01 4.340000000000000000e+02
9.242390289597366859e+00 7.064866986883058075e+01 4.340000000000000000e+02
7.889969977462955697e+00 7.023519762148347922e+01 4.340000000000000000e+02
6.537549665328544535e+00 6.982172537413637770e+01 4.340000000000000000e+02
5.185129353194133373e+00 6.940825312678927617e+01 4.340000000000000000e+02
3.832709041059721322e+00 6.899478087944218885e+01 4.340000000000000000e+02
2.480288728925310160e+00 6.858130863209508732e+01 4.340000000000000000e+02
1.127868416790898998e+00 6.816783638474798579e+01 4.340000000000000000e+02
-2.245518953435130527e-01 6.775436413740088426e+01 4.340000000000000000e+02
-1.576972207477924215e+00 6.734089189005378273e+01 4.340000000000000000e+02
-2.929392519612335377e+00 6.692741964270668120e+01 4.340000000000000000e+02
1.194723091386618918e+01 7.147561436352478381e+01 4.350000000000000000e+02
1.059481060173177802e+01 7.106214211617768228e+01 4.350000000000000000e+02
9.242390289597366859e+00 7.064866986883058075e+01 4.350000000000000000e+02
7.889969977462955697e+00 7.023519762148347922e+01 4.350000000000000000e+02
6.537549665328544535e+00 6.982172537413637770e+01 4.350000000000000000e+02
5.185129353194133373e+00 6.940825312678927617e+01 4.350000000000000000e+02
3.832709041059721322e+00 6.899478087944218885e+01 4.350000000000000000e+02
2.480288728925310160e+00 6.858130863209508732e+01 4.350000000000000000e+02
1.127868416790898998e+00 6.816783638474798579e+01 4.350000000000000000e+02
-2.245518953435130527e-01 6.775436413740088426e+01 4.350000000000000000e+02
-1.576972207477924215e+00 6.734089189005378273e+01 4.350000000000000000e+02
1.194723091386618918e+01 7.147561436352478381e+01 4.360000000000000000e+02
1.059481060173177802e+01 7.106214211617768228e+01 4.360000000000000000e+02
9.242390289597366859e+00 7.064866986883058075e+01 4.360000000000000000e+02
7.889969977462955697e+00 7.023519762148347922e+01 4.360000000000000000e+02
6.537549665328544535e+00 6.982172537413637770e+01 4.360000000000000000e+02
5.185129353194133373e+00 6.940825312678927617e+01 4.360000000000000000e+02
3.832709041059721322e+00 6.899478087944218885e+01 4.360000000000000000e+02
2.480288728925310160e+00 6.858130863209508732e+01 4.360000000000000000e+02
