6.973158761184250487e+00 -7.230323492133021723e+00 1.190000000000000000e+02
5.593549854286242073e+00 -7.541256385226821735e+00 1.190000000000000000e+02
1.249159438877628858e+01 -5.986591919757822566e+00 1.200000000000000000e+02
1.111198548187827839e+01 -6.297524812851622578e+00 1.200000000000000000e+02
9.732376574980269979e+00 -6.608457705945421701e+00 1.200000000000000000e+02
8.352767668082259789e+00 -6.919390599039221712e+00 1.200000000000000000e+02
6.973158761184250487e+00 -7.230323492133021723e+00 1.200000000000000000e+02
5.593549854286242073e+00 -7.541256385226821735e+00 1.200000000000000000e+02
4.213940947388232772e+00 -7.852189278320621746e+00 1.200000000000000000e+02
1.249159438877628858e+01 -5.986591919757822566e+00 1.210000000000000000e+02
1.111198548187827839e+01 -6.297524812851622578e+00 1.210000000000000000e+02
9.732376574980269979e+00 -6.608457705945421701e+00 1.210000000000000000e+02
8.352767668082259789e+00 -6.919390599039221712e+00 1.210000000000000000e+02
6.973158761184250487e+00 -7.230323492133021723e+00 1.210000000000000000e+02
5.593549854286242073e+00 -7.541256385226821735e+00 1.210000000000000000e+02
4.213940947388232772e+00 -7.852189278320621746e+00 1.210000000000000000e+02
1.249159438877628858e+01 -5.986591919757822566e+00 1.220000000000000000e+02
1.111198548187827839e+01 -6.297524812851622578e+00 1.220000000000000000e+02
9.732376574980269979e+00 -6.608457705945421701e+00 1.220000000000000000e+02
8.352767668082259789e+00 -6.919390599039221712e+00 1.220000000000000000e+02
6.973158761184250487e+00 -7.230323492133021723e+00 1.220000000000000000e+02
5.593549854286242073e+00 -7.541256385226821735e+00 1.220000000000000000e+02
4.213940947388232772e+00 -7.852189278320621746e+00 1.220000000000000000e+02
2.834332040490223470e+00 -8.163122171414421757e+00 1.220000000000000000e+02
1.249159438877628858e+01 -5.986591919757822566e+00 1.230000000000000000e+02
1.111198548187827839e+01 -6.297524812851622578e+00 1.230000000000000000e+02
9.732376574980269979e+00 -6.608457705945421701e+00 1.230000000000000000e+02
8.352767668082259789e+00 -6.919390599039221712e+00 1.230000000000000000e+02
6.973158761184250487e+00 -7.230323492133021723e+00 1.230000000000000000e+02
5.593549854286242073e+00 -7.541256385226821735e+00 1.230000000000000000e+02
4.213940947388232772e+00 -7.852189278320621746e+00 1.230000000000000000e+02
2.834332040490223470e+00 -8.163122171414421757e+00 1.230000000000000000e+02
1.249159438877628858e+01 -5.986591919757822566e+00 1.240000000000000000e+02
1.111198548187827839e+01 -6.297524812851622578e+00 1.240000000000000000e+02
9.732376574980269979e+00 -6.608457705945421701e+00 1.240000000000000000e+02
8.352767668082259789e+00 -6.919390599039221712e+00 1.240000000000000000e+02
6.973158761184250487e+00 -7.230323492133021723e+00 1.240000000000000000e+02
5.593549854286242073e+00 -7.541256385226821735e+00 1.240000000000000000e+02
4.213940947388232772e+00 -7.852189278320621746e+00 1.240000000000000000e+02
2.834332040490223470e+00 -8.163122171414421757e+00 1.240000000000000000e+02
1.249159438877628858e+01 -5.986591919757822566e+00 1.250000000000000000e+02
1.111198548187827839e+01 -6.297524812851622578e+00 1.250000000000000000e+02
9.732376574980269979e+00 -6.608457705945421701e+00 1.250000000000000000e+02
8.352767668082259789e+00 -6.919390599039221712e+00 1.250000000000000000e+02
6.973158761184250487e+00 -7.230323492133021723e+00 1.250000000000000000e+02
5.593549854286242073e+00 -7.541256385226821735e+00 1.250000000000000000e+02
4.213940947388232772e+00 -7.852189278320621746e+00 1.250000000000000000e+02
2.834332040490223470e+00 -8.163122171414421757e+00 1.250000000000000000e+02
1.249159438877628858e+01 -5.986591919757822566e+00 1.260000000000000000e+02
1.111198548187827839e+01 -6.297524812851622578e+00 1.260000000000000000e+02
9.732376574980269979e+00 -6.608457705945421701e+00 1.260000000000000000e+02
8.352767668082259789e+00 -6.919390599039221712e+00 1.260000000000000000e+02
6.973158761184250487e+00 -7.230323492133021723e+00 1.260000000000000000e+02
5.593549854286242073e+00 -7.541256385226821735e+00 1.260000000000000000e+02
4.213940947388232772e+00 -7.852189278320621746e+00 1.260000000000000000e+02
2.834332040490223470e+00 -8.163122171414421757e+00 1.260000000000000000e+02
1.333686528877219146e+01 -6.520929926659927212e+00 1.270000000000000000e+02
1.195725638187418305e+01 -6.831862819753727223e+00 1.270000000000000000e+02
1.057764747497617464e+01 -7.142795712847526346e+00 1.270000000000000000e+02
9.198038568078164445e+00 -7.453728605941326357e+00 1.270000000000000000e+02
7.818429661180154255e+00 -7.764661499035126369e+00 1.270000000000000000e+02
6.438820754282145842e+00 -8.075594392128927268e+00 1.270000000000000000e+02
5.059211847384137428e+00 -8.386527285222726391e+00 1.270000000000000000e+02
3.679602940486128126e+00 -8.697460178316525514e+00 1.270000000000000000e+02
2.299994033588118825e+00 -9.008393071410324637e+00 1.270000000000000000e+02
1.333686528877219146e+01 -6.520929926659927212e+00 1.280000000000000000e+02
1.195725638187418305e+01 -6.831862819753727223e+00 1.280000000000000000e+02
1.057764747497617464e+01 -7.142795712847526346e+00 1.280000000000000000e+02
9.198038568078164445e+00 -7.453728605941326357e+00 1.280000000000000000e+02
7.818429661180154255e+00 -7.764661499035126369e+00 1.280000000000000000e+02
6.438820754282145842e+00 -8.075594392128927268e+00 1.280000000000000000e+02
5.059211847384137428e+00 -8.386527285222726391e+00 1.280000000000000000e+02
3.679602940486128126e+00 -8.697460178316525514e+00 1.280000000000000000e+02
1.333686528877219146e+01 -6.520929926659927212e+00 1.290000000000000000e+02
1.195725638187418305e+01 -6.831862819753727223e+00 1.290000000000000000e+02
1.057764747497617464e+01 -7.142795712847526346e+00 1.290000000000000000e+02
9.198038568078164445e+00 -7.453728605941326357e+00 1.290000000000000000e+02
7.818429661180154255e+00 -7.764661499035126369e+00 1.290000000000000000e+02
6.438820754282145842e+00 -8.075594392128927268e+00 1.290000000000000000e+02
5.059211847384137428e+00 -8.386527285222726391e+00 1.290000000000000000e+02
3.679602940486128126e+00 -8.697460178316525514e+00 1.290000000000000000e+02
1.333686528877219146e+01 -6.520929926659927212e+00 1.300000000000000000e+02
1.195725638187418305e+01 -6.831862819753727223e+00 1.300000000000000000e+02
1.057764747497617464e+01 -7.142795712847526346e+00 1.300000000000000000e+02
9.198038568078164445e+00 -7.453728605941326357e+00 1.300000000000000000e+02
7.818429661180154255e+00 -7.764661499035126369e+00 1.300000000000000000e+02
6.438820754282145842e+00 -8.075594392128927268e+00 1.300000000000000000e+02
5.059211847384137428e+00 -8.386527285222726391e+00 1.300000000000000000e+02
3.679602940486128126e+00 -8.697460178316525514e+00 1.300000000000000000e+02
1.333686528877219146e+01 -6.520929926659927212e+00 1.310000000000000000e+02
1.195725638187418305e+01 -6.831862819753727223e+00 1.310000000000000000e+02
1.057764747497617464e+01 -7.142795712847526346e+00 1.310000000000000000e+02
9.198038568078164445e+00 -7.453728605941326357e+00 1.310000000000000000e+02
7.818429661180154255e+00 -7.764661499035126369e+00 1.310000000000000000e+02
6.438820754282145842e+00 -8.075594392128927268e+00 1.310000000000000000e+02
5.059211847384137428e+00 -8.386527285222726391e+00 1.310000000000000000e+02
3.679602940486128126e+00 -8.697460178316525514e+00 1.310000000000000000e+02
1.333686528877219146e+01 -6.520929926659927212e+00 1.320000000000000000e+02
1.195725638187418305e+01 -6.831862819753727223e+00 1.320000000000000000e+02
1.057764747497617464e+01 -7.142795712847526346e+00 1.320000000000000000e+02
9.198038568078164445e+00 -7.453728605941326357e+00 1.320000000000000000e+02
7.818429661180154255e+00 -7.764661499035126369e+00 1.320000000000000000e+02
6.438820754282145842e+00 -8.075594392128927268e+00 1.320000000000000000e+02
5.059211847384137428e+00 -8.386527285222726391e+00 1.320000000000000000e+02
3.679602940486128126e+00 -8.697460178316525514e+00 1.320000000000000000e+02
1.333686528877219146e+01 -6.520929926659927212e+00 1.330000000000000000e+02
1.195725638187418305e+01 -6.831862819753727223e+00 1.330000000000000000e+02
1.057764747497617464e+01 -7.142795712847526346e+00 1.330000000000000000e+02
9.198038568078164445e+00 -7.453728605941326357e+00 1.330000000000000000e+02
7.818429661180154255e+00 -7.764661499035126369e+00 1.330000000000000000e+02
6.438820754282145842e+00 -8.075594392128927268e+00 1.330000000000000000e+02
5.059211847384137428e+00 -8.386527285222726391e+00 1.330000000000000000e+02
3.679602940486128126e+00 -8.697460178316525514e+00 1.330000000000000000e+02
1.333686528877219146e+01 -6.520929926659927212e+00 1.340000000000000000e+02
1.195725638187418305e+01 -6.831862819753727223e+00 1.340000000000000000e+02
1.057764747497617464e+01 -7.142795712847526346e+00 1.340000000000000000e+02
9.198038568078164445e+00 -7.453728605941326357e+00 1.340000000000000000e+02
7.818429661180154255e+00 -7.764661499035126369e+00 1.340000000000000000e+02
6.438820754282145842e+00 -8.075594392128927268e+00 1.340000000000000000e+02
5.059211847384137428e+00 -8.386527285222726391e+00 1.340000000000000000e+02
3.679602940486128126e+00 -8.697460178316525514e+00 1.340000000000000000e+02
1.333686528877219146e+01 -6.520929926659927212e+00 1.350000000000000000e+02
1.195725638187418305e+01 -6.831862819753727223e+00 1.350000000000000000e+02
1.057764747497617464e+01 -7.142795712847526346e+00 1.350000000000000000e+02
9.198038568078164445e+00 -7.453728605941326357e+00 1.350000000000000000e+02
7.818429661180154255e+00 -7.764661499035126369e+00 1.350000000000000000e+02
6.438820754282145842e+00 -8.075594392128927268e+00 1.350000000000000000e+02
5.059211847384137428e+00 -8.386527285222726391e+00 1.350000000000000000e+02
3.679602940486128126e+00 -8.697460178316525514e+00 1.350000000000000000e+02
1.249159438877628858e+01 -5.986591919757822566e+00 1.360000000000000000e+02
1.111198548187827839e+01 -6.297524812851622578e+00 1.360000000000000000e+02
9.732376574980269979e+00 -6.608457705945421701e+00 1.360000000000000000e+02
8.352767668082259789e+00 -6.919390599039221712e+00 1.360000000000000000e+02
6.973158761184250487e+00 -7.230323492133021723e+00 1.360000000000000000e+02
5.593549854286242073e+00 -7.541256385226821735e+00 1.360000000000000000e+02
4.213940947388232772e+00 -7.852189278320621746e+00 1.360000000000000000e+02
1.249159438877628858e+01 -5.986591919757822566e+00 1.370000000000000000e+02
1.111198548187827839e+01 -6.297524812851622578e+00 1.370000000000000000e+02
9.732376574980269979e+00 -6.608457705945421701e+00 1.370000000000000000e+02
8.352767668082259789e+00 -6.919390599039221712e+00 1.370000000000000000e+02
6.973158761184250487e+00 -7.230323492133021723e+00 1.370000000000000000e+02
5.593549854286242073e+00 -7.541256385226821735e+00 1.370000000000000000e+02
4.213940947388232772e+00 -7.852189278320621746e+00 1.370000000000000000e+02
1.249159438877628858e+01 -5.986591919757822566e+00 1.380000000000000000e+02
1.111198548187827839e+01 -6.297524812851622578e+00 1.380000000000000000e+02
9.732376574980269979e+00 -6.608457705945421701e+00 1.380000000000000000e+02
8.352767668082259789e+00 -6.919390599039221712e+00 1.380000000000000000e+02
6.973158761184250487e+00 -7.230323492133021723e+00 1.380000000000000000e+02
5.593549854286242073e+00 -7.541256385226821735e+00 1.380000000000000000e+02
4.213940947388232772e+00 -7.852189278320621746e+00 1.380000000000000000e+02
1.164632348878038215e+01 -5.452253912855717921e+00 1.390000000000000000e+02
1.026671458188237374e+01 -5.763186805949517932e+00 1.390000000000000000e+02
8.887105674984363546e+00 -6.074119699043317055e+00 1.390000000000000000e+02
7.507496768086355132e+00 -6.385052592137117955e+00 1.390000000000000000e+02
6.127887861188346719e+00 -6.695985485230917078e+00 1.390000000000000000e+02
4.748278954290337417e+00 -7.006918378324717089e+00 1.390000000000000000e+02
1.164632348878038215e+01 -5.452253912855717921e+00 1.400000000000000000e+02
1.026671458188237374e+01 -5.763186805949517932e+00 1.400000000000000000e+02
8.887105674984363546e+00 -6.074119699043317055e+00 1.400000000000000000e+02
7.507496768086355132e+00 -6.385052592137117955e+00 1.400000000000000000e+02
6.127887861188346719e+00 -6.695985485230917078e+00 1.400000000000000000e+02
4.748278954290337417e+00 -7.006918378324717089e+00 1.400000000000000000e+02
3.368670047392328115e+00 -7.317851271418517101e+00 1.400000000000000000e+02
1.164632348878038215e+01 -5.452253912855717921e+00 1.410000000000000000e+02
1.026671458188237374e+01 -5.763186805949517932e+00 1.410000000000000000e+02
8.887105674984363546e+00 -6.074119699043317055e+00 1.410000000000000000e+02
7.507496768086355132e+00 -6.385052592137117955e+00 1.410000000000000000e+02
6.127887861188346719e+00 -6.695985485230917078e+00 1.410000000000000000e+02
4.748278954290337417e+00 -7.006918378324717089e+00 1.410000000000000000e+02
3.368670047392328115e+00 -7.317851271418517101e+00 1.410000000000000000e+02
1.080105258878447927e+01 -4.917915905953613276e+00 1.420000000000000000e+02
9.421443681886469079e+00 -5.228848799047413287e+00 1.420000000000000000e+02
8.041834774988460666e+00 -5.539781692141213298e+00 1.420000000000000000e+02
6.662225868090451364e+00 -5.850714585235012422e+00 1.420000000000000000e+02
5.282616961192442062e+00 -6.161647478328812433e+00 1.420000000000000000e+02
3.903008054294432760e+00 -6.472580371422612444e+00 1.420000000000000000e+02
2.523399147396424347e+00 -6.783513264516412455e+00 1.420000000000000000e+02
1.080105258878447927e+01 -4.917915905953613276e+00 1.430000000000000000e+02
9.421443681886469079e+00 -5.228848799047413287e+00 1.430000000000000000e+02
8.041834774988460666e+00 -5.539781692141213298e+00 1.430000000000000000e+02
6.662225868090451364e+00 -5.850714585235012422e+00 1.430000000000000000e+02
5.282616961192442062e+00 -6.161647478328812433e+00 1.430000000000000000e+02
3.903008054294432760e+00 -6.472580371422612444e+00 1.430000000000000000e+02
2.523399147396424347e+00 -6.783513264516412455e+00 1.430000000000000000e+02
9.955781688788572836e+00 -4.383577899051508631e+00 1.440000000000000000e+02
8.576172781890564423e+00 -4.694510792145308642e+00 1.440000000000000000e+02
7.196563874992556009e+00 -5.005443685239108653e+00 1.440000000000000000e+02
5.816954968094546707e+00 -5.316376578332908664e+00 1.440000000000000000e+02
4.437346061196537406e+00 -5.627309471426707788e+00 1.440000000000000000e+02
3.057737154298528992e+00 -5.938242364520507799e+00 1.440000000000000000e+02
9.955781688788572836e+00 -4.383577899051508631e+00 1.450000000000000000e+02
8.576172781890564423e+00 -4.694510792145308642e+00 1.450000000000000000e+02
7.196563874992556009e+00 -5.005443685239108653e+00 1.450000000000000000e+02
5.816954968094546707e+00 -5.316376578332908664e+00 1.450000000000000000e+02
4.437346061196537406e+00 -5.627309471426707788e+00 1.450000000000000000e+02
3.057737154298528992e+00 -5.938242364520507799e+00 1.450000000000000000e+02
1.678128247400519468e+00 -6.249175257614307810e+00 1.450000000000000000e+02
9.955781688788572836e+00 -4.383577899051508631e+00 1.460000000000000000e+02
8.576172781890564423e+00 -4.694510792145308642e+00 1.460000000000000000e+02
7.196563874992556009e+00 -5.005443685239108653e+00 1.460000000000000000e+02
5.816954968094546707e+00 -5.316376578332908664e+00 1.460000000000000000e+02
4.437346061196537406e+00 -5.627309471426707788e+00 1.460000000000000000e+02
3.057737154298528992e+00 -5.938242364520507799e+00 1.460000000000000000e+02
1.678128247400519468e+00 -6.249175257614307810e+00 1.460000000000000000e+02
9.110510788792669956e+00 -3.849239892149404429e+00 1.470000000000000000e+02
7.730901881894660654e+00 -4.160172785243203997e+00 1.470000000000000000e+02
6.351292974996651353e+00 -4.471105678337004008e+00 1.470000000000000000e+02
4.971684068098642051e+00 -4.782038571430803131e+00 1.470000000000000000e+02
3.592075161200633637e+00 -5.092971464524603142e+00 1.470000000000000000e+02
2.212466254302624336e+00 -5.403904357618403154e+00 1.470000000000000000e+02
8.328573474046152558e-01 -5.714837250712203165e+00 1.470000000000000000e+02
9.110510788792669956e+00 -3.849239892149404429e+00 1.480000000000000000e+02
7.730901881894660654e+00 -4.160172785243203997e+00 1.480000000000000000e+02
6.351292974996651353e+00 -4.471105678337004008e+00 1.480000000000000000e+02
4.971684068098642051e+00 -4.782038571430803131e+00 1.480000000000000000e+02
3.592075161200633637e+00 -5.092971464524603142e+00 1.480000000000000000e+02
2.212466254302624336e+00 -5.403904357618403154e+00 1.480000000000000000e+02
8.328573474046152558e-01 -5.714837250712203165e+00 1.480000000000000000e+02
8.265239888796765300e+00 -3.314901885247299784e+00 1.490000000000000000e+02
6.885630981898755998e+00 -3.625834778341099351e+00 1.490000000000000000e+02
5.506022075000746696e+00 -3.936767671434899363e+00 1.490000000000000000e+02
4.126413168102738283e+00 -4.247700564528699374e+00 1.490000000000000000e+02
2.746804261204728981e+00 -4.558633457622498497e+00 1.490000000000000000e+02
1.367195354306720123e+00 -4.869566350716298508e+00 1.490000000000000000e+02
8.265239888796765300e+00 -3.314901885247299784e+00 1.500000000000000000e+02
6.885630981898755998e+00 -3.625834778341099351e+00 1.500000000000000000e+02
5.506022075000746696e+00 -3.936767671434899363e+00 1.500000000000000000e+02
4.126413168102738283e+00 -4.247700564528699374e+00 1.500000000000000000e+02
2.746804261204728981e+00 -4.558633457622498497e+00 1.500000000000000000e+02
1.367195354306720123e+00 -4.869566350716298508e+00 1.500000000000000000e+02
-1.241355259128917865e-02 -5.180499243810098520e+00 1.500000000000000000e+02
7.419968988800860643e+00 -2.780563878345195139e+00 1.510000000000000000e+02
6.040360081902851341e+00 -3.091496771438994706e+00 1.510000000000000000e+02
4.660751175004842928e+00 -3.402429664532794718e+00 1.510000000000000000e+02
3.281142268106833626e+00 -3.713362557626594285e+00 1.510000000000000000e+02
1.901533361208824768e+00 -4.024295450720393852e+00 1.510000000000000000e+02
5.219244543108156886e-01 -4.335228343814193863e+00 1.510000000000000000e+02
7.419968988800860643e+00 -2.780563878345195139e+00 1.520000000000000000e+02
6.040360081902851341e+00 -3.091496771438994706e+00 1.520000000000000000e+02
4.660751175004842928e+00 -3.402429664532794718e+00 1.520000000000000000e+02
3.281142268106833626e+00 -3.713362557626594285e+00 1.520000000000000000e+02
1.901533361208824768e+00 -4.024295450720393852e+00 1.520000000000000000e+02
5.219244543108156886e-01 -4.335228343814193863e+00 1.520000000000000000e+02
-8.576844525871936131e-01 -4.646161236907993874e+00 1.520000000000000000e+02
7.419968988800860643e+00 -2.780563878345195139e+00 1.530000000000000000e+02
6.040360081902851341e+00 -3.091496771438994706e+00 1.530000000000000000e+02
4.660751175004842928e+00 -3.402429664532794718e+00 1.530000000000000000e+02
3.281142268106833626e+00 -3.713362557626594285e+00 1.530000000000000000e+02
1.901533361208824768e+00 -4.024295450720393852e+00 1.530000000000000000e+02
5.219244543108156886e-01 -4.335228343814193863e+00 1.530000000000000000e+02
-8.576844525871936131e-01 -4.646161236907993874e+00 1.530000000000000000e+02
6.574698088804955987e+00 -2.246225871443090494e+00 1.540000000000000000e+02
5.195089181906946685e+00 -2.557158764536890061e+00 1.540000000000000000e+02
3.815480275008938271e+00 -2.868091657630690072e+00 1.540000000000000000e+02
2.435871368110929414e+00 -3.179024550724489639e+00 1.540000000000000000e+02
1.056262461212920334e+00 -3.489957443818289207e+00 1.540000000000000000e+02
-3.233464456850887458e-01 -3.800890336912089218e+00 1.540000000000000000e+02
6.574698088804955987e+00 -2.246225871443090494e+00 1.550000000000000000e+02
5.195089181906946685e+00 -2.557158764536890061e+00 1.550000000000000000e+02
3.815480275008938271e+00 -2.868091657630690072e+00 1.550000000000000000e+02
2.435871368110929414e+00 -3.179024550724489639e+00 1.550000000000000000e+02
1.056262461212920334e+00 -3.489957443818289207e+00 1.550000000000000000e+02
-3.233464456850887458e-01 -3.800890336912089218e+00 1.550000000000000000e+02
-1.702955352583097826e+00 -4.111823230005889229e+00 1.550000000000000000e+02
6.574698088804955987e+00 -2.246225871443090494e+00 1.560000000000000000e+02
5.195089181906946685e+00 -2.557158764536890061e+00 1.560000000000000000e+02
3.815480275008938271e+00 -2.868091657630690072e+00 1.560000000000000000e+02
2.435871368110929414e+00 -3.179024550724489639e+00 1.560000000000000000e+02
1.056262461212920334e+00 -3.489957443818289207e+00 1.560000000000000000e+02
-3.233464456850887458e-01 -3.800890336912089218e+00 1.560000000000000000e+02
-1.702955352583097826e+00 -4.111823230005889229e+00 1.560000000000000000e+02
-3.082564259481107349e+00 -4.422756123099688352e+00 1.560000000000000000e+02
6.574698088804955987e+00 -2.246225871443090494e+00 1.570000000000000000e+02
5.195089181906946685e+00 -2.557158764536890061e+00 1.570000000000000000e+02
3.815480275008938271e+00 -2.868091657630690072e+00 1.570000000000000000e+02
2.435871368110929414e+00 -3.179024550724489639e+00 1.570000000000000000e+02
1.056262461212920334e+00 -3.489957443818289207e+00 1.570000000000000000e+02
-3.233464456850887458e-01 -3.800890336912089218e+00 1.570000000000000000e+02
-1.702955352583097826e+00 -4.111823230005889229e+00 1.570000000000000000e+02
-3.082564259481107349e+00 -4.422756123099688352e+00 1.570000000000000000e+02
6.574698088804955987e+00 -2.246225871443090494e+00 1.580000000000000000e+02
5.195089181906946685e+00 -2.557158764536890061e+00 1.580000000000000000e+02
3.815480275008938271e+00 -2.868091657630690072e+00 1.580000000000000000e+02
2.435871368110929414e+00 -3.179024550724489639e+00 1.580000000000000000e+02
1.056262461212920334e+00 -3.489957443818289207e+00 1.580000000000000000e+02
-3.233464456850887458e-01 -3.800890336912089218e+00 1.580000000000000000e+02
-1.702955352583097826e+00 -4.111823230005889229e+00 1.580000000000000000e+02
-3.082564259481107349e+00 -4.422756123099688352e+00 1.580000000000000000e+02
6.574698088804955987e+00 -2.246225871443090494e+00 1.590000000000000000e+02
5.195089181906946685e+00 -2.557158764536890061e+00 1.590000000000000000e+02
3.815480275008938271e+00 -2.868091657630690072e+00 1.590000000000000000e+02
2.435871368110929414e+00 -3.179024550724489639e+00 1.590000000000000000e+02
1.056262461212920334e+00 -3.489957443818289207e+00 1.590000000000000000e+02
-3.233464456850887458e-01 -3.800890336912089218e+00 1.590000000000000000e+02
-1.702955352583097826e+00 -4.111823230005889229e+00 1.590000000000000000e+02
-3.082564259481107349e+00 -4.422756123099688352e+00 1.590000000000000000e+02
5.729427188809052218e+00 -1.711887864540985849e+00 1.600000000000000000e+02
4.349818281911042916e+00 -2.022820757634785416e+00 1.600000000000000000e+02
2.970209375013033615e+00 -2.333753650728584983e+00 1.600000000000000000e+02
1.590600468115024979e+00 -2.644686543822384994e+00 1.600000000000000000e+02
2.109915612170158994e-01 -2.955619436916184561e+00 1.600000000000000000e+02
-1.168617345680993180e+00 -3.266552330009984573e+00 1.600000000000000000e+02
-2.548226252579002704e+00 -3.577485223103784584e+00 1.600000000000000000e+02
5.729427188809052218e+00 -1.711887864540985849e+00 1.610000000000000000e+02
4.349818281911042916e+00 -2.022820757634785416e+00 1.610000000000000000e+02
2.970209375013033615e+00 -2.333753650728584983e+00 1.610000000000000000e+02
1.590600468115024979e+00 -2.644686543822384994e+00 1.610000000000000000e+02
2.109915612170158994e-01 -2.955619436916184561e+00 1.610000000000000000e+02
-1.168617345680993180e+00 -3.266552330009984573e+00 1.610000000000000000e+02
-2.548226252579002704e+00 -3.577485223103784584e+00 1.610000000000000000e+02
-3.927835159477012006e+00 -3.888418116197584151e+00 1.610000000000000000e+02
5.729427188809052218e+00 -1.711887864540985849e+00 1.620000000000000000e+02
4.349818281911042916e+00 -2.022820757634785416e+00 1.620000000000000000e+02
2.970209375013033615e+00 -2.333753650728584983e+00 1.620000000000000000e+02
1.590600468115024979e+00 -2.644686543822384994e+00 1.620000000000000000e+02
2.109915612170158994e-01 -2.955619436916184561e+00 1.620000000000000000e+02
-1.168617345680993180e+00 -3.266552330009984573e+00 1.620000000000000000e+02
-2.548226252579002704e+00 -3.577485223103784584e+00 1.620000000000000000e+02
-3.927835159477012006e+00 -3.888418116197584151e+00 1.620000000000000000e+02
4.884156288813147562e+00 -1.177549857638881203e+00 1.630000000000000000e+02
3.504547381915138260e+00 -1.488482750732680771e+00 1.630000000000000000e+02
2.124938475017129846e+00 -1.799415643826480560e+00 1.630000000000000000e+02
7.453295681191205446e-01 -2.110348536920280349e+00 1.630000000000000000e+02
-6.342793387788885351e-01 -2.421281430014079916e+00 1.630000000000000000e+02
-2.013888245676898059e+00 -2.732214323107879927e+00 1.630000000000000000e+02
-3.393497152574907361e+00 -3.043147216201679939e+00 1.630000000000000000e+02
4.884156288813147562e+00 -1.177549857638881203e+00 1.640000000000000000e+02
3.504547381915138260e+00 -1.488482750732680771e+00 1.640000000000000000e+02
2.124938475017129846e+00 -1.799415643826480560e+00 1.640000000000000000e+02
7.453295681191205446e-01 -2.110348536920280349e+00 1.640000000000000000e+02
-6.342793387788885351e-01 -2.421281430014079916e+00 1.640000000000000000e+02
-2.013888245676898059e+00 -2.732214323107879927e+00 1.640000000000000000e+02
-3.393497152574907361e+00 -3.043147216201679939e+00 1.640000000000000000e+02
4.884156288813147562e+00 -1.177549857638881203e+00 1.650000000000000000e+02
3.504547381915138260e+00 -1.488482750732680771e+00 1.650000000000000000e+02
2.124938475017129846e+00 -1.799415643826480560e+00 1.650000000000000000e+02
7.453295681191205446e-01 -2.110348536920280349e+00 1.650000000000000000e+02
-6.342793387788885351e-01 -2.421281430014079916e+00 1.650000000000000000e+02
-2.013888245676898059e+00 -2.732214323107879927e+00 1.650000000000000000e+02
-3.393497152574907361e+00 -3.043147216201679939e+00 1.650000000000000000e+02
-4.773106059472916662e+00 -3.354080109295479506e+00 1.650000000000000000e+02
4.884156288813147562e+00 -1.177549857638881203e+00 1.660000000000000000e+02
3.504547381915138260e+00 -1.488482750732680771e+00 1.660000000000000000e+02
2.124938475017129846e+00 -1.799415643826480560e+00 1.660000000000000000e+02
7.453295681191205446e-01 -2.110348536920280349e+00 1.660000000000000000e+02
-6.342793387788885351e-01 -2.421281430014079916e+00 1.660000000000000000e+02
-2.013888245676898059e+00 -2.732214323107879927e+00 1.660000000000000000e+02
-3.393497152574907361e+00 -3.043147216201679939e+00 1.660000000000000000e+02
-4.773106059472916662e+00 -3.354080109295479506e+00 1.660000000000000000e+02
4.884156288813147562e+00 -1.177549857638881203e+00 1.670000000000000000e+02
3.504547381915138260e+00 -1.488482750732680771e+00 1.670000000000000000e+02
2.124938475017129846e+00 -1.799415643826480560e+00 1.670000000000000000e+02
7.453295681191205446e-01 -2.110348536920280349e+00 1.670000000000000000e+02
-6.342793387788885351e-01 -2.421281430014079916e+00 1.670000000000000000e+02
-2.013888245676898059e+00 -2.732214323107879927e+00 1.670000000000000000e+02
-3.393497152574907361e+00 -3.043147216201679939e+00 1.670000000000000000e+02
-4.773106059472916662e+00 -3.354080109295479506e+00 1.670000000000000000e+02
4.884156288813147562e+00 -1.177549857638881203e+00 1.680000000000000000e+02
3.504547381915138260e+00 -1.488482750732680771e+00 1.680000000000000000e+02
2.124938475017129846e+00 -1.799415643826480560e+00 1.680000000000000000e+02
7.453295681191205446e-01 -2.110348536920280349e+00 1.680000000000000000e+02
-6.342793387788885351e-01 -2.421281430014079916e+00 1.680000000000000000e+02
-2.013888245676898059e+00 -2.732214323107879927e+00 1.680000000000000000e+02
-3.393497152574907361e+00 -3.043147216201679939e+00 1.680000000000000000e+02
-4.773106059472916662e+00 -3.354080109295479506e+00 1.680000000000000000e+02
4.884156288813147562e+00 -1.177549857638881203e+00 1.690000000000000000e+02
3.504547381915138260e+00 -1.488482750732680771e+00 1.690000000000000000e+02
2.124938475017129846e+00 -1.799415643826480560e+00 1.690000000000000000e+02
7.453295681191205446e-01 -2.110348536920280349e+00 1.690000000000000000e+02
-6.342793387788885351e-01 -2.421281430014079916e+00 1.690000000000000000e+02
-2.013888245676898059e+00 -2.732214323107879927e+00 1.690000000000000000e+02
-3.393497152574907361e+00 -3.043147216201679939e+00 1.690000000000000000e+02
-4.773106059472916662e+00 -3.354080109295479506e+00 1.690000000000000000e+02
4.884156288813147562e+00 -1.177549857638881203e+00 1.700000000000000000e+02
3.504547381915138260e+00 -1.488482750732680771e+00 1.700000000000000000e+02
2.124938475017129846e+00 -1.799415643826480560e+00 1.700000000000000000e+02
7.453295681191205446e-01 -2.110348536920280349e+00 1.700000000000000000e+02
-6.342793387788885351e-01 -2.421281430014079916e+00 1.700000000000000000e+02
-2.013888245676898059e+00 -2.732214323107879927e+00 1.700000000000000000e+02
-3.393497152574907361e+00 -3.043147216201679939e+00 1.700000000000000000e+02
-4.773106059472916662e+00 -3.354080109295479506e+00 1.700000000000000000e+02
4.884156288813147562e+00 -1.177549857638881203e+00 1.710000000000000000e+02
3.504547381915138260e+00 -1.488482750732680771e+00 1.710000000000000000e+02
2.124938475017129846e+00 -1.799415643826480560e+00 1.710000000000000000e+02
7.453295681191205446e-01 -2.110348536920280349e+00 1.710000000000000000e+02
-6.342793387788885351e-01 -2.421281430014079916e+00 1.710000000000000000e+02
-2.013888245676898059e+00 -2.732214323107879927e+00 1.710000000000000000e+02
-3.393497152574907361e+00 -3.043147216201679939e+00 1.710000000000000000e+02
-4.773106059472916662e+00 -3.354080109295479506e+00 1.710000000000000000e+02
4.884156288813147562e+00 -1.177549857638881203e+00 1.720000000000000000e+02
3.504547381915138260e+00 -1.488482750732680771e+00 1.720000000000000000e+02
2.124938475017129846e+00 -1.799415643826480560e+00 1.720000000000000000e+02
7.453295681191205446e-01 -2.110348536920280349e+00 1.720000000000000000e+02
-6.342793387788885351e-01 -2.421281430014079916e+00 1.720000000000000000e+02
-2.013888245676898059e+00 -2.732214323107879927e+00 1.720000000000000000e+02
-3.393497152574907361e+00 -3.043147216201679939e+00 1.720000000000000000e+02
-4.773106059472916662e+00 -3.354080109295479506e+00 1.720000000000000000e+02
4.884156288813147562e+00 -1.177549857638881203e+00 1.730000000000000000e+02
3.504547381915138260e+00 -1.488482750732680771e+00 1.730000000000000000e+02
2.124938475017129846e+00 -1.799415643826480560e+00 1.730000000000000000e+02
7.453295681191205446e-01 -2.110348536920280349e+00 1.730000000000000000e+02
-6.342793387788885351e-01 -2.421281430014079916e+00 1.730000000000000000e+02
-2.013888245676898059e+00 -2.732214323107879927e+00 1.730000000000000000e+02
-3.393497152574907361e+00 -3.043147216201679939e+00 1.730000000000000000e+02
-4.773106059472916662e+00 -3.354080109295479506e+00 1.730000000000000000e+02
4.884156288813147562e+00 -1.177549857638881203e+00 1.740000000000000000e+02
3.504547381915138260e+00 -1.488482750732680771e+00 1.740000000000000000e+02
2.124938475017129846e+00 -1.799415643826480560e+00 1.740000000000000000e+02
7.453295681191205446e-01 -2.110348536920280349e+00 1.740000000000000000e+02
-6.342793387788885351e-01 -2.421281430014079916e+00 1.740000000000000000e+02
-2.013888245676898059e+00 -2.732214323107879927e+00 1.740000000000000000e+02
-3.393497152574907361e+00 -3.043147216201679939e+00 1.740000000000000000e+02
-4.773106059472916662e+00 -3.354080109295479506e+00 1.740000000000000000e+02
4.884156288813147562e+00 -1.177549857638881203e+00 1.750000000000000000e+02
3.504547381915138260e+00 -1.488482750732680771e+00 1.750000000000000000e+02
2.124938475017129846e+00 -1.799415643826480560e+00 1.750000000000000000e+02
7.453295681191205446e-01 -2.110348536920280349e+00 1.750000000000000000e+02
-6.342793387788885351e-01 -2.421281430014079916e+00 1.750000000000000000e+02
-2.013888245676898059e+00 -2.732214323107879927e+00 1.750000000000000000e+02
-3.393497152574907361e+00 -3.043147216201679939e+00 1.750000000000000000e+02
-4.773106059472916662e+00 -3.354080109295479506e+00 1.750000000000000000e+02
4.884156288813147562e+00 -1.177549857638881203e+00 1.760000000000000000e+02
3.504547381915138260e+00 -1.488482750732680771e+00 1.760000000000000000e+02
2.124938475017129846e+00 -1.799415643826480560e+00 1.760000000000000000e+02
7.453295681191205446e-01 -2.110348536920280349e+00 1.760000000000000000e+02
-6.342793387788885351e-01 -2.421281430014079916e+00 1.760000000000000000e+02
-2.013888245676898059e+00 -2.732214323107879927e+00 1.760000000000000000e+02
-3.393497152574907361e+00 -3.043147216201679939e+00 1.760000000000000000e+02
-4.773106059472916662e+00 -3.354080109295479506e+00 1.760000000000000000e+02
4.884156288813147562e+00 -1.177549857638881203e+00 1.770000000000000000e+02
3.504547381915138260e+00 -1.488482750732680771e+00 1.770000000000000000e+02
2.124938475017129846e+00 -1.799415643826480560e+00 1.770000000000000000e+02
7.453295681191205446e-01 -2.110348536920280349e+00 1.770000000000000000e+02
-6.342793387788885351e-01 -2.421281430014079916e+00 1.770000000000000000e+02
-2.013888245676898059e+00 -2.732214323107879927e+00 1.770000000000000000e+02
-3.393497152574907361e+00 -3.043147216201679939e+00 1.770000000000000000e+02
-4.773106059472916662e+00 -3.354080109295479506e+00 1.770000000000000000e+02
4.884156288813147562e+00 -1.177549857638881203e+00 1.780000000000000000e+02
3.504547381915138260e+00 -1.488482750732680771e+00 1.780000000000000000e+02
2.124938475017129846e+00 -1.799415643826480560e+00 1.780000000000000000e+02
7.453295681191205446e-01 -2.110348536920280349e+00 1.780000000000000000e+02
-6.342793387788885351e-01 -2.421281430014079916e+00 1.780000000000000000e+02
-2.013888245676898059e+00 -2.732214323107879927e+00 1.780000000000000000e+02
-3.393497152574907361e+00 -3.043147216201679939e+00 1.780000000000000000e+02
-4.773106059472916662e+00 -3.354080109295479506e+00 1.780000000000000000e+02
4.884156288813147562e+00 -1.177549857638881203e+00 1.790000000000000000e+02
3.504547381915138260e+00 -1.488482750732680771e+00 1.790000000000000000e+02
2.124938475017129846e+00 -1.799415643826480560e+00 1.790000000000000000e+02
7.453295681191205446e-01 -2.110348536920280349e+00 1.790000000000000000e+02
-6.342793387788885351e-01 -2.421281430014079916e+00 1.790000000000000000e+02
-2.013888245676898059e+00 -2.732214323107879927e+00 1.790000000000000000e+02
-3.393497152574907361e+00 -3.043147216201679939e+00 1.790000000000000000e+02
-4.773106059472916662e+00 -3.354080109295479506e+00 1.790000000000000000e+02
4.884156288813147562e+00 -1.177549857638881203e+00 1.800000000000000000e+02
3.504547381915138260e+00 -1.488482750732680771e+00 1.800000000000000000e+02
2.124938475017129846e+00 -1.799415643826480560e+00 1.800000000000000000e+02
7.453295681191205446e-01 -2.110348536920280349e+00 1.800000000000000000e+02
-6.342793387788885351e-01 -2.421281430014079916e+00 1.800000000000000000e+02
-2.013888245676898059e+00 -2.732214323107879927e+00 1.800000000000000000e+02
-3.393497152574907361e+00 -3.043147216201679939e+00 1.800000000000000000e+02
-4.773106059472916662e+00 -3.354080109295479506e+00 1.800000000000000000e+02
4.884156288813147562e+00 -1.177549857638881203e+00 1.810000000000000000e+02
3.504547381915138260e+00 -1.488482750732680771e+00 1.810000000000000000e+02
2.124938475017129846e+00 -1.799415643826480560e+00 1.810000000000000000e+02
7.453295681191205446e-01 -2.110348536920280349e+00 1.810000000000000000e+02
-6.342793387788885351e-01 -2.421281430014079916e+00 1.810000000000000000e+02
-2.013888245676898059e+00 -2.732214323107879927e+00 1.810000000000000000e+02
-3.393497152574907361e+00 -3.043147216201679939e+00 1.810000000000000000e+02
-4.773106059472916662e+00 -3.354080109295479506e+00 1.810000000000000000e+02
4.884156288813147562e+00 -1.177549857638881203e+00 1.820000000000000000e+02
3.504547381915138260e+00 -1.488482750732680771e+00 1.820000000000000000e+02
2.124938475017129846e+00 -1.799415643826480560e+00 1.820000000000000000e+02
7.453295681191205446e-01 -2.110348536920280349e+00 1.820000000000000000e+02
-6.342793387788885351e-01 -2.421281430014079916e+00 1.820000000000000000e+02
-2.013888245676898059e+00 -2.732214323107879927e+00 1.820000000000000000e+02
-3.393497152574907361e+00 -3.043147216201679939e+00 1.820000000000000000e+02
-4.773106059472916662e+00 -3.354080109295479506e+00 1.820000000000000000e+02
4.884156288813147562e+00 -1.177549857638881203e+00 1.830000000000000000e+02
3.504547381915138260e+00 -1.488482750732680771e+00 1.830000000000000000e+02
2.124938475017129846e+00 -1.799415643826480560e+00 1.830000000000000000e+02
7.453295681191205446e-01 -2.110348536920280349e+00 1.830000000000000000e+02
-6.342793387788885351e-01 -2.421281430014079916e+00 1.830000000000000000e+02
-2.013888245676898059e+00 -2.732214323107879927e+00 1.830000000000000000e+02
-3.393497152574907361e+00 -3.043147216201679939e+00 1.830000000000000000e+02
-4.773106059472916662e+00 -3.354080109295479506e+00 1.830000000000000000e+02
4.884156288813147562e+00 -1.177549857638881203e+00 1.840000000000000000e+02
3.504547381915138260e+00 -1.488482750732680771e+00 1.840000000000000000e+02
2.124938475017129846e+00 -1.799415643826480560e+00 1.840000000000000000e+02
7.453295681191205446e-01 -2.110348536920280349e+00 1.840000000000000000e+02
-6.342793387788885351e-01 -2.421281430014079916e+00 1.840000000000000000e+02
-2.013888245676898059e+00 -2.732214323107879927e+00 1.840000000000000000e+02
-3.393497152574907361e+00 -3.043147216201679939e+00 1.840000000000000000e+02
-4.773106059472916662e+00 -3.354080109295479506e+00 1.840000000000000000e+02
4.884156288813147562e+00 -1.177549857638881203e+00 1.850000000000000000e+02
3.504547381915138260e+00 -1.488482750732680771e+00 1.850000000000000000e+02
2.124938475017129846e+00 -1.799415643826480560e+00 1.850000000000000000e+02
7.453295681191205446e-01 -2.110348536920280349e+00 1.850000000000000000e+02
-6.342793387788885351e-01 -2.421281430014079916e+00 1.850000000000000000e+02
-2.013888245676898059e+00 -2.732214323107879927e+00 1.850000000000000000e+02
-3.393497152574907361e+00 -3.043147216201679939e+00 1.850000000000000000e+02
-4.773106059472916662e+00 -3.354080109295479506e+00 1.850000000000000000e+02
4.038885388817242905e+00 -6.432118507367765581e-01 1.860000000000000000e+02
2.659276481919234048e+00 -9.541447438305763473e-01 1.860000000000000000e+02
1.279667575021225190e+00 -1.265077636924375915e+00 1.860000000000000000e+02
-9.994133187678388985e-02 -1.576010530018175704e+00 1.860000000000000000e+02
-1.479550238774793192e+00 -1.886943423111975493e+00 1.860000000000000000e+02
-2.859159145672802715e+00 -2.197876316205775282e+00 1.860000000000000000e+02
-4.238768052570811129e+00 -2.508809209299575294e+00 1.860000000000000000e+02
4.038885388817242905e+00 -6.432118507367765581e-01 1.870000000000000000e+02
2.659276481919234048e+00 -9.541447438305763473e-01 1.870000000000000000e+02
1.279667575021225190e+00 -1.265077636924375915e+00 1.870000000000000000e+02
-9.994133187678388985e-02 -1.576010530018175704e+00 1.870000000000000000e+02
-1.479550238774793192e+00 -1.886943423111975493e+00 1.870000000000000000e+02
-2.859159145672802715e+00 -2.197876316205775282e+00 1.870000000000000000e+02
-4.238768052570811129e+00 -2.508809209299575294e+00 1.870000000000000000e+02
4.038885388817242905e+00 -6.432118507367765581e-01 1.880000000000000000e+02
2.659276481919234048e+00 -9.541447438305763473e-01 1.880000000000000000e+02
1.279667575021225190e+00 -1.265077636924375915e+00 1.880000000000000000e+02
-9.994133187678388985e-02 -1.576010530018175704e+00 1.880000000000000000e+02
-1.479550238774793192e+00 -1.886943423111975493e+00 1.880000000000000000e+02
-2.859159145672802715e+00 -2.197876316205775282e+00 1.880000000000000000e+02
-4.238768052570811129e+00 -2.508809209299575294e+00 1.880000000000000000e+02
4.038885388817242905e+00 -6.432118507367765581e-01 1.890000000000000000e+02
2.659276481919234048e+00 -9.541447438305763473e-01 1.890000000000000000e+02
1.279667575021225190e+00 -1.265077636924375915e+00 1.890000000000000000e+02
-9.994133187678388985e-02 -1.576010530018175704e+00 1.890000000000000000e+02
-1.479550238774793192e+00 -1.886943423111975493e+00 1.890000000000000000e+02
-2.859159145672802715e+00 -2.197876316205775282e+00 1.890000000000000000e+02
-4.238768052570811129e+00 -2.508809209299575294e+00 1.890000000000000000e+02
4.038885388817242905e+00 -6.432118507367765581e-01 1.900000000000000000e+02
2.659276481919234048e+00 -9.541447438305763473e-01 1.900000000000000000e+02
1.279667575021225190e+00 -1.265077636924375915e+00 1.900000000000000000e+02
-9.994133187678388985e-02 -1.576010530018175704e+00 1.900000000000000000e+02
-1.479550238774793192e+00 -1.886943423111975493e+00 1.900000000000000000e+02
-2.859159145672802715e+00 -2.197876316205775282e+00 1.900000000000000000e+02
-4.238768052570811129e+00 -2.508809209299575294e+00 1.900000000000000000e+02
4.038885388817242905e+00 -6.432118507367765581e-01 1.910000000000000000e+02
2.659276481919234048e+00 -9.541447438305763473e-01 1.910000000000000000e+02
1.279667575021225190e+00 -1.265077636924375915e+00 1.910000000000000000e+02
-9.994133187678388985e-02 -1.576010530018175704e+00 1.910000000000000000e+02
-1.479550238774793192e+00 -1.886943423111975493e+00 1.910000000000000000e+02
-2.859159145672802715e+00 -2.197876316205775282e+00 1.910000000000000000e+02
-4.238768052570811129e+00 -2.508809209299575294e+00 1.910000000000000000e+02
4.038885388817242905e+00 -6.432118507367765581e-01 1.920000000000000000e+02
2.659276481919234048e+00 -9.541447438305763473e-01 1.920000000000000000e+02
1.279667575021225190e+00 -1.265077636924375915e+00 1.920000000000000000e+02
-9.994133187678388985e-02 -1.576010530018175704e+00 1.920000000000000000e+02
-1.479550238774793192e+00 -1.886943423111975493e+00 1.920000000000000000e+02
-2.859159145672802715e+00 -2.197876316205775282e+00 1.920000000000000000e+02
-4.238768052570811129e+00 -2.508809209299575294e+00 1.920000000000000000e+02
4.038885388817242905e+00 -6.432118507367765581e-01 1.930000000000000000e+02
2.659276481919234048e+00 -9.541447438305763473e-01 1.930000000000000000e+02
1.279667575021225190e+00 -1.265077636924375915e+00 1.930000000000000000e+02
-9.994133187678388985e-02 -1.576010530018175704e+00 1.930000000000000000e+02
-1.479550238774793192e+00 -1.886943423111975493e+00 1.930000000000000000e+02
-2.859159145672802715e+00 -2.197876316205775282e+00 1.930000000000000000e+02
-4.238768052570811129e+00 -2.508809209299575294e+00 1.930000000000000000e+02
4.038885388817242905e+00 -6.432118507367765581e-01 1.940000000000000000e+02
2.659276481919234048e+00 -9.541447438305763473e-01 1.940000000000000000e+02
1.279667575021225190e+00 -1.265077636924375915e+00 1.940000000000000000e+02
-9.994133187678388985e-02 -1.576010530018175704e+00 1.940000000000000000e+02
-1.479550238774793192e+00 -1.886943423111975493e+00 1.940000000000000000e+02
-2.859159145672802715e+00 -2.197876316205775282e+00 1.940000000000000000e+02
-4.238768052570811129e+00 -2.508809209299575294e+00 1.940000000000000000e+02
4.884156288813147562e+00 -1.177549857638881203e+00 1.950000000000000000e+02
3.504547381915138260e+00 -1.488482750732680771e+00 1.950000000000000000e+02
2.124938475017129846e+00 -1.799415643826480560e+00 1.950000000000000000e+02
7.453295681191205446e-01 -2.110348536920280349e+00 1.950000000000000000e+02
-6.342793387788885351e-01 -2.421281430014079916e+00 1.950000000000000000e+02
-2.013888245676898059e+00 -2.732214323107879927e+00 1.950000000000000000e+02
-3.393497152574907361e+00 -3.043147216201679939e+00 1.950000000000000000e+02
-4.773106059472916662e+00 -3.354080109295479506e+00 1.950000000000000000e+02
4.884156288813147562e+00 -1.177549857638881203e+00 1.960000000000000000e+02
3.504547381915138260e+00 -1.488482750732680771e+00 1.960000000000000000e+02
2.124938475017129846e+00 -1.799415643826480560e+00 1.960000000000000000e+02
7.453295681191205446e-01 -2.110348536920280349e+00 1.960000000000000000e+02
-6.342793387788885351e-01 -2.421281430014079916e+00 1.960000000000000000e+02
-2.013888245676898059e+00 -2.732214323107879927e+00 1.960000000000000000e+02
-3.393497152574907361e+00 -3.043147216201679939e+00 1.960000000000000000e+02
-4.773106059472916662e+00 -3.354080109295479506e+00 1.960000000000000000e+02
4.884156288813147562e+00 -1.177549857638881203e+00 1.970000000000000000e+02
3.504547381915138260e+00 -1.488482750732680771e+00 1.970000000000000000e+02
2.124938475017129846e+00 -1.799415643826480560e+00 1.970000000000000000e+02
7.453295681191205446e-01 -2.110348536920280349e+00 1.970000000000000000e+02
-6.342793387788885351e-01 -2.421281430014079916e+00 1.970000000000000000e+02
-2.013888245676898059e+00 -2.732214323107879927e+00 1.970000000000000000e+02
-3.393497152574907361e+00 -3.043147216201679939e+00 1.970000000000000000e+02
4.884156288813147562e+00 -1.177549857638881203e+00 1.980000000000000000e+02
3.504547381915138260e+00 -1.488482750732680771e+00 1.980000000000000000e+02
2.124938475017129846e+00 -1.799415643826480560e+00 1.980000000000000000e+02
7.453295681191205446e-01 -2.110348536920280349e+00 1.980000000000000000e+02
-6.342793387788885351e-01 -2.421281430014079916e+00 1.980000000000000000e+02
-2.013888245676898059e+00 -2.732214323107879927e+00 1.980000000000000000e+02
-3.393497152574907361e+00 -3.043147216201679939e+00 1.980000000000000000e+02
4.038885388817242905e+00 -6.432118507367765581e-01 1.990000000000000000e+02
2.659276481919234048e+00 -9.541447438305763473e-01 1.990000000000000000e+02
1.279667575021225190e+00 -1.265077636924375915e+00 1.990000000000000000e+02
-9.994133187678388985e-02 -1.576010530018175704e+00 1.990000000000000000e+02
-1.479550238774793192e+00 -1.886943423111975493e+00 1.990000000000000000e+02
-2.859159145672802715e+00 -2.197876316205775282e+00 1.990000000000000000e+02
4.038885388817242905e+00 -6.432118507367765581e-01 2.000000000000000000e+02
2.659276481919234048e+00 -9.541447438305763473e-01 2.000000000000000000e+02
1.279667575021225190e+00 -1.265077636924375915e+00 2.000000000000000000e+02
-9.994133187678388985e-02 -1.576010530018175704e+00 2.000000000000000000e+02
-1.479550238774793192e+00 -1.886943423111975493e+00 2.000000000000000000e+02
-2.859159145672802715e+00 -2.197876316205775282e+00 2.000000000000000000e+02
4.884156288813147562e+00 -1.177549857638881203e+00 2.010000000000000000e+02
3.504547381915138260e+00 -1.488482750732680771e+00 2.010000000000000000e+02
2.124938475017129846e+00 -1.799415643826480560e+00 2.010000000000000000e+02
7.453295681191205446e-01 -2.110348536920280349e+00 2.010000000000000000e+02
-6.342793387788885351e-01 -2.421281430014079916e+00 2.010000000000000000e+02
-2.013888245676898059e+00 -2.732214323107879927e+00 2.010000000000000000e+02
-3.393497152574907361e+00 -3.043147216201679939e+00 2.010000000000000000e+02
4.884156288813147562e+00 -1.177549857638881203e+00 2.020000000000000000e+02
3.504547381915138260e+00 -1.488482750732680771e+00 2.020000000000000000e+02
2.124938475017129846e+00 -1.799415643826480560e+00 2.020000000000000000e+02
7.453295681191205446e-01 -2.110348536920280349e+00 2.020000000000000000e+02
-6.342793387788885351e-01 -2.421281430014079916e+00 2.020000000000000000e+02
-2.013888245676898059e+00 -2.732214323107879927e+00 2.020000000000000000e+02
-3.393497152574907361e+00 -3.043147216201679939e+00 2.020000000000000000e+02
-4.773106059472916662e+00 -3.354080109295479506e+00 2.020000000000000000e+02
4.884156288813147562e+00 -1.177549857638881203e+00 2.030000000000000000e+02
3.504547381915138260e+00 -1.488482750732680771e+00 2.030000000000000000e+02
2.124938475017129846e+00 -1.799415643826480560e+00 2.030000000000000000e+02
7.453295681191205446e-01 -2.110348536920280349e+00 2.030000000000000000e+02
-6.342793387788885351e-01 -2.421281430014079916e+00 2.030000000000000000e+02
-2.013888245676898059e+00 -2.732214323107879927e+00 2.030000000000000000e+02
-3.393497152574907361e+00 -3.043147216201679939e+00 2.030000000000000000e+02
-4.773106059472916662e+00 -3.354080109295479506e+00 2.030000000000000000e+02
