5.136204563418147906e+00 -7.058307537625837291e+00 3.230000000000000000e+02
5.463472011136665252e+00 -5.682481960866992310e+00 3.230000000000000000e+02
5.790739458855182598e+00 -4.306656384108147329e+00 3.230000000000000000e+02
6.118006906573699943e+00 -2.930830807349302347e+00 3.230000000000000000e+02
6.445274354292217289e+00 -1.555005230590458254e+00 3.230000000000000000e+02
6.772541802010733747e+00 -1.791796538316141607e-01 3.230000000000000000e+02
3.499867324825562509e+00 -1.393743542142006042e+01 3.240000000000000000e+02
3.827134772544079411e+00 -1.256160984466121633e+01 3.240000000000000000e+02
4.154402220262596757e+00 -1.118578426790237046e+01 3.240000000000000000e+02
4.481669667981114102e+00 -9.809958691143526366e+00 3.240000000000000000e+02
4.808937115699631448e+00 -8.434133114384682273e+00 3.240000000000000000e+02
5.136204563418147906e+00 -7.058307537625837291e+00 3.240000000000000000e+02
5.463472011136665252e+00 -5.682481960866992310e+00 3.240000000000000000e+02
5.790739458855182598e+00 -4.306656384108147329e+00 3.240000000000000000e+02
6.118006906573699943e+00 -2.930830807349302347e+00 3.240000000000000000e+02
6.445274354292217289e+00 -1.555005230590458254e+00 3.240000000000000000e+02
6.772541802010733747e+00 -1.791796538316141607e-01 3.240000000000000000e+02
3.499867324825562509e+00 -1.393743542142006042e+01 3.250000000000000000e+02
3.827134772544079411e+00 -1.256160984466121633e+01 3.250000000000000000e+02
4.154402220262596757e+00 -1.118578426790237046e+01 3.250000000000000000e+02
4.481669667981114102e+00 -9.809958691143526366e+00 3.250000000000000000e+02
4.808937115699631448e+00 -8.434133114384682273e+00 3.250000000000000000e+02
5.136204563418147906e+00 -7.058307537625837291e+00 3.250000000000000000e+02
5.463472011136665252e+00 -5.682481960866992310e+00 3.250000000000000000e+02
5.790739458855182598e+00 -4.306656384108147329e+00 3.250000000000000000e+02
6.118006906573699943e+00 -2.930830807349302347e+00 3.250000000000000000e+02
6.445274354292217289e+00 -1.555005230590458254e+00 3.250000000000000000e+02
6.772541802010733747e+00 -1.791796538316141607e-01 3.250000000000000000e+02
7.099809249729251981e+00 1.196645922927229932e+00 3.250000000000000000e+02
3.499867324825562509e+00 -1.393743542142006042e+01 3.260000000000000000e+02
3.827134772544079411e+00 -1.256160984466121633e+01 3.260000000000000000e+02
4.154402220262596757e+00 -1.118578426790237046e+01 3.260000000000000000e+02
4.481669667981114102e+00 -9.809958691143526366e+00 3.260000000000000000e+02
4.808937115699631448e+00 -8.434133114384682273e+00 3.260000000000000000e+02
5.136204563418147906e+00 -7.058307537625837291e+00 3.260000000000000000e+02
5.463472011136665252e+00 -5.682481960866992310e+00 3.260000000000000000e+02
5.790739458855182598e+00 -4.306656384108147329e+00 3.260000000000000000e+02
6.118006906573699943e+00 -2.930830807349302347e+00 3.260000000000000000e+02
6.445274354292217289e+00 -1.555005230590458254e+00 3.260000000000000000e+02
6.772541802010733747e+00 -1.791796538316141607e-01 3.260000000000000000e+02
7.099809249729251981e+00 1.196645922927229932e+00 3.260000000000000000e+02
3.499867324825562509e+00 -1.393743542142006042e+01 3.270000000000000000e+02
3.827134772544079411e+00 -1.256160984466121633e+01 3.270000000000000000e+02
4.154402220262596757e+00 -1.118578426790237046e+01 3.270000000000000000e+02
4.481669667981114102e+00 -9.809958691143526366e+00 3.270000000000000000e+02
4.808937115699631448e+00 -8.434133114384682273e+00 3.270000000000000000e+02
5.136204563418147906e+00 -7.058307537625837291e+00 3.270000000000000000e+02
5.463472011136665252e+00 -5.682481960866992310e+00 3.270000000000000000e+02
5.790739458855182598e+00 -4.306656384108147329e+00 3.270000000000000000e+02
6.118006906573699943e+00 -2.930830807349302347e+00 3.270000000000000000e+02
6.445274354292217289e+00 -1.555005230590458254e+00 3.270000000000000000e+02
6.772541802010733747e+00 -1.791796538316141607e-01 3.270000000000000000e+02
7.099809249729251981e+00 1.196645922927229932e+00 3.270000000000000000e+02
4.351413837064242784e+00 -1.341315635689989705e+01 3.280000000000000000e+02
4.678681284782760130e+00 -1.203733078014105118e+01 3.280000000000000000e+02
5.005948732501277476e+00 -1.066150520338220709e+01 3.280000000000000000e+02
5.333216180219794822e+00 -9.285679626623362992e+00 3.280000000000000000e+02
5.660483627938312168e+00 -7.909854049864518011e+00 3.280000000000000000e+02
5.987751075656829514e+00 -6.534028473105673029e+00 3.280000000000000000e+02
6.315018523375346859e+00 -5.158202896346828936e+00 3.280000000000000000e+02
6.642285971093864205e+00 -3.782377319587983955e+00 3.280000000000000000e+02
6.969553418812380663e+00 -2.406551742829138973e+00 3.280000000000000000e+02
7.296820866530898009e+00 -1.030726166070294880e+00 3.280000000000000000e+02
7.624088314249416243e+00 3.450994106885501012e-01 3.280000000000000000e+02
4.351413837064242784e+00 -1.341315635689989705e+01 3.290000000000000000e+02
4.678681284782760130e+00 -1.203733078014105118e+01 3.290000000000000000e+02
5.005948732501277476e+00 -1.066150520338220709e+01 3.290000000000000000e+02
5.333216180219794822e+00 -9.285679626623362992e+00 3.290000000000000000e+02
5.660483627938312168e+00 -7.909854049864518011e+00 3.290000000000000000e+02
5.987751075656829514e+00 -6.534028473105673029e+00 3.290000000000000000e+02
6.315018523375346859e+00 -5.158202896346828936e+00 3.290000000000000000e+02
6.642285971093864205e+00 -3.782377319587983955e+00 3.290000000000000000e+02
6.969553418812380663e+00 -2.406551742829138973e+00 3.290000000000000000e+02
7.296820866530898009e+00 -1.030726166070294880e+00 3.290000000000000000e+02
7.624088314249416243e+00 3.450994106885501012e-01 3.290000000000000000e+02
5.202960349302924392e+00 -1.288887729237973190e+01 3.300000000000000000e+02
5.530227797021440850e+00 -1.151305171562088780e+01 3.300000000000000000e+02
5.857495244739958196e+00 -1.013722613886204371e+01 3.300000000000000000e+02
6.184762692458475541e+00 -8.761400562103197842e+00 3.300000000000000000e+02
6.512030140176992887e+00 -7.385574985344353749e+00 3.300000000000000000e+02
6.839297587895510233e+00 -6.009749408585509656e+00 3.300000000000000000e+02
7.166565035614027579e+00 -4.633923831826664674e+00 3.300000000000000000e+02
7.493832483332544925e+00 -3.258098255067819693e+00 3.300000000000000000e+02
7.821099931051061382e+00 -1.882272678308975600e+00 3.300000000000000000e+02
8.148367378769579616e+00 -5.064471015501315065e-01 3.300000000000000000e+02
5.202960349302924392e+00 -1.288887729237973190e+01 3.310000000000000000e+02
5.530227797021440850e+00 -1.151305171562088780e+01 3.310000000000000000e+02
5.857495244739958196e+00 -1.013722613886204371e+01 3.310000000000000000e+02
6.184762692458475541e+00 -8.761400562103197842e+00 3.310000000000000000e+02
6.512030140176992887e+00 -7.385574985344353749e+00 3.310000000000000000e+02
6.839297587895510233e+00 -6.009749408585509656e+00 3.310000000000000000e+02
7.166565035614027579e+00 -4.633923831826664674e+00 3.310000000000000000e+02
7.493832483332544925e+00 -3.258098255067819693e+00 3.310000000000000000e+02
7.821099931051061382e+00 -1.882272678308975600e+00 3.310000000000000000e+02
8.148367378769579616e+00 -5.064471015501315065e-01 3.310000000000000000e+02
4.351413837064242784e+00 -1.341315635689989705e+01 3.320000000000000000e+02
4.678681284782760130e+00 -1.203733078014105118e+01 3.320000000000000000e+02
5.005948732501277476e+00 -1.066150520338220709e+01 3.320000000000000000e+02
5.333216180219794822e+00 -9.285679626623362992e+00 3.320000000000000000e+02
5.660483627938312168e+00 -7.909854049864518011e+00 3.320000000000000000e+02
5.987751075656829514e+00 -6.534028473105673029e+00 3.320000000000000000e+02
6.315018523375346859e+00 -5.158202896346828936e+00 3.320000000000000000e+02
6.642285971093864205e+00 -3.782377319587983955e+00 3.320000000000000000e+02
6.969553418812380663e+00 -2.406551742829138973e+00 3.320000000000000000e+02
7.296820866530898009e+00 -1.030726166070294880e+00 3.320000000000000000e+02
4.351413837064242784e+00 -1.341315635689989705e+01 3.330000000000000000e+02
4.678681284782760130e+00 -1.203733078014105118e+01 3.330000000000000000e+02
5.005948732501277476e+00 -1.066150520338220709e+01 3.330000000000000000e+02
5.333216180219794822e+00 -9.285679626623362992e+00 3.330000000000000000e+02
5.660483627938312168e+00 -7.909854049864518011e+00 3.330000000000000000e+02
5.987751075656829514e+00 -6.534028473105673029e+00 3.330000000000000000e+02
6.315018523375346859e+00 -5.158202896346828936e+00 3.330000000000000000e+02
6.642285971093864205e+00 -3.782377319587983955e+00 3.330000000000000000e+02
6.969553418812380663e+00 -2.406551742829138973e+00 3.330000000000000000e+02
7.296820866530898009e+00 -1.030726166070294880e+00 3.330000000000000000e+02
4.351413837064242784e+00 -1.341315635689989705e+01 3.340000000000000000e+02
4.678681284782760130e+00 -1.203733078014105118e+01 3.340000000000000000e+02
5.005948732501277476e+00 -1.066150520338220709e+01 3.340000000000000000e+02
5.333216180219794822e+00 -9.285679626623362992e+00 3.340000000000000000e+02
5.660483627938312168e+00 -7.909854049864518011e+00 3.340000000000000000e+02
5.987751075656829514e+00 -6.534028473105673029e+00 3.340000000000000000e+02
6.315018523375346859e+00 -5.158202896346828936e+00 3.340000000000000000e+02
6.642285971093864205e+00 -3.782377319587983955e+00 3.340000000000000000e+02
6.969553418812380663e+00 -2.406551742829138973e+00 3.340000000000000000e+02
7.296820866530898009e+00 -1.030726166070294880e+00 3.340000000000000000e+02
4.351413837064242784e+00 -1.341315635689989705e+01 3.350000000000000000e+02
4.678681284782760130e+00 -1.203733078014105118e+01 3.350000000000000000e+02
5.005948732501277476e+00 -1.066150520338220709e+01 3.350000000000000000e+02
5.333216180219794822e+00 -9.285679626623362992e+00 3.350000000000000000e+02
5.660483627938312168e+00 -7.909854049864518011e+00 3.350000000000000000e+02
5.987751075656829514e+00 -6.534028473105673029e+00 3.350000000000000000e+02
6.315018523375346859e+00 -5.158202896346828936e+00 3.350000000000000000e+02
6.642285971093864205e+00 -3.782377319587983955e+00 3.350000000000000000e+02
6.969553418812380663e+00 -2.406551742829138973e+00 3.350000000000000000e+02
7.296820866530898009e+00 -1.030726166070294880e+00 3.350000000000000000e+02
7.624088314249416243e+00 3.450994106885501012e-01 3.350000000000000000e+02
5.202960349302924392e+00 -1.288887729237973190e+01 3.360000000000000000e+02
5.530227797021440850e+00 -1.151305171562088780e+01 3.360000000000000000e+02
5.857495244739958196e+00 -1.013722613886204371e+01 3.360000000000000000e+02
6.184762692458475541e+00 -8.761400562103197842e+00 3.360000000000000000e+02
6.512030140176992887e+00 -7.385574985344353749e+00 3.360000000000000000e+02
6.839297587895510233e+00 -6.009749408585509656e+00 3.360000000000000000e+02
7.166565035614027579e+00 -4.633923831826664674e+00 3.360000000000000000e+02
7.493832483332544925e+00 -3.258098255067819693e+00 3.360000000000000000e+02
7.821099931051061382e+00 -1.882272678308975600e+00 3.360000000000000000e+02
8.148367378769579616e+00 -5.064471015501315065e-01 3.360000000000000000e+02
4.351413837064242784e+00 -1.341315635689989705e+01 3.370000000000000000e+02
4.678681284782760130e+00 -1.203733078014105118e+01 3.370000000000000000e+02
5.005948732501277476e+00 -1.066150520338220709e+01 3.370000000000000000e+02
5.333216180219794822e+00 -9.285679626623362992e+00 3.370000000000000000e+02
5.660483627938312168e+00 -7.909854049864518011e+00 3.370000000000000000e+02
5.987751075656829514e+00 -6.534028473105673029e+00 3.370000000000000000e+02
6.315018523375346859e+00 -5.158202896346828936e+00 3.370000000000000000e+02
6.642285971093864205e+00 -3.782377319587983955e+00 3.370000000000000000e+02
6.969553418812380663e+00 -2.406551742829138973e+00 3.370000000000000000e+02
7.296820866530898009e+00 -1.030726166070294880e+00 3.370000000000000000e+02
7.624088314249416243e+00 3.450994106885501012e-01 3.370000000000000000e+02
4.351413837064242784e+00 -1.341315635689989705e+01 3.380000000000000000e+02
4.678681284782760130e+00 -1.203733078014105118e+01 3.380000000000000000e+02
5.005948732501277476e+00 -1.066150520338220709e+01 3.380000000000000000e+02
5.333216180219794822e+00 -9.285679626623362992e+00 3.380000000000000000e+02
5.660483627938312168e+00 -7.909854049864518011e+00 3.380000000000000000e+02
5.987751075656829514e+00 -6.534028473105673029e+00 3.380000000000000000e+02
6.315018523375346859e+00 -5.158202896346828936e+00 3.380000000000000000e+02
6.642285971093864205e+00 -3.782377319587983955e+00 3.380000000000000000e+02
6.969553418812380663e+00 -2.406551742829138973e+00 3.380000000000000000e+02
7.296820866530898009e+00 -1.030726166070294880e+00 3.380000000000000000e+02
4.351413837064242784e+00 -1.341315635689989705e+01 3.390000000000000000e+02
4.678681284782760130e+00 -1.203733078014105118e+01 3.390000000000000000e+02
5.005948732501277476e+00 -1.066150520338220709e+01 3.390000000000000000e+02
5.333216180219794822e+00 -9.285679626623362992e+00 3.390000000000000000e+02
5.660483627938312168e+00 -7.909854049864518011e+00 3.390000000000000000e+02
5.987751075656829514e+00 -6.534028473105673029e+00 3.390000000000000000e+02
6.315018523375346859e+00 -5.158202896346828936e+00 3.390000000000000000e+02
6.642285971093864205e+00 -3.782377319587983955e+00 3.390000000000000000e+02
6.969553418812380663e+00 -2.406551742829138973e+00 3.390000000000000000e+02
7.296820866530898009e+00 -1.030726166070294880e+00 3.390000000000000000e+02
4.351413837064242784e+00 -1.341315635689989705e+01 3.400000000000000000e+02
4.678681284782760130e+00 -1.203733078014105118e+01 3.400000000000000000e+02
5.005948732501277476e+00 -1.066150520338220709e+01 3.400000000000000000e+02
5.333216180219794822e+00 -9.285679626623362992e+00 3.400000000000000000e+02
5.660483627938312168e+00 -7.909854049864518011e+00 3.400000000000000000e+02
5.987751075656829514e+00 -6.534028473105673029e+00 3.400000000000000000e+02
6.315018523375346859e+00 -5.158202896346828936e+00 3.400000000000000000e+02
6.642285971093864205e+00 -3.782377319587983955e+00 3.400000000000000000e+02
6.969553418812380663e+00 -2.406551742829138973e+00 3.400000000000000000e+02
7.296820866530898009e+00 -1.030726166070294880e+00 3.400000000000000000e+02
4.351413837064242784e+00 -1.341315635689989705e+01 3.410000000000000000e+02
4.678681284782760130e+00 -1.203733078014105118e+01 3.410000000000000000e+02
5.005948732501277476e+00 -1.066150520338220709e+01 3.410000000000000000e+02
5.333216180219794822e+00 -9.285679626623362992e+00 3.410000000000000000e+02
5.660483627938312168e+00 -7.909854049864518011e+00 3.410000000000000000e+02
5.987751075656829514e+00 -6.534028473105673029e+00 3.410000000000000000e+02
6.315018523375346859e+00 -5.158202896346828936e+00 3.410000000000000000e+02
6.642285971093864205e+00 -3.782377319587983955e+00 3.410000000000000000e+02
6.969553418812380663e+00 -2.406551742829138973e+00 3.410000000000000000e+02
7.296820866530898009e+00 -1.030726166070294880e+00 3.410000000000000000e+02
4.351413837064242784e+00 -1.341315635689989705e+01 3.420000000000000000e+02
4.678681284782760130e+00 -1.203733078014105118e+01 3.420000000000000000e+02
5.005948732501277476e+00 -1.066150520338220709e+01 3.420000000000000000e+02
5.333216180219794822e+00 -9.285679626623362992e+00 3.420000000000000000e+02
5.660483627938312168e+00 -7.909854049864518011e+00 3.420000000000000000e+02
5.987751075656829514e+00 -6.534028473105673029e+00 3.420000000000000000e+02
6.315018523375346859e+00 -5.158202896346828936e+00 3.420000000000000000e+02
6.642285971093864205e+00 -3.782377319587983955e+00 3.420000000000000000e+02
6.969553418812380663e+00 -2.406551742829138973e+00 3.420000000000000000e+02
7.296820866530898009e+00 -1.030726166070294880e+00 3.420000000000000000e+02
4.351413837064242784e+00 -1.341315635689989705e+01 3.430000000000000000e+02
4.678681284782760130e+00 -1.203733078014105118e+01 3.430000000000000000e+02
5.005948732501277476e+00 -1.066150520338220709e+01 3.430000000000000000e+02
5.333216180219794822e+00 -9.285679626623362992e+00 3.430000000000000000e+02
5.660483627938312168e+00 -7.909854049864518011e+00 3.430000000000000000e+02
5.987751075656829514e+00 -6.534028473105673029e+00 3.430000000000000000e+02
6.315018523375346859e+00 -5.158202896346828936e+00 3.430000000000000000e+02
6.642285971093864205e+00 -3.782377319587983955e+00 3.430000000000000000e+02
6.969553418812380663e+00 -2.406551742829138973e+00 3.430000000000000000e+02
7.296820866530898009e+00 -1.030726166070294880e+00 3.430000000000000000e+02
3.499867324825562509e+00 -1.393743542142006042e+01 3.440000000000000000e+02
3.827134772544079411e+00 -1.256160984466121633e+01 3.440000000000000000e+02
4.154402220262596757e+00 -1.118578426790237046e+01 3.440000000000000000e+02
4.481669667981114102e+00 -9.809958691143526366e+00 3.440000000000000000e+02
4.808937115699631448e+00 -8.434133114384682273e+00 3.440000000000000000e+02
5.136204563418147906e+00 -7.058307537625837291e+00 3.440000000000000000e+02
5.463472011136665252e+00 -5.682481960866992310e+00 3.440000000000000000e+02
5.790739458855182598e+00 -4.306656384108147329e+00 3.440000000000000000e+02
6.118006906573699943e+00 -2.930830807349302347e+00 3.440000000000000000e+02
6.445274354292217289e+00 -1.555005230590458254e+00 3.440000000000000000e+02
6.772541802010733747e+00 -1.791796538316141607e-01 3.440000000000000000e+02
3.499867324825562509e+00 -1.393743542142006042e+01 3.450000000000000000e+02
3.827134772544079411e+00 -1.256160984466121633e+01 3.450000000000000000e+02
4.154402220262596757e+00 -1.118578426790237046e+01 3.450000000000000000e+02
4.481669667981114102e+00 -9.809958691143526366e+00 3.450000000000000000e+02
4.808937115699631448e+00 -8.434133114384682273e+00 3.450000000000000000e+02
5.136204563418147906e+00 -7.058307537625837291e+00 3.450000000000000000e+02
5.463472011136665252e+00 -5.682481960866992310e+00 3.450000000000000000e+02
5.790739458855182598e+00 -4.306656384108147329e+00 3.450000000000000000e+02
6.118006906573699943e+00 -2.930830807349302347e+00 3.450000000000000000e+02
6.445274354292217289e+00 -1.555005230590458254e+00 3.450000000000000000e+02
6.772541802010733747e+00 -1.791796538316141607e-01 3.450000000000000000e+02
3.499867324825562509e+00 -1.393743542142006042e+01 3.460000000000000000e+02
3.827134772544079411e+00 -1.256160984466121633e+01 3.460000000000000000e+02
4.154402220262596757e+00 -1.118578426790237046e+01 3.460000000000000000e+02
4.481669667981114102e+00 -9.809958691143526366e+00 3.460000000000000000e+02
4.808937115699631448e+00 -8.434133114384682273e+00 3.460000000000000000e+02
5.136204563418147906e+00 -7.058307537625837291e+00 3.460000000000000000e+02
5.463472011136665252e+00 -5.682481960866992310e+00 3.460000000000000000e+02
5.790739458855182598e+00 -4.306656384108147329e+00 3.460000000000000000e+02
6.118006906573699943e+00 -2.930830807349302347e+00 3.460000000000000000e+02
6.445274354292217289e+00 -1.555005230590458254e+00 3.460000000000000000e+02
6.772541802010733747e+00 -1.791796538316141607e-01 3.460000000000000000e+02
3.499867324825562509e+00 -1.393743542142006042e+01 3.470000000000000000e+02
3.827134772544079411e+00 -1.256160984466121633e+01 3.470000000000000000e+02
4.154402220262596757e+00 -1.118578426790237046e+01 3.470000000000000000e+02
4.481669667981114102e+00 -9.809958691143526366e+00 3.470000000000000000e+02
4.808937115699631448e+00 -8.434133114384682273e+00 3.470000000000000000e+02
5.136204563418147906e+00 -7.058307537625837291e+00 3.470000000000000000e+02
5.463472011136665252e+00 -5.682481960866992310e+00 3.470000000000000000e+02
5.790739458855182598e+00 -4.306656384108147329e+00 3.470000000000000000e+02
6.118006906573699943e+00 -2.930830807349302347e+00 3.470000000000000000e+02
6.445274354292217289e+00 -1.555005230590458254e+00 3.470000000000000000e+02
6.772541802010733747e+00 -1.791796538316141607e-01 3.470000000000000000e+02
4.351413837064242784e+00 -1.341315635689989705e+01 3.480000000000000000e+02
4.678681284782760130e+00 -1.203733078014105118e+01 3.480000000000000000e+02
5.005948732501277476e+00 -1.066150520338220709e+01 3.480000000000000000e+02
5.333216180219794822e+00 -9.285679626623362992e+00 3.480000000000000000e+02
5.660483627938312168e+00 -7.909854049864518011e+00 3.480000000000000000e+02
5.987751075656829514e+00 -6.534028473105673029e+00 3.480000000000000000e+02
6.315018523375346859e+00 -5.158202896346828936e+00 3.480000000000000000e+02
6.642285971093864205e+00 -3.782377319587983955e+00 3.480000000000000000e+02
6.969553418812380663e+00 -2.406551742829138973e+00 3.480000000000000000e+02
7.296820866530898009e+00 -1.030726166070294880e+00 3.480000000000000000e+02
4.351413837064242784e+00 -1.341315635689989705e+01 3.490000000000000000e+02
4.678681284782760130e+00 -1.203733078014105118e+01 3.490000000000000000e+02
5.005948732501277476e+00 -1.066150520338220709e+01 3.490000000000000000e+02
5.333216180219794822e+00 -9.285679626623362992e+00 3.490000000000000000e+02
5.660483627938312168e+00 -7.909854049864518011e+00 3.490000000000000000e+02
5.987751075656829514e+00 -6.534028473105673029e+00 3.490000000000000000e+02
6.315018523375346859e+00 -5.158202896346828936e+00 3.490000000000000000e+02
6.642285971093864205e+00 -3.782377319587983955e+00 3.490000000000000000e+02
6.969553418812380663e+00 -2.406551742829138973e+00 3.490000000000000000e+02
7.296820866530898009e+00 -1.030726166070294880e+00 3.490000000000000000e+02
4.351413837064242784e+00 -1.341315635689989705e+01 3.500000000000000000e+02
4.678681284782760130e+00 -1.203733078014105118e+01 3.500000000000000000e+02
5.005948732501277476e+00 -1.066150520338220709e+01 3.500000000000000000e+02
5.333216180219794822e+00 -9.285679626623362992e+00 3.500000000000000000e+02
5.660483627938312168e+00 -7.909854049864518011e+00 3.500000000000000000e+02
5.987751075656829514e+00 -6.534028473105673029e+00 3.500000000000000000e+02
6.315018523375346859e+00 -5.158202896346828936e+00 3.500000000000000000e+02
6.642285971093864205e+00 -3.782377319587983955e+00 3.500000000000000000e+02
6.969553418812380663e+00 -2.406551742829138973e+00 3.500000000000000000e+02
7.296820866530898009e+00 -1.030726166070294880e+00 3.500000000000000000e+02
4.351413837064242784e+00 -1.341315635689989705e+01 3.510000000000000000e+02
4.678681284782760130e+00 -1.203733078014105118e+01 3.510000000000000000e+02
5.005948732501277476e+00 -1.066150520338220709e+01 3.510000000000000000e+02
5.333216180219794822e+00 -9.285679626623362992e+00 3.510000000000000000e+02
5.660483627938312168e+00 -7.909854049864518011e+00 3.510000000000000000e+02
5.987751075656829514e+00 -6.534028473105673029e+00 3.510000000000000000e+02
6.315018523375346859e+00 -5.158202896346828936e+00 3.510000000000000000e+02
6.642285971093864205e+00 -3.782377319587983955e+00 3.510000000000000000e+02
6.969553418812380663e+00 -2.406551742829138973e+00 3.510000000000000000e+02
7.296820866530898009e+00 -1.030726166070294880e+00 3.510000000000000000e+02
4.351413837064242784e+00 -1.341315635689989705e+01 3.520000000000000000e+02
4.678681284782760130e+00 -1.203733078014105118e+01 3.520000000000000000e+02
5.005948732501277476e+00 -1.066150520338220709e+01 3.520000000000000000e+02
5.333216180219794822e+00 -9.285679626623362992e+00 3.520000000000000000e+02
5.660483627938312168e+00 -7.909854049864518011e+00 3.520000000000000000e+02
5.987751075656829514e+00 -6.534028473105673029e+00 3.520000000000000000e+02
6.315018523375346859e+00 -5.158202896346828936e+00 3.520000000000000000e+02
6.642285971093864205e+00 -3.782377319587983955e+00 3.520000000000000000e+02
6.969553418812380663e+00 -2.406551742829138973e+00 3.520000000000000000e+02
7.296820866530898009e+00 -1.030726166070294880e+00 3.520000000000000000e+02
4.351413837064242784e+00 -1.341315635689989705e+01 3.530000000000000000e+02
4.678681284782760130e+00 -1.203733078014105118e+01 3.530000000000000000e+02
5.005948732501277476e+00 -1.066150520338220709e+01 3.530000000000000000e+02
5.333216180219794822e+00 -9.285679626623362992e+00 3.530000000000000000e+02
5.660483627938312168e+00 -7.909854049864518011e+00 3.530000000000000000e+02
5.987751075656829514e+00 -6.534028473105673029e+00 3.530000000000000000e+02
6.315018523375346859e+00 -5.158202896346828936e+00 3.530000000000000000e+02
6.642285971093864205e+00 -3.782377319587983955e+00 3.530000000000000000e+02
6.969553418812380663e+00 -2.406551742829138973e+00 3.530000000000000000e+02
7.296820866530898009e+00 -1.030726166070294880e+00 3.530000000000000000e+02
4.351413837064242784e+00 -1.341315635689989705e+01 3.540000000000000000e+02
4.678681284782760130e+00 -1.203733078014105118e+01 3.540000000000000000e+02
5.005948732501277476e+00 -1.066150520338220709e+01 3.540000000000000000e+02
5.333216180219794822e+00 -9.285679626623362992e+00 3.540000000000000000e+02
5.660483627938312168e+00 -7.909854049864518011e+00 3.540000000000000000e+02
5.987751075656829514e+00 -6.534028473105673029e+00 3.540000000000000000e+02
6.315018523375346859e+00 -5.158202896346828936e+00 3.540000000000000000e+02
6.642285971093864205e+00 -3.782377319587983955e+00 3.540000000000000000e+02
6.969553418812380663e+00 -2.406551742829138973e+00 3.540000000000000000e+02
7.296820866530898009e+00 -1.030726166070294880e+00 3.540000000000000000e+02
4.351413837064242784e+00 -1.341315635689989705e+01 3.550000000000000000e+02
4.678681284782760130e+00 -1.203733078014105118e+01 3.550000000000000000e+02
5.005948732501277476e+00 -1.066150520338220709e+01 3.550000000000000000e+02
5.333216180219794822e+00 -9.285679626623362992e+00 3.550000000000000000e+02
5.660483627938312168e+00 -7.909854049864518011e+00 3.550000000000000000e+02
5.987751075656829514e+00 -6.534028473105673029e+00 3.550000000000000000e+02
6.315018523375346859e+00 -5.158202896346828936e+00 3.550000000000000000e+02
6.642285971093864205e+00 -3.782377319587983955e+00 3.550000000000000000e+02
6.969553418812380663e+00 -2.406551742829138973e+00 3.550000000000000000e+02
7.296820866530898009e+00 -1.030726166070294880e+00 3.550000000000000000e+02
4.351413837064242784e+00 -1.341315635689989705e+01 3.560000000000000000e+02
4.678681284782760130e+00 -1.203733078014105118e+01 3.560000000000000000e+02
5.005948732501277476e+00 -1.066150520338220709e+01 3.560000000000000000e+02
5.333216180219794822e+00 -9.285679626623362992e+00 3.560000000000000000e+02
5.660483627938312168e+00 -7.909854049864518011e+00 3.560000000000000000e+02
5.987751075656829514e+00 -6.534028473105673029e+00 3.560000000000000000e+02
6.315018523375346859e+00 -5.158202896346828936e+00 3.560000000000000000e+02
6.642285971093864205e+00 -3.782377319587983955e+00 3.560000000000000000e+02
6.969553418812380663e+00 -2.406551742829138973e+00 3.560000000000000000e+02
7.296820866530898009e+00 -1.030726166070294880e+00 3.560000000000000000e+02
4.351413837064242784e+00 -1.341315635689989705e+01 3.570000000000000000e+02
4.678681284782760130e+00 -1.203733078014105118e+01 3.570000000000000000e+02
5.005948732501277476e+00 -1.066150520338220709e+01 3.570000000000000000e+02
5.333216180219794822e+00 -9.285679626623362992e+00 3.570000000000000000e+02
5.660483627938312168e+00 -7.909854049864518011e+00 3.570000000000000000e+02
5.987751075656829514e+00 -6.534028473105673029e+00 3.570000000000000000e+02
6.315018523375346859e+00 -5.158202896346828936e+00 3.570000000000000000e+02
6.642285971093864205e+00 -3.782377319587983955e+00 3.570000000000000000e+02
6.969553418812380663e+00 -2.406551742829138973e+00 3.570000000000000000e+02
7.296820866530898009e+00 -1.030726166070294880e+00 3.570000000000000000e+02
4.351413837064242784e+00 -1.341315635689989705e+01 3.580000000000000000e+02
4.678681284782760130e+00 -1.203733078014105118e+01 3.580000000000000000e+02
5.005948732501277476e+00 -1.066150520338220709e+01 3.580000000000000000e+02
5.333216180219794822e+00 -9.285679626623362992e+00 3.580000000000000000e+02
5.660483627938312168e+00 -7.909854049864518011e+00 3.580000000000000000e+02
5.987751075656829514e+00 -6.534028473105673029e+00 3.580000000000000000e+02
6.315018523375346859e+00 -5.158202896346828936e+00 3.580000000000000000e+02
6.642285971093864205e+00 -3.782377319587983955e+00 3.580000000000000000e+02
6.969553418812380663e+00 -2.406551742829138973e+00 3.580000000000000000e+02
7.296820866530898009e+00 -1.030726166070294880e+00 3.580000000000000000e+02
4.351413837064242784e+00 -1.341315635689989705e+01 3.590000000000000000e+02
4.678681284782760130e+00 -1.203733078014105118e+01 3.590000000000000000e+02
5.005948732501277476e+00 -1.066150520338220709e+01 3.590000000000000000e+02
5.333216180219794822e+00 -9.285679626623362992e+00 3.590000000000000000e+02
5.660483627938312168e+00 -7.909854049864518011e+00 3.590000000000000000e+02
5.987751075656829514e+00 -6.534028473105673029e+00 3.590000000000000000e+02
6.315018523375346859e+00 -5.158202896346828936e+00 3.590000000000000000e+02
6.642285971093864205e+00 -3.782377319587983955e+00 3.590000000000000000e+02
6.969553418812380663e+00 -2.406551742829138973e+00 3.590000000000000000e+02
7.296820866530898009e+00 -1.030726166070294880e+00 3.590000000000000000e+02
4.351413837064242784e+00 -1.341315635689989705e+01 3.600000000000000000e+02
4.678681284782760130e+00 -1.203733078014105118e+01 3.600000000000000000e+02
5.005948732501277476e+00 -1.066150520338220709e+01 3.600000000000000000e+02
5.333216180219794822e+00 -9.285679626623362992e+00 3.600000000000000000e+02
5.660483627938312168e+00 -7.909854049864518011e+00 3.600000000000000000e+02
5.987751075656829514e+00 -6.534028473105673029e+00 3.600000000000000000e+02
6.315018523375346859e+00 -5.158202896346828936e+00 3.600000000000000000e+02
6.642285971093864205e+00 -3.782377319587983955e+00 3.600000000000000000e+02
6.969553418812380663e+00 -2.406551742829138973e+00 3.600000000000000000e+02
7.296820866530898009e+00 -1.030726166070294880e+00 3.600000000000000000e+02
4.351413837064242784e+00 -1.341315635689989705e+01 3.610000000000000000e+02
4.678681284782760130e+00 -1.203733078014105118e+01 3.610000000000000000e+02
5.005948732501277476e+00 -1.066150520338220709e+01 3.610000000000000000e+02
5.333216180219794822e+00 -9.285679626623362992e+00 3.610000000000000000e+02
5.660483627938312168e+00 -7.909854049864518011e+00 3.610000000000000000e+02
5.987751075656829514e+00 -6.534028473105673029e+00 3.610000000000000000e+02
6.315018523375346859e+00 -5.158202896346828936e+00 3.610000000000000000e+02
6.642285971093864205e+00 -3.782377319587983955e+00 3.610000000000000000e+02
6.969553418812380663e+00 -2.406551742829138973e+00 3.610000000000000000e+02
4.351413837064242784e+00 -1.341315635689989705e+01 3.620000000000000000e+02
4.678681284782760130e+00 -1.203733078014105118e+01 3.620000000000000000e+02
5.005948732501277476e+00 -1.066150520338220709e+01 3.620000000000000000e+02
5.333216180219794822e+00 -9.285679626623362992e+00 3.620000000000000000e+02
5.660483627938312168e+00 -7.909854049864518011e+00 3.620000000000000000e+02
5.987751075656829514e+00 -6.534028473105673029e+00 3.620000000000000000e+02
6.315018523375346859e+00 -5.158202896346828936e+00 3.620000000000000000e+02
6.642285971093864205e+00 -3.782377319587983955e+00 3.620000000000000000e+02
6.969553418812380663e+00 -2.406551742829138973e+00 3.620000000000000000e+02
4.351413837064242784e+00 -1.341315635689989705e+01 3.630000000000000000e+02
4.678681284782760130e+00 -1.203733078014105118e+01 3.630000000000000000e+02
5.005948732501277476e+00 -1.066150520338220709e+01 3.630000000000000000e+02
5.333216180219794822e+00 -9.285679626623362992e+00 3.630000000000000000e+02
5.660483627938312168e+00 -7.909854049864518011e+00 3.630000000000000000e+02
5.987751075656829514e+00 -6.534028473105673029e+00 3.630000000000000000e+02
6.315018523375346859e+00 -5.158202896346828936e+00 3.630000000000000000e+02
6.642285971093864205e+00 -3.782377319587983955e+00 3.630000000000000000e+02
6.969553418812380663e+00 -2.406551742829138973e+00 3.630000000000000000e+02
7.296820866530898009e+00 -1.030726166070294880e+00 3.630000000000000000e+02
4.351413837064242784e+00 -1.341315635689989705e+01 3.640000000000000000e+02
4.678681284782760130e+00 -1.203733078014105118e+01 3.640000000000000000e+02
5.005948732501277476e+00 -1.066150520338220709e+01 3.640000000000000000e+02
5.333216180219794822e+00 -9.285679626623362992e+00 3.640000000000000000e+02
5.660483627938312168e+00 -7.909854049864518011e+00 3.640000000000000000e+02
5.987751075656829514e+00 -6.534028473105673029e+00 3.640000000000000000e+02
6.315018523375346859e+00 -5.158202896346828936e+00 3.640000000000000000e+02
6.642285971093864205e+00 -3.782377319587983955e+00 3.640000000000000000e+02
6.969553418812380663e+00 -2.406551742829138973e+00 3.640000000000000000e+02
7.296820866530898009e+00 -1.030726166070294880e+00 3.640000000000000000e+02
4.351413837064242784e+00 -1.341315635689989705e+01 3.650000000000000000e+02
4.678681284782760130e+00 -1.203733078014105118e+01 3.650000000000000000e+02
5.005948732501277476e+00 -1.066150520338220709e+01 3.650000000000000000e+02
5.333216180219794822e+00 -9.285679626623362992e+00 3.650000000000000000e+02
5.660483627938312168e+00 -7.909854049864518011e+00 3.650000000000000000e+02
5.987751075656829514e+00 -6.534028473105673029e+00 3.650000000000000000e+02
6.315018523375346859e+00 -5.158202896346828936e+00 3.650000000000000000e+02
6.642285971093864205e+00 -3.782377319587983955e+00 3.650000000000000000e+02
6.969553418812380663e+00 -2.406551742829138973e+00 3.650000000000000000e+02
7.296820866530898009e+00 -1.030726166070294880e+00 3.650000000000000000e+02
4.351413837064242784e+00 -1.341315635689989705e+01 3.660000000000000000e+02
4.678681284782760130e+00 -1.203733078014105118e+01 3.660000000000000000e+02
5.005948732501277476e+00 -1.066150520338220709e+01 3.660000000000000000e+02
5.333216180219794822e+00 -9.285679626623362992e+00 3.660000000000000000e+02
5.660483627938312168e+00 -7.909854049864518011e+00 3.660000000000000000e+02
5.987751075656829514e+00 -6.534028473105673029e+00 3.660000000000000000e+02
6.315018523375346859e+00 -5.158202896346828936e+00 3.660000000000000000e+02
6.642285971093864205e+00 -3.782377319587983955e+00 3.660000000000000000e+02
6.969553418812380663e+00 -2.406551742829138973e+00 3.660000000000000000e+02
4.351413837064242784e+00 -1.341315635689989705e+01 3.670000000000000000e+02
4.678681284782760130e+00 -1.203733078014105118e+01 3.670000000000000000e+02
5.005948732501277476e+00 -1.066150520338220709e+01 3.670000000000000000e+02
5.333216180219794822e+00 -9.285679626623362992e+00 3.670000000000000000e+02
5.660483627938312168e+00 -7.909854049864518011e+00 3.670000000000000000e+02
5.987751075656829514e+00 -6.534028473105673029e+00 3.670000000000000000e+02
6.315018523375346859e+00 -5.158202896346828936e+00 3.670000000000000000e+02
6.642285971093864205e+00 -3.782377319587983955e+00 3.670000000000000000e+02
6.969553418812380663e+00 -2.406551742829138973e+00 3.670000000000000000e+02
4.351413837064242784e+00 -1.341315635689989705e+01 3.680000000000000000e+02
4.678681284782760130e+00 -1.203733078014105118e+01 3.680000000000000000e+02
5.005948732501277476e+00 -1.066150520338220709e+01 3.680000000000000000e+02
5.333216180219794822e+00 -9.285679626623362992e+00 3.680000000000000000e+02
5.660483627938312168e+00 -7.909854049864518011e+00 3.680000000000000000e+02
5.987751075656829514e+00 -6.534028473105673029e+00 3.680000000000000000e+02
6.315018523375346859e+00 -5.158202896346828936e+00 3.680000000000000000e+02
6.642285971093864205e+00 -3.782377319587983955e+00 3.680000000000000000e+02
6.969553418812380663e+00 -2.406551742829138973e+00 3.680000000000000000e+02
4.351413837064242784e+00 -1.341315635689989705e+01 3.690000000000000000e+02
4.678681284782760130e+00 -1.203733078014105118e+01 3.690000000000000000e+02
5.005948732501277476e+00 -1.066150520338220709e+01 3.690000000000000000e+02
5.333216180219794822e+00 -9.285679626623362992e+00 3.690000000000000000e+02
5.660483627938312168e+00 -7.909854049864518011e+00 3.690000000000000000e+02
5.987751075656829514e+00 -6.534028473105673029e+00 3.690000000000000000e+02
6.315018523375346859e+00 -5.158202896346828936e+00 3.690000000000000000e+02
6.642285971093864205e+00 -3.782377319587983955e+00 3.690000000000000000e+02
6.969553418812380663e+00 -2.406551742829138973e+00 3.690000000000000000e+02
7.296820866530898009e+00 -1.030726166070294880e+00 3.690000000000000000e+02
4.351413837064242784e+00 -1.341315635689989705e+01 3.700000000000000000e+02
4.678681284782760130e+00 -1.203733078014105118e+01 3.700000000000000000e+02
5.005948732501277476e+00 -1.066150520338220709e+01 3.700000000000000000e+02
5.333216180219794822e+00 -9.285679626623362992e+00 3.700000000000000000e+02
5.660483627938312168e+00 -7.909854049864518011e+00 3.700000000000000000e+02
5.987751075656829514e+00 -6.534028473105673029e+00 3.700000000000000000e+02
6.315018523375346859e+00 -5.158202896346828936e+00 3.700000000000000000e+02
6.642285971093864205e+00 -3.782377319587983955e+00 3.700000000000000000e+02
6.969553418812380663e+00 -2.406551742829138973e+00 3.700000000000000000e+02
7.296820866530898009e+00 -1.030726166070294880e+00 3.700000000000000000e+02
4.351413837064242784e+00 -1.341315635689989705e+01 3.710000000000000000e+02
4.678681284782760130e+00 -1.203733078014105118e+01 3.710000000000000000e+02
5.005948732501277476e+00 -1.066150520338220709e+01 3.710000000000000000e+02
5.333216180219794822e+00 -9.285679626623362992e+00 3.710000000000000000e+02
5.660483627938312168e+00 -7.909854049864518011e+00 3.710000000000000000e+02
5.987751075656829514e+00 -6.534028473105673029e+00 3.710000000000000000e+02
6.315018523375346859e+00 -5.158202896346828936e+00 3.710000000000000000e+02
6.642285971093864205e+00 -3.782377319587983955e+00 3.710000000000000000e+02
6.969553418812380663e+00 -2.406551742829138973e+00 3.710000000000000000e+02
7.296820866530898009e+00 -1.030726166070294880e+00 3.710000000000000000e+02
4.351413837064242784e+00 -1.341315635689989705e+01 3.720000000000000000e+02
4.678681284782760130e+00 -1.203733078014105118e+01 3.720000000000000000e+02
5.005948732501277476e+00 -1.066150520338220709e+01 3.720000000000000000e+02
5.333216180219794822e+00 -9.285679626623362992e+00 3.720000000000000000e+02
5.660483627938312168e+00 -7.909854049864518011e+00 3.720000000000000000e+02
5.987751075656829514e+00 -6.534028473105673029e+00 3.720000000000000000e+02
6.315018523375346859e+00 -5.158202896346828936e+00 3.720000000000000000e+02
6.642285971093864205e+00 -3.782377319587983955e+00 3.720000000000000000e+02
6.969553418812380663e+00 -2.406551742829138973e+00 3.720000000000000000e+02
7.296820866530898009e+00 -1.030726166070294880e+00 3.720000000000000000e+02
4.351413837064242784e+00 -1.341315635689989705e+01 3.730000000000000000e+02
4.678681284782760130e+00 -1.203733078014105118e+01 3.730000000000000000e+02
5.005948732501277476e+00 -1.066150520338220709e+01 3.730000000000000000e+02
5.333216180219794822e+00 -9.285679626623362992e+00 3.730000000000000000e+02
5.660483627938312168e+00 -7.909854049864518011e+00 3.730000000000000000e+02
5.987751075656829514e+00 -6.534028473105673029e+00 3.730000000000000000e+02
6.315018523375346859e+00 -5.158202896346828936e+00 3.730000000000000000e+02
6.642285971093864205e+00 -3.782377319587983955e+00 3.730000000000000000e+02
6.969553418812380663e+00 -2.406551742829138973e+00 3.730000000000000000e+02
7.296820866530898009e+00 -1.030726166070294880e+00 3.730000000000000000e+02
4.351413837064242784e+00 -1.341315635689989705e+01 3.740000000000000000e+02
4.678681284782760130e+00 -1.203733078014105118e+01 3.740000000000000000e+02
5.005948732501277476e+00 -1.066150520338220709e+01 3.740000000000000000e+02
5.333216180219794822e+00 -9.285679626623362992e+00 3.740000000000000000e+02
5.660483627938312168e+00 -7.909854049864518011e+00 3.740000000000000000e+02
5.987751075656829514e+00 -6.534028473105673029e+00 3.740000000000000000e+02
6.315018523375346859e+00 -5.158202896346828936e+00 3.740000000000000000e+02
6.642285971093864205e+00 -3.782377319587983955e+00 3.740000000000000000e+02
6.969553418812380663e+00 -2.406551742829138973e+00 3.740000000000000000e+02
7.296820866530898009e+00 -1.030726166070294880e+00 3.740000000000000000e+02
4.351413837064242784e+00 -1.341315635689989705e+01 3.750000000000000000e+02
4.678681284782760130e+00 -1.203733078014105118e+01 3.750000000000000000e+02
5.005948732501277476e+00 -1.066150520338220709e+01 3.750000000000000000e+02
5.333216180219794822e+00 -9.285679626623362992e+00 3.750000000000000000e+02
5.660483627938312168e+00 -7.909854049864518011e+00 3.750000000000000000e+02
5.987751075656829514e+00 -6.534028473105673029e+00 3.750000000000000000e+02
6.315018523375346859e+00 -5.158202896346828936e+00 3.750000000000000000e+02
6.642285971093864205e+00 -3.782377319587983955e+00 3.750000000000000000e+02
6.969553418812380663e+00 -2.406551742829138973e+00 3.750000000000000000e+02
7.296820866530898009e+00 -1.030726166070294880e+00 3.750000000000000000e+02
3.499867324825562509e+00 -1.393743542142006042e+01 3.760000000000000000e+02
3.827134772544079411e+00 -1.256160984466121633e+01 3.760000000000000000e+02
4.154402220262596757e+00 -1.118578426790237046e+01 3.760000000000000000e+02
4.481669667981114102e+00 -9.809958691143526366e+00 3.760000000000000000e+02
4.808937115699631448e+00 -8.434133114384682273e+00 3.760000000000000000e+02
5.136204563418147906e+00 -7.058307537625837291e+00 3.760000000000000000e+02
5.463472011136665252e+00 -5.682481960866992310e+00 3.760000000000000000e+02
5.790739458855182598e+00 -4.306656384108147329e+00 3.760000000000000000e+02
6.118006906573699943e+00 -2.930830807349302347e+00 3.760000000000000000e+02
6.445274354292217289e+00 -1.555005230590458254e+00 3.760000000000000000e+02
6.772541802010733747e+00 -1.791796538316141607e-01 3.760000000000000000e+02
4.351413837064242784e+00 -1.341315635689989705e+01 3.770000000000000000e+02
4.678681284782760130e+00 -1.203733078014105118e+01 3.770000000000000000e+02
5.005948732501277476e+00 -1.066150520338220709e+01 3.770000000000000000e+02
5.333216180219794822e+00 -9.285679626623362992e+00 3.770000000000000000e+02
5.660483627938312168e+00 -7.909854049864518011e+00 3.770000000000000000e+02
5.987751075656829514e+00 -6.534028473105673029e+00 3.770000000000000000e+02
6.315018523375346859e+00 -5.158202896346828936e+00 3.770000000000000000e+02
6.642285971093864205e+00 -3.782377319587983955e+00 3.770000000000000000e+02
6.969553418812380663e+00 -2.406551742829138973e+00 3.770000000000000000e+02
7.296820866530898009e+00 -1.030726166070294880e+00 3.770000000000000000e+02
3.499867324825562509e+00 -1.393743542142006042e+01 3.780000000000000000e+02
3.827134772544079411e+00 -1.256160984466121633e+01 3.780000000000000000e+02
4.154402220262596757e+00 -1.118578426790237046e+01 3.780000000000000000e+02
4.481669667981114102e+00 -9.809958691143526366e+00 3.780000000000000000e+02
4.808937115699631448e+00 -8.434133114384682273e+00 3.780000000000000000e+02
5.136204563418147906e+00 -7.058307537625837291e+00 3.780000000000000000e+02
5.463472011136665252e+00 -5.682481960866992310e+00 3.780000000000000000e+02
5.790739458855182598e+00 -4.306656384108147329e+00 3.780000000000000000e+02
6.118006906573699943e+00 -2.930830807349302347e+00 3.780000000000000000e+02
6.445274354292217289e+00 -1.555005230590458254e+00 3.780000000000000000e+02
6.772541802010733747e+00 -1.791796538316141607e-01 3.780000000000000000e+02
3.499867324825562509e+00 -1.393743542142006042e+01 3.790000000000000000e+02
3.827134772544079411e+00 -1.256160984466121633e+01 3.790000000000000000e+02
4.154402220262596757e+00 -1.118578426790237046e+01 3.790000000000000000e+02
4.481669667981114102e+00 -9.809958691143526366e+00 3.790000000000000000e+02
4.808937115699631448e+00 -8.434133114384682273e+00 3.790000000000000000e+02
5.136204563418147906e+00 -7.058307537625837291e+00 3.790000000000000000e+02
5.463472011136665252e+00 -5.682481960866992310e+00 3.790000000000000000e+02
5.790739458855182598e+00 -4.306656384108147329e+00 3.790000000000000000e+02
6.118006906573699943e+00 -2.930830807349302347e+00 3.790000000000000000e+02
6.445274354292217289e+00 -1.555005230590458254e+00 3.790000000000000000e+02
6.772541802010733747e+00 -1.791796538316141607e-01 3.790000000000000000e+02
3.499867324825562509e+00 -1.393743542142006042e+01 3.800000000000000000e+02
3.827134772544079411e+00 -1.256160984466121633e+01 3.800000000000000000e+02
4.154402220262596757e+00 -1.118578426790237046e+01 3.800000000000000000e+02
4.481669667981114102e+00 -9.809958691143526366e+00 3.800000000000000000e+02
4.808937115699631448e+00 -8.434133114384682273e+00 3.800000000000000000e+02
5.136204563418147906e+00 -7.058307537625837291e+00 3.800000000000000000e+02
5.463472011136665252e+00 -5.682481960866992310e+00 3.800000000000000000e+02
5.790739458855182598e+00 -4.306656384108147329e+00 3.800000000000000000e+02
6.118006906573699943e+00 -2.930830807349302347e+00 3.800000000000000000e+02
6.445274354292217289e+00 -1.555005230590458254e+00 3.800000000000000000e+02
6.772541802010733747e+00 -1.791796538316141607e-01 3.800000000000000000e+02
3.499867324825562509e+00 -1.393743542142006042e+01 3.810000000000000000e+02
3.827134772544079411e+00 -1.256160984466121633e+01 3.810000000000000000e+02
4.154402220262596757e+00 -1.118578426790237046e+01 3.810000000000000000e+02
4.481669667981114102e+00 -9.809958691143526366e+00 3.810000000000000000e+02
4.808937115699631448e+00 -8.434133114384682273e+00 3.810000000000000000e+02
5.136204563418147906e+00 -7.058307537625837291e+00 3.810000000000000000e+02
5.463472011136665252e+00 -5.682481960866992310e+00 3.810000000000000000e+02
5.790739458855182598e+00 -4.306656384108147329e+00 3.810000000000000000e+02
6.118006906573699943e+00 -2.930830807349302347e+00 3.810000000000000000e+02
6.445274354292217289e+00 -1.555005230590458254e+00 3.810000000000000000e+02
6.772541802010733747e+00 -1.791796538316141607e-01 3.810000000000000000e+02
3.499867324825562509e+00 -1.393743542142006042e+01 3.820000000000000000e+02
3.827134772544079411e+00 -1.256160984466121633e+01 3.820000000000000000e+02
4.154402220262596757e+00 -1.118578426790237046e+01 3.820000000000000000e+02
4.481669667981114102e+00 -9.809958691143526366e+00 3.820000000000000000e+02
4.808937115699631448e+00 -8.434133114384682273e+00 3.820000000000000000e+02
5.136204563418147906e+00 -7.058307537625837291e+00 3.820000000000000000e+02
5.463472011136665252e+00 -5.682481960866992310e+00 3.820000000000000000e+02
5.790739458855182598e+00 -4.306656384108147329e+00 3.820000000000000000e+02
6.118006906573699943e+00 -2.930830807349302347e+00 3.820000000000000000e+02
6.445274354292217289e+00 -1.555005230590458254e+00 3.820000000000000000e+02
6.772541802010733747e+00 -1.791796538316141607e-01 3.820000000000000000e+02
3.499867324825562509e+00 -1.393743542142006042e+01 3.830000000000000000e+02
3.827134772544079411e+00 -1.256160984466121633e+01 3.830000000000000000e+02
4.154402220262596757e+00 -1.118578426790237046e+01 3.830000000000000000e+02
4.481669667981114102e+00 -9.809958691143526366e+00 3.830000000000000000e+02
4.808937115699631448e+00 -8.434133114384682273e+00 3.830000000000000000e+02
5.136204563418147906e+00 -7.058307537625837291e+00 3.830000000000000000e+02
5.463472011136665252e+00 -5.682481960866992310e+00 3.830000000000000000e+02
5.790739458855182598e+00 -4.306656384108147329e+00 3.830000000000000000e+02
6.118006906573699943e+00 -2.930830807349302347e+00 3.830000000000000000e+02
6.445274354292217289e+00 -1.555005230590458254e+00 3.830000000000000000e+02
4.351413837064242784e+00 -1.341315635689989705e+01 3.840000000000000000e+02
4.678681284782760130e+00 -1.203733078014105118e+01 3.840000000000000000e+02
5.005948732501277476e+00 -1.066150520338220709e+01 3.840000000000000000e+02
5.333216180219794822e+00 -9.285679626623362992e+00 3.840000000000000000e+02
5.660483627938312168e+00 -7.909854049864518011e+00 3.840000000000000000e+02
5.987751075656829514e+00 -6.534028473105673029e+00 3.840000000000000000e+02
6.315018523375346859e+00 -5.158202896346828936e+00 3.840000000000000000e+02
6.642285971093864205e+00 -3.782377319587983955e+00 3.840000000000000000e+02
6.969553418812380663e+00 -2.406551742829138973e+00 3.840000000000000000e+02
