3.127936514067678253e+00 6.807813983566616400e+01 1.980000000000000000e+02
2.200123851968433186e+00 6.701082373251382762e+01 1.980000000000000000e+02
9.622625148762395497e+00 7.554935255773258973e+01 1.990000000000000000e+02
8.694812486663149542e+00 7.448203645458025335e+01 1.990000000000000000e+02
7.766999824563905364e+00 7.341472035142790276e+01 1.990000000000000000e+02
6.839187162464659409e+00 7.234740424827555216e+01 1.990000000000000000e+02
5.911374500365414342e+00 7.128008814512321578e+01 1.990000000000000000e+02
4.983561838266169275e+00 7.021277204197086519e+01 1.990000000000000000e+02
4.055749176166923320e+00 6.914545593881851460e+01 1.990000000000000000e+02
3.127936514067678253e+00 6.807813983566616400e+01 1.990000000000000000e+02
2.200123851968433186e+00 6.701082373251382762e+01 1.990000000000000000e+02
1.272311189869187231e+00 6.594350762936147703e+01 1.990000000000000000e+02
9.622625148762395497e+00 7.554935255773258973e+01 2.000000000000000000e+02
8.694812486663149542e+00 7.448203645458025335e+01 2.000000000000000000e+02
7.766999824563905364e+00 7.341472035142790276e+01 2.000000000000000000e+02
6.839187162464659409e+00 7.234740424827555216e+01 2.000000000000000000e+02
5.911374500365414342e+00 7.128008814512321578e+01 2.000000000000000000e+02
4.983561838266169275e+00 7.021277204197086519e+01 2.000000000000000000e+02
4.055749176166923320e+00 6.914545593881851460e+01 2.000000000000000000e+02
3.127936514067678253e+00 6.807813983566616400e+01 2.000000000000000000e+02
2.200123851968433186e+00 6.701082373251382762e+01 2.000000000000000000e+02
1.272311189869187231e+00 6.594350762936147703e+01 2.000000000000000000e+02
9.622625148762395497e+00 7.554935255773258973e+01 2.010000000000000000e+02
8.694812486663149542e+00 7.448203645458025335e+01 2.010000000000000000e+02
7.766999824563905364e+00 7.341472035142790276e+01 2.010000000000000000e+02
6.839187162464659409e+00 7.234740424827555216e+01 2.010000000000000000e+02
5.911374500365414342e+00 7.128008814512321578e+01 2.010000000000000000e+02
4.983561838266169275e+00 7.021277204197086519e+01 2.010000000000000000e+02
4.055749176166923320e+00 6.914545593881851460e+01 2.010000000000000000e+02
3.127936514067678253e+00 6.807813983566616400e+01 2.010000000000000000e+02
2.200123851968433186e+00 6.701082373251382762e+01 2.010000000000000000e+02
1.272311189869187231e+00 6.594350762936147703e+01 2.010000000000000000e+02
9.622625148762395497e+00 7.554935255773258973e+01 2.020000000000000000e+02
8.694812486663149542e+00 7.448203645458025335e+01 2.020000000000000000e+02
7.766999824563905364e+00 7.341472035142790276e+01 2.020000000000000000e+02
6.839187162464659409e+00 7.234740424827555216e+01 2.020000000000000000e+02
5.911374500365414342e+00 7.128008814512321578e+01 2.020000000000000000e+02
4.983561838266169275e+00 7.021277204197086519e+01 2.020000000000000000e+02
4.055749176166923320e+00 6.914545593881851460e+01 2.020000000000000000e+02
3.127936514067678253e+00 6.807813983566616400e+01 2.020000000000000000e+02
2.200123851968433186e+00 6.701082373251382762e+01 2.020000000000000000e+02
9.622625148762395497e+00 7.554935255773258973e+01 2.030000000000000000e+02
8.694812486663149542e+00 7.448203645458025335e+01 2.030000000000000000e+02
7.766999824563905364e+00 7.341472035142790276e+01 2.030000000000000000e+02
6.839187162464659409e+00 7.234740424827555216e+01 2.030000000000000000e+02
5.911374500365414342e+00 7.128008814512321578e+01 2.030000000000000000e+02
4.983561838266169275e+00 7.021277204197086519e+01 2.030000000000000000e+02
4.055749176166923320e+00 6.914545593881851460e+01 2.030000000000000000e+02
3.127936514067678253e+00 6.807813983566616400e+01 2.030000000000000000e+02
2.200123851968433186e+00 6.701082373251382762e+01 2.030000000000000000e+02
9.622625148762395497e+00 7.554935255773258973e+01 2.040000000000000000e+02
8.694812486663149542e+00 7.448203645458025335e+01 2.040000000000000000e+02
7.766999824563905364e+00 7.341472035142790276e+01 2.040000000000000000e+02
6.839187162464659409e+00 7.234740424827555216e+01 2.040000000000000000e+02
5.911374500365414342e+00 7.128008814512321578e+01 2.040000000000000000e+02
4.983561838266169275e+00 7.021277204197086519e+01 2.040000000000000000e+02
4.055749176166923320e+00 6.914545593881851460e+01 2.040000000000000000e+02
3.127936514067678253e+00 6.807813983566616400e+01 2.040000000000000000e+02
2.200123851968433186e+00 6.701082373251382762e+01 2.040000000000000000e+02
9.622625148762395497e+00 7.554935255773258973e+01 2.050000000000000000e+02
8.694812486663149542e+00 7.448203645458025335e+01 2.050000000000000000e+02
7.766999824563905364e+00 7.341472035142790276e+01 2.050000000000000000e+02
6.839187162464659409e+00 7.234740424827555216e+01 2.050000000000000000e+02
5.911374500365414342e+00 7.128008814512321578e+01 2.050000000000000000e+02
4.983561838266169275e+00 7.021277204197086519e+01 2.050000000000000000e+02
4.055749176166923320e+00 6.914545593881851460e+01 2.050000000000000000e+02
3.127936514067678253e+00 6.807813983566616400e+01 2.050000000000000000e+02
2.200123851968433186e+00 6.701082373251382762e+01 2.050000000000000000e+02
1.272311189869187231e+00 6.594350762936147703e+01 2.050000000000000000e+02
9.622625148762395497e+00 7.554935255773258973e+01 2.060000000000000000e+02
8.694812486663149542e+00 7.448203645458025335e+01 2.060000000000000000e+02
7.766999824563905364e+00 7.341472035142790276e+01 2.060000000000000000e+02
6.839187162464659409e+00 7.234740424827555216e+01 2.060000000000000000e+02
5.911374500365414342e+00 7.128008814512321578e+01 2.060000000000000000e+02
4.983561838266169275e+00 7.021277204197086519e+01 2.060000000000000000e+02
4.055749176166923320e+00 6.914545593881851460e+01 2.060000000000000000e+02
3.127936514067678253e+00 6.807813983566616400e+01 2.060000000000000000e+02
2.200123851968433186e+00 6.701082373251382762e+01 2.060000000000000000e+02
1.272311189869187231e+00 6.594350762936147703e+01 2.060000000000000000e+02
9.622625148762395497e+00 7.554935255773258973e+01 2.070000000000000000e+02
8.694812486663149542e+00 7.448203645458025335e+01 2.070000000000000000e+02
7.766999824563905364e+00 7.341472035142790276e+01 2.070000000000000000e+02
6.839187162464659409e+00 7.234740424827555216e+01 2.070000000000000000e+02
5.911374500365414342e+00 7.128008814512321578e+01 2.070000000000000000e+02
4.983561838266169275e+00 7.021277204197086519e+01 2.070000000000000000e+02
4.055749176166923320e+00 6.914545593881851460e+01 2.070000000000000000e+02
3.127936514067678253e+00 6.807813983566616400e+01 2.070000000000000000e+02
2.200123851968433186e+00 6.701082373251382762e+01 2.070000000000000000e+02
1.272311189869187231e+00 6.594350762936147703e+01 2.070000000000000000e+02
9.622625148762395497e+00 7.554935255773258973e+01 2.080000000000000000e+02
8.694812486663149542e+00 7.448203645458025335e+01 2.080000000000000000e+02
7.766999824563905364e+00 7.341472035142790276e+01 2.080000000000000000e+02
6.839187162464659409e+00 7.234740424827555216e+01 2.080000000000000000e+02
5.911374500365414342e+00 7.128008814512321578e+01 2.080000000000000000e+02
4.983561838266169275e+00 7.021277204197086519e+01 2.080000000000000000e+02
4.055749176166923320e+00 6.914545593881851460e+01 2.080000000000000000e+02
3.127936514067678253e+00 6.807813983566616400e+01 2.080000000000000000e+02
2.200123851968433186e+00 6.701082373251382762e+01 2.080000000000000000e+02
1.272311189869187231e+00 6.594350762936147703e+01 2.080000000000000000e+02
9.622625148762395497e+00 7.554935255773258973e+01 2.090000000000000000e+02
8.694812486663149542e+00 7.448203645458025335e+01 2.090000000000000000e+02
7.766999824563905364e+00 7.341472035142790276e+01 2.090000000000000000e+02
6.839187162464659409e+00 7.234740424827555216e+01 2.090000000000000000e+02
5.911374500365414342e+00 7.128008814512321578e+01 2.090000000000000000e+02
4.983561838266169275e+00 7.021277204197086519e+01 2.090000000000000000e+02
4.055749176166923320e+00 6.914545593881851460e+01 2.090000000000000000e+02
3.127936514067678253e+00 6.807813983566616400e+01 2.090000000000000000e+02
2.200123851968433186e+00 6.701082373251382762e+01 2.090000000000000000e+02
1.272311189869187231e+00 6.594350762936147703e+01 2.090000000000000000e+02
9.622625148762395497e+00 7.554935255773258973e+01 2.100000000000000000e+02
8.694812486663149542e+00 7.448203645458025335e+01 2.100000000000000000e+02
7.766999824563905364e+00 7.341472035142790276e+01 2.100000000000000000e+02
6.839187162464659409e+00 7.234740424827555216e+01 2.100000000000000000e+02
5.911374500365414342e+00 7.128008814512321578e+01 2.100000000000000000e+02
4.983561838266169275e+00 7.021277204197086519e+01 2.100000000000000000e+02
4.055749176166923320e+00 6.914545593881851460e+01 2.100000000000000000e+02
3.127936514067678253e+00 6.807813983566616400e+01 2.100000000000000000e+02
2.200123851968433186e+00 6.701082373251382762e+01 2.100000000000000000e+02
9.622625148762395497e+00 7.554935255773258973e+01 2.110000000000000000e+02
8.694812486663149542e+00 7.448203645458025335e+01 2.110000000000000000e+02
7.766999824563905364e+00 7.341472035142790276e+01 2.110000000000000000e+02
6.839187162464659409e+00 7.234740424827555216e+01 2.110000000000000000e+02
5.911374500365414342e+00 7.128008814512321578e+01 2.110000000000000000e+02
4.983561838266169275e+00 7.021277204197086519e+01 2.110000000000000000e+02
4.055749176166923320e+00 6.914545593881851460e+01 2.110000000000000000e+02
3.127936514067678253e+00 6.807813983566616400e+01 2.110000000000000000e+02
2.200123851968433186e+00 6.701082373251382762e+01 2.110000000000000000e+02
9.622625148762395497e+00 7.554935255773258973e+01 2.120000000000000000e+02
8.694812486663149542e+00 7.448203645458025335e+01 2.120000000000000000e+02
7.766999824563905364e+00 7.341472035142790276e+01 2.120000000000000000e+02
6.839187162464659409e+00 7.234740424827555216e+01 2.120000000000000000e+02
5.911374500365414342e+00 7.128008814512321578e+01 2.120000000000000000e+02
4.983561838266169275e+00 7.021277204197086519e+01 2.120000000000000000e+02
4.055749176166923320e+00 6.914545593881851460e+01 2.120000000000000000e+02
3.127936514067678253e+00 6.807813983566616400e+01 2.120000000000000000e+02
2.200123851968433186e+00 6.701082373251382762e+01 2.120000000000000000e+02
9.622625148762395497e+00 7.554935255773258973e+01 2.130000000000000000e+02
8.694812486663149542e+00 7.448203645458025335e+01 2.130000000000000000e+02
7.766999824563905364e+00 7.341472035142790276e+01 2.130000000000000000e+02
6.839187162464659409e+00 7.234740424827555216e+01 2.130000000000000000e+02
5.911374500365414342e+00 7.128008814512321578e+01 2.130000000000000000e+02
4.983561838266169275e+00 7.021277204197086519e+01 2.130000000000000000e+02
4.055749176166923320e+00 6.914545593881851460e+01 2.130000000000000000e+02
3.127936514067678253e+00 6.807813983566616400e+01 2.130000000000000000e+02
2.200123851968433186e+00 6.701082373251382762e+01 2.130000000000000000e+02
1.272311189869187231e+00 6.594350762936147703e+01 2.130000000000000000e+02
9.622625148762395497e+00 7.554935255773258973e+01 2.140000000000000000e+02
8.694812486663149542e+00 7.448203645458025335e+01 2.140000000000000000e+02
7.766999824563905364e+00 7.341472035142790276e+01 2.140000000000000000e+02
6.839187162464659409e+00 7.234740424827555216e+01 2.140000000000000000e+02
5.911374500365414342e+00 7.128008814512321578e+01 2.140000000000000000e+02
4.983561838266169275e+00 7.021277204197086519e+01 2.140000000000000000e+02
4.055749176166923320e+00 6.914545593881851460e+01 2.140000000000000000e+02
3.127936514067678253e+00 6.807813983566616400e+01 2.140000000000000000e+02
2.200123851968433186e+00 6.701082373251382762e+01 2.140000000000000000e+02
1.272311189869187231e+00 6.594350762936147703e+01 2.140000000000000000e+02
8.625060766136599000e+00 7.547960083720604985e+01 2.150000000000000000e+02
7.697248104037354821e+00 7.441228473405369925e+01 2.150000000000000000e+02
6.769435441938108866e+00 7.334496863090134866e+01 2.150000000000000000e+02
5.841622779838863799e+00 7.227765252774901228e+01 2.150000000000000000e+02
4.913810117739617844e+00 7.121033642459666169e+01 2.150000000000000000e+02
3.985997455640372777e+00 7.014302032144431109e+01 2.150000000000000000e+02
3.058184793541127267e+00 6.907570421829196050e+01 2.150000000000000000e+02
2.130372131441882200e+00 6.800838811513962412e+01 2.150000000000000000e+02
1.202559469342636689e+00 6.694107201198727353e+01 2.150000000000000000e+02
8.625060766136599000e+00 7.547960083720604985e+01 2.160000000000000000e+02
7.697248104037354821e+00 7.441228473405369925e+01 2.160000000000000000e+02
6.769435441938108866e+00 7.334496863090134866e+01 2.160000000000000000e+02
5.841622779838863799e+00 7.227765252774901228e+01 2.160000000000000000e+02
4.913810117739617844e+00 7.121033642459666169e+01 2.160000000000000000e+02
3.985997455640372777e+00 7.014302032144431109e+01 2.160000000000000000e+02
3.058184793541127267e+00 6.907570421829196050e+01 2.160000000000000000e+02
2.130372131441882200e+00 6.800838811513962412e+01 2.160000000000000000e+02
1.202559469342636689e+00 6.694107201198727353e+01 2.160000000000000000e+02
8.625060766136599000e+00 7.547960083720604985e+01 2.170000000000000000e+02
7.697248104037354821e+00 7.441228473405369925e+01 2.170000000000000000e+02
6.769435441938108866e+00 7.334496863090134866e+01 2.170000000000000000e+02
5.841622779838863799e+00 7.227765252774901228e+01 2.170000000000000000e+02
4.913810117739617844e+00 7.121033642459666169e+01 2.170000000000000000e+02
3.985997455640372777e+00 7.014302032144431109e+01 2.170000000000000000e+02
3.058184793541127267e+00 6.907570421829196050e+01 2.170000000000000000e+02
2.130372131441882200e+00 6.800838811513962412e+01 2.170000000000000000e+02
1.202559469342636689e+00 6.694107201198727353e+01 2.170000000000000000e+02
8.625060766136599000e+00 7.547960083720604985e+01 2.180000000000000000e+02
7.697248104037354821e+00 7.441228473405369925e+01 2.180000000000000000e+02
6.769435441938108866e+00 7.334496863090134866e+01 2.180000000000000000e+02
5.841622779838863799e+00 7.227765252774901228e+01 2.180000000000000000e+02
4.913810117739617844e+00 7.121033642459666169e+01 2.180000000000000000e+02
3.985997455640372777e+00 7.014302032144431109e+01 2.180000000000000000e+02
3.058184793541127267e+00 6.907570421829196050e+01 2.180000000000000000e+02
2.130372131441882200e+00 6.800838811513962412e+01 2.180000000000000000e+02
1.202559469342636689e+00 6.694107201198727353e+01 2.180000000000000000e+02
8.625060766136599000e+00 7.547960083720604985e+01 2.190000000000000000e+02
7.697248104037354821e+00 7.441228473405369925e+01 2.190000000000000000e+02
6.769435441938108866e+00 7.334496863090134866e+01 2.190000000000000000e+02
5.841622779838863799e+00 7.227765252774901228e+01 2.190000000000000000e+02
4.913810117739617844e+00 7.121033642459666169e+01 2.190000000000000000e+02
3.985997455640372777e+00 7.014302032144431109e+01 2.190000000000000000e+02
3.058184793541127267e+00 6.907570421829196050e+01 2.190000000000000000e+02
2.130372131441882200e+00 6.800838811513962412e+01 2.190000000000000000e+02
1.202559469342636689e+00 6.694107201198727353e+01 2.190000000000000000e+02
8.625060766136599000e+00 7.547960083720604985e+01 2.200000000000000000e+02
7.697248104037354821e+00 7.441228473405369925e+01 2.200000000000000000e+02
6.769435441938108866e+00 7.334496863090134866e+01 2.200000000000000000e+02
5.841622779838863799e+00 7.227765252774901228e+01 2.200000000000000000e+02
4.913810117739617844e+00 7.121033642459666169e+01 2.200000000000000000e+02
3.985997455640372777e+00 7.014302032144431109e+01 2.200000000000000000e+02
3.058184793541127267e+00 6.907570421829196050e+01 2.200000000000000000e+02
2.130372131441882200e+00 6.800838811513962412e+01 2.200000000000000000e+02
1.202559469342636689e+00 6.694107201198727353e+01 2.200000000000000000e+02
8.625060766136599000e+00 7.547960083720604985e+01 2.210000000000000000e+02
7.697248104037354821e+00 7.441228473405369925e+01 2.210000000000000000e+02
6.769435441938108866e+00 7.334496863090134866e+01 2.210000000000000000e+02
5.841622779838863799e+00 7.227765252774901228e+01 2.210000000000000000e+02
4.913810117739617844e+00 7.121033642459666169e+01 2.210000000000000000e+02
3.985997455640372777e+00 7.014302032144431109e+01 2.210000000000000000e+02
3.058184793541127267e+00 6.907570421829196050e+01 2.210000000000000000e+02
2.130372131441882200e+00 6.800838811513962412e+01 2.210000000000000000e+02
1.202559469342636689e+00 6.694107201198727353e+01 2.210000000000000000e+02
8.625060766136599000e+00 7.547960083720604985e+01 2.220000000000000000e+02
7.697248104037354821e+00 7.441228473405369925e+01 2.220000000000000000e+02
6.769435441938108866e+00 7.334496863090134866e+01 2.220000000000000000e+02
5.841622779838863799e+00 7.227765252774901228e+01 2.220000000000000000e+02
4.913810117739617844e+00 7.121033642459666169e+01 2.220000000000000000e+02
3.985997455640372777e+00 7.014302032144431109e+01 2.220000000000000000e+02
3.058184793541127267e+00 6.907570421829196050e+01 2.220000000000000000e+02
2.130372131441882200e+00 6.800838811513962412e+01 2.220000000000000000e+02
1.202559469342636689e+00 6.694107201198727353e+01 2.220000000000000000e+02
1.660557582714297098e+01 7.603761460141845419e+01 2.230000000000000000e+02
1.567776316504372325e+01 7.497029849826610359e+01 2.230000000000000000e+02
9.183074530349006892e+00 6.749908577619967787e+01 2.230000000000000000e+02
8.255261868249760937e+00 6.643176967304732727e+01 2.230000000000000000e+02
7.327449206150514982e+00 6.536445356989497668e+01 2.230000000000000000e+02
6.399636544051270803e+00 6.429713746674264030e+01 2.230000000000000000e+02
5.471823881952024848e+00 6.322982136359028971e+01 2.230000000000000000e+02
4.544011219852779782e+00 6.216250526043793911e+01 2.230000000000000000e+02
3.616198557753534271e+00 6.109518915728559563e+01 2.230000000000000000e+02
2.688385895654288760e+00 6.002787305413324503e+01 2.230000000000000000e+02
1.760573233555043249e+00 5.896055695098090155e+01 2.230000000000000000e+02
1.860070459239456042e+01 7.617711804247154816e+01 2.240000000000000000e+02
1.767289193029531447e+01 7.510980193931921178e+01 2.240000000000000000e+02
1.674507926819607206e+01 7.404248583616686119e+01 2.240000000000000000e+02
1.581726660609682611e+01 7.297516973301451060e+01 2.240000000000000000e+02
1.488945394399758015e+01 7.190785362986216001e+01 2.240000000000000000e+02
1.396164128189833420e+01 7.084053752670982362e+01 2.240000000000000000e+02
1.303382861979908824e+01 6.977322142355747303e+01 2.240000000000000000e+02
9.322577971402107977e+00 6.550395701094808487e+01 2.240000000000000000e+02
8.394765309302862022e+00 6.443664090779573428e+01 2.240000000000000000e+02
7.466952647203617843e+00 6.336932480464339079e+01 2.240000000000000000e+02
6.539139985104371888e+00 6.230200870149104730e+01 2.240000000000000000e+02
5.611327323005126821e+00 6.123469259833869671e+01 2.240000000000000000e+02
4.683514660905880866e+00 6.016737649518634612e+01 2.240000000000000000e+02
3.755701998806635800e+00 5.910006039203400263e+01 2.240000000000000000e+02
2.827889336707390733e+00 5.803274428888165914e+01 2.240000000000000000e+02
1.900076674608144778e+00 5.696542818572930855e+01 2.240000000000000000e+02
1.959826897502035692e+01 7.624686976299810226e+01 2.250000000000000000e+02
1.867045631292111096e+01 7.517955365984576588e+01 2.250000000000000000e+02
1.774264365082186856e+01 7.411223755669341529e+01 2.250000000000000000e+02
1.681483098872262261e+01 7.304492145354106469e+01 2.250000000000000000e+02
1.588701832662337665e+01 7.197760535038871410e+01 2.250000000000000000e+02
1.495920566452413070e+01 7.091028924723637772e+01 2.250000000000000000e+02
1.403139300242488474e+01 6.984297314408402713e+01 2.250000000000000000e+02
1.310358034032564056e+01 6.877565704093167653e+01 2.250000000000000000e+02
9.392329691928658519e+00 6.450639262832228837e+01 2.250000000000000000e+02
8.464517029829412564e+00 6.343907652516993778e+01 2.250000000000000000e+02
7.536704367730168386e+00 6.237176042201759429e+01 2.250000000000000000e+02
6.608891705630922431e+00 6.130444431886525081e+01 2.250000000000000000e+02
5.681079043531677364e+00 6.023712821571290021e+01 2.250000000000000000e+02
4.753266381432432297e+00 5.916981211256055673e+01 2.250000000000000000e+02
3.825453719333186786e+00 5.810249600940820613e+01 2.250000000000000000e+02
2.897641057233941275e+00 5.703517990625586265e+01 2.250000000000000000e+02
1.969828395134695764e+00 5.596786380310351205e+01 2.250000000000000000e+02
1.959826897502035692e+01 7.624686976299810226e+01 2.260000000000000000e+02
1.867045631292111096e+01 7.517955365984576588e+01 2.260000000000000000e+02
1.774264365082186856e+01 7.411223755669341529e+01 2.260000000000000000e+02
1.681483098872262261e+01 7.304492145354106469e+01 2.260000000000000000e+02
1.588701832662337665e+01 7.197760535038871410e+01 2.260000000000000000e+02
1.495920566452413070e+01 7.091028924723637772e+01 2.260000000000000000e+02
1.403139300242488474e+01 6.984297314408402713e+01 2.260000000000000000e+02
1.310358034032564056e+01 6.877565704093167653e+01 2.260000000000000000e+02
8.464517029829412564e+00 6.343907652516993778e+01 2.260000000000000000e+02
7.536704367730168386e+00 6.237176042201759429e+01 2.260000000000000000e+02
6.608891705630922431e+00 6.130444431886525081e+01 2.260000000000000000e+02
5.681079043531677364e+00 6.023712821571290021e+01 2.260000000000000000e+02
4.753266381432432297e+00 5.916981211256055673e+01 2.260000000000000000e+02
3.825453719333186786e+00 5.810249600940820613e+01 2.260000000000000000e+02
2.897641057233941275e+00 5.703517990625586265e+01 2.260000000000000000e+02
2.059583335764615342e+01 7.631662148352465636e+01 2.270000000000000000e+02
1.966802069554690746e+01 7.524930538037230576e+01 2.270000000000000000e+02
1.874020803344766151e+01 7.418198927721996938e+01 2.270000000000000000e+02
1.781239537134841910e+01 7.311467317406761879e+01 2.270000000000000000e+02
1.688458270924917315e+01 7.204735707091526820e+01 2.270000000000000000e+02
1.595677004714992719e+01 7.098004096776291760e+01 2.270000000000000000e+02
1.502895738505068124e+01 6.991272486461058122e+01 2.270000000000000000e+02
1.410114472295143528e+01 6.884540876145823063e+01 2.270000000000000000e+02
1.317333206085219111e+01 6.777809265830588004e+01 2.270000000000000000e+02
7.606456088256718928e+00 6.137419603939179780e+01 2.270000000000000000e+02
6.678643426157473861e+00 6.030687993623945431e+01 2.270000000000000000e+02
5.750830764058228795e+00 5.923956383308710372e+01 2.270000000000000000e+02
4.823018101958982840e+00 5.817224772993476023e+01 2.270000000000000000e+02
2.059583335764615342e+01 7.631662148352465636e+01 2.280000000000000000e+02
1.966802069554690746e+01 7.524930538037230576e+01 2.280000000000000000e+02
1.874020803344766151e+01 7.418198927721996938e+01 2.280000000000000000e+02
1.781239537134841910e+01 7.311467317406761879e+01 2.280000000000000000e+02
1.688458270924917315e+01 7.204735707091526820e+01 2.280000000000000000e+02
1.595677004714992719e+01 7.098004096776291760e+01 2.280000000000000000e+02
1.502895738505068124e+01 6.991272486461058122e+01 2.280000000000000000e+02
1.410114472295143528e+01 6.884540876145823063e+01 2.280000000000000000e+02
1.317333206085219111e+01 6.777809265830588004e+01 2.280000000000000000e+02
2.159339774027194991e+01 7.638637320405121045e+01 2.290000000000000000e+02
2.066558507817270396e+01 7.531905710089885986e+01 2.290000000000000000e+02
1.973777241607345800e+01 7.425174099774650927e+01 2.290000000000000000e+02
1.880995975397421205e+01 7.318442489459417288e+01 2.290000000000000000e+02
1.788214709187496965e+01 7.211710879144182229e+01 2.290000000000000000e+02
1.695433442977572369e+01 7.104979268828947170e+01 2.290000000000000000e+02
1.602652176767647774e+01 6.998247658513712111e+01 2.290000000000000000e+02
1.509870910557723178e+01 6.891516048198478472e+01 2.290000000000000000e+02
1.417089644347798583e+01 6.784784437883243413e+01 2.290000000000000000e+02
1.324308378137874165e+01 6.678052827568008354e+01 2.290000000000000000e+02
2.059583335764615342e+01 7.631662148352465636e+01 2.300000000000000000e+02
1.966802069554690746e+01 7.524930538037230576e+01 2.300000000000000000e+02
1.874020803344766151e+01 7.418198927721996938e+01 2.300000000000000000e+02
1.781239537134841910e+01 7.311467317406761879e+01 2.300000000000000000e+02
1.688458270924917315e+01 7.204735707091526820e+01 2.300000000000000000e+02
1.595677004714992719e+01 7.098004096776291760e+01 2.300000000000000000e+02
1.502895738505068124e+01 6.991272486461058122e+01 2.300000000000000000e+02
1.410114472295143528e+01 6.884540876145823063e+01 2.300000000000000000e+02
1.317333206085219111e+01 6.777809265830588004e+01 2.300000000000000000e+02
1.959826897502035692e+01 7.624686976299810226e+01 2.310000000000000000e+02
1.867045631292111096e+01 7.517955365984576588e+01 2.310000000000000000e+02
1.774264365082186856e+01 7.411223755669341529e+01 2.310000000000000000e+02
1.681483098872262261e+01 7.304492145354106469e+01 2.310000000000000000e+02
1.588701832662337665e+01 7.197760535038871410e+01 2.310000000000000000e+02
1.495920566452413070e+01 7.091028924723637772e+01 2.310000000000000000e+02
1.403139300242488474e+01 6.984297314408402713e+01 2.310000000000000000e+02
1.310358034032564056e+01 6.877565704093167653e+01 2.310000000000000000e+02
1.959826897502035692e+01 7.624686976299810226e+01 2.320000000000000000e+02
1.867045631292111096e+01 7.517955365984576588e+01 2.320000000000000000e+02
1.774264365082186856e+01 7.411223755669341529e+01 2.320000000000000000e+02
1.681483098872262261e+01 7.304492145354106469e+01 2.320000000000000000e+02
1.588701832662337665e+01 7.197760535038871410e+01 2.320000000000000000e+02
1.495920566452413070e+01 7.091028924723637772e+01 2.320000000000000000e+02
1.403139300242488474e+01 6.984297314408402713e+01 2.320000000000000000e+02
1.310358034032564056e+01 6.877565704093167653e+01 2.320000000000000000e+02
8.464517029829412564e+00 6.343907652516993778e+01 2.320000000000000000e+02
7.536704367730168386e+00 6.237176042201759429e+01 2.320000000000000000e+02
1.860070459239456042e+01 7.617711804247154816e+01 2.330000000000000000e+02
1.767289193029531447e+01 7.510980193931921178e+01 2.330000000000000000e+02
1.674507926819607206e+01 7.404248583616686119e+01 2.330000000000000000e+02
1.581726660609682611e+01 7.297516973301451060e+01 2.330000000000000000e+02
1.488945394399758015e+01 7.190785362986216001e+01 2.330000000000000000e+02
1.396164128189833420e+01 7.084053752670982362e+01 2.330000000000000000e+02
9.322577971402107977e+00 6.550395701094808487e+01 2.330000000000000000e+02
8.394765309302862022e+00 6.443664090779573428e+01 2.330000000000000000e+02
7.466952647203617843e+00 6.336932480464339079e+01 2.330000000000000000e+02
6.539139985104371888e+00 6.230200870149104730e+01 2.330000000000000000e+02
5.611327323005126821e+00 6.123469259833869671e+01 2.330000000000000000e+02
1.760314020976876748e+01 7.610736632194500828e+01 2.340000000000000000e+02
1.667532754766951797e+01 7.504005021879265769e+01 2.340000000000000000e+02
1.574751488557027379e+01 7.397273411564030710e+01 2.340000000000000000e+02
1.481970222347102961e+01 7.290541801248795650e+01 2.340000000000000000e+02
9.252826250875557434e+00 6.650152139357388137e+01 2.340000000000000000e+02
8.325013588776311479e+00 6.543420529042153078e+01 2.340000000000000000e+02
7.397200926677066413e+00 6.436688918726918018e+01 2.340000000000000000e+02
6.469388264577821346e+00 6.329957308411684380e+01 2.340000000000000000e+02
5.541575602478575391e+00 6.223225698096449321e+01 2.340000000000000000e+02
4.613762940379330324e+00 6.116494087781214262e+01 2.340000000000000000e+02
3.685950278280084813e+00 6.009762477465979913e+01 2.340000000000000000e+02
1.660557582714297098e+01 7.603761460141845419e+01 2.350000000000000000e+02
1.567776316504372325e+01 7.497029849826610359e+01 2.350000000000000000e+02
9.183074530349006892e+00 6.749908577619967787e+01 2.350000000000000000e+02
8.255261868249760937e+00 6.643176967304732727e+01 2.350000000000000000e+02
7.327449206150514982e+00 6.536445356989497668e+01 2.350000000000000000e+02
6.399636544051270803e+00 6.429713746674264030e+01 2.350000000000000000e+02
5.471823881952024848e+00 6.322982136359028971e+01 2.350000000000000000e+02
4.544011219852779782e+00 6.216250526043793911e+01 2.350000000000000000e+02
3.616198557753534271e+00 6.109518915728559563e+01 2.350000000000000000e+02
8.625060766136599000e+00 7.547960083720604985e+01 2.360000000000000000e+02
7.697248104037354821e+00 7.441228473405369925e+01 2.360000000000000000e+02
6.769435441938108866e+00 7.334496863090134866e+01 2.360000000000000000e+02
5.841622779838863799e+00 7.227765252774901228e+01 2.360000000000000000e+02
4.913810117739617844e+00 7.121033642459666169e+01 2.360000000000000000e+02
3.985997455640372777e+00 7.014302032144431109e+01 2.360000000000000000e+02
3.058184793541127267e+00 6.907570421829196050e+01 2.360000000000000000e+02
8.625060766136599000e+00 7.547960083720604985e+01 2.370000000000000000e+02
7.697248104037354821e+00 7.441228473405369925e+01 2.370000000000000000e+02
6.769435441938108866e+00 7.334496863090134866e+01 2.370000000000000000e+02
5.841622779838863799e+00 7.227765252774901228e+01 2.370000000000000000e+02
4.913810117739617844e+00 7.121033642459666169e+01 2.370000000000000000e+02
3.985997455640372777e+00 7.014302032144431109e+01 2.370000000000000000e+02
3.058184793541127267e+00 6.907570421829196050e+01 2.370000000000000000e+02
2.130372131441882200e+00 6.800838811513962412e+01 2.370000000000000000e+02
8.625060766136599000e+00 7.547960083720604985e+01 2.380000000000000000e+02
7.697248104037354821e+00 7.441228473405369925e+01 2.380000000000000000e+02
6.769435441938108866e+00 7.334496863090134866e+01 2.380000000000000000e+02
5.841622779838863799e+00 7.227765252774901228e+01 2.380000000000000000e+02
4.913810117739617844e+00 7.121033642459666169e+01 2.380000000000000000e+02
3.985997455640372777e+00 7.014302032144431109e+01 2.380000000000000000e+02
3.058184793541127267e+00 6.907570421829196050e+01 2.380000000000000000e+02
2.130372131441882200e+00 6.800838811513962412e+01 2.380000000000000000e+02
8.625060766136599000e+00 7.547960083720604985e+01 2.390000000000000000e+02
7.697248104037354821e+00 7.441228473405369925e+01 2.390000000000000000e+02
6.769435441938108866e+00 7.334496863090134866e+01 2.390000000000000000e+02
5.841622779838863799e+00 7.227765252774901228e+01 2.390000000000000000e+02
4.913810117739617844e+00 7.121033642459666169e+01 2.390000000000000000e+02
3.985997455640372777e+00 7.014302032144431109e+01 2.390000000000000000e+02
3.058184793541127267e+00 6.907570421829196050e+01 2.390000000000000000e+02
2.130372131441882200e+00 6.800838811513962412e+01 2.390000000000000000e+02
1.202559469342636689e+00 6.694107201198727353e+01 2.390000000000000000e+02
7.627496383510803390e+00 7.540984911667949575e+01 2.400000000000000000e+02
6.699683721411558324e+00 7.434253301352714516e+01 2.400000000000000000e+02
5.771871059312312369e+00 7.327521691037480878e+01 2.400000000000000000e+02
4.844058397213067302e+00 7.220790080722245818e+01 2.400000000000000000e+02
3.916245735113822235e+00 7.114058470407010759e+01 2.400000000000000000e+02
2.988433073014576280e+00 7.007326860091775700e+01 2.400000000000000000e+02
2.060620410915331213e+00 6.900595249776540641e+01 2.400000000000000000e+02
1.132807748816085702e+00 6.793863639461307002e+01 2.400000000000000000e+02
7.627496383510803390e+00 7.540984911667949575e+01 2.410000000000000000e+02
6.699683721411558324e+00 7.434253301352714516e+01 2.410000000000000000e+02
5.771871059312312369e+00 7.327521691037480878e+01 2.410000000000000000e+02
4.844058397213067302e+00 7.220790080722245818e+01 2.410000000000000000e+02
3.916245735113822235e+00 7.114058470407010759e+01 2.410000000000000000e+02
2.988433073014576280e+00 7.007326860091775700e+01 2.410000000000000000e+02
2.060620410915331213e+00 6.900595249776540641e+01 2.410000000000000000e+02
1.132807748816085702e+00 6.793863639461307002e+01 2.410000000000000000e+02
7.627496383510803390e+00 7.540984911667949575e+01 2.420000000000000000e+02
6.699683721411558324e+00 7.434253301352714516e+01 2.420000000000000000e+02
5.771871059312312369e+00 7.327521691037480878e+01 2.420000000000000000e+02
4.844058397213067302e+00 7.220790080722245818e+01 2.420000000000000000e+02
3.916245735113822235e+00 7.114058470407010759e+01 2.420000000000000000e+02
2.988433073014576280e+00 7.007326860091775700e+01 2.420000000000000000e+02
2.060620410915331213e+00 6.900595249776540641e+01 2.420000000000000000e+02
1.132807748816085702e+00 6.793863639461307002e+01 2.420000000000000000e+02
7.627496383510803390e+00 7.540984911667949575e+01 2.430000000000000000e+02
6.699683721411558324e+00 7.434253301352714516e+01 2.430000000000000000e+02
5.771871059312312369e+00 7.327521691037480878e+01 2.430000000000000000e+02
4.844058397213067302e+00 7.220790080722245818e+01 2.430000000000000000e+02
3.916245735113822235e+00 7.114058470407010759e+01 2.430000000000000000e+02
2.988433073014576280e+00 7.007326860091775700e+01 2.430000000000000000e+02
2.060620410915331213e+00 6.900595249776540641e+01 2.430000000000000000e+02
1.132807748816085702e+00 6.793863639461307002e+01 2.430000000000000000e+02
7.627496383510803390e+00 7.540984911667949575e+01 2.440000000000000000e+02
6.699683721411558324e+00 7.434253301352714516e+01 2.440000000000000000e+02
5.771871059312312369e+00 7.327521691037480878e+01 2.440000000000000000e+02
4.844058397213067302e+00 7.220790080722245818e+01 2.440000000000000000e+02
3.916245735113822235e+00 7.114058470407010759e+01 2.440000000000000000e+02
2.988433073014576280e+00 7.007326860091775700e+01 2.440000000000000000e+02
2.060620410915331213e+00 6.900595249776540641e+01 2.440000000000000000e+02
1.132807748816085702e+00 6.793863639461307002e+01 2.440000000000000000e+02
7.627496383510803390e+00 7.540984911667949575e+01 2.450000000000000000e+02
6.699683721411558324e+00 7.434253301352714516e+01 2.450000000000000000e+02
5.771871059312312369e+00 7.327521691037480878e+01 2.450000000000000000e+02
4.844058397213067302e+00 7.220790080722245818e+01 2.450000000000000000e+02
3.916245735113822235e+00 7.114058470407010759e+01 2.450000000000000000e+02
2.988433073014576280e+00 7.007326860091775700e+01 2.450000000000000000e+02
2.060620410915331213e+00 6.900595249776540641e+01 2.450000000000000000e+02
1.132807748816085702e+00 6.793863639461307002e+01 2.450000000000000000e+02
7.627496383510803390e+00 7.540984911667949575e+01 2.460000000000000000e+02
6.699683721411558324e+00 7.434253301352714516e+01 2.460000000000000000e+02
5.771871059312312369e+00 7.327521691037480878e+01 2.460000000000000000e+02
4.844058397213067302e+00 7.220790080722245818e+01 2.460000000000000000e+02
3.916245735113822235e+00 7.114058470407010759e+01 2.460000000000000000e+02
2.988433073014576280e+00 7.007326860091775700e+01 2.460000000000000000e+02
2.060620410915331213e+00 6.900595249776540641e+01 2.460000000000000000e+02
1.132807748816085702e+00 6.793863639461307002e+01 2.460000000000000000e+02
2.049950867168410795e-01 6.687132029146071943e+01 2.460000000000000000e+02
7.627496383510803390e+00 7.540984911667949575e+01 2.470000000000000000e+02
6.699683721411558324e+00 7.434253301352714516e+01 2.470000000000000000e+02
5.771871059312312369e+00 7.327521691037480878e+01 2.470000000000000000e+02
4.844058397213067302e+00 7.220790080722245818e+01 2.470000000000000000e+02
3.916245735113822235e+00 7.114058470407010759e+01 2.470000000000000000e+02
2.988433073014576280e+00 7.007326860091775700e+01 2.470000000000000000e+02
2.060620410915331213e+00 6.900595249776540641e+01 2.470000000000000000e+02
1.132807748816085702e+00 6.793863639461307002e+01 2.470000000000000000e+02
2.049950867168410795e-01 6.687132029146071943e+01 2.470000000000000000e+02
7.627496383510803390e+00 7.540984911667949575e+01 2.480000000000000000e+02
6.699683721411558324e+00 7.434253301352714516e+01 2.480000000000000000e+02
5.771871059312312369e+00 7.327521691037480878e+01 2.480000000000000000e+02
4.844058397213067302e+00 7.220790080722245818e+01 2.480000000000000000e+02
3.916245735113822235e+00 7.114058470407010759e+01 2.480000000000000000e+02
2.988433073014576280e+00 7.007326860091775700e+01 2.480000000000000000e+02
2.060620410915331213e+00 6.900595249776540641e+01 2.480000000000000000e+02
1.132807748816085702e+00 6.793863639461307002e+01 2.480000000000000000e+02
7.627496383510803390e+00 7.540984911667949575e+01 2.490000000000000000e+02
6.699683721411558324e+00 7.434253301352714516e+01 2.490000000000000000e+02
5.771871059312312369e+00 7.327521691037480878e+01 2.490000000000000000e+02
4.844058397213067302e+00 7.220790080722245818e+01 2.490000000000000000e+02
3.916245735113822235e+00 7.114058470407010759e+01 2.490000000000000000e+02
2.988433073014576280e+00 7.007326860091775700e+01 2.490000000000000000e+02
2.060620410915331213e+00 6.900595249776540641e+01 2.490000000000000000e+02
1.132807748816085702e+00 6.793863639461307002e+01 2.490000000000000000e+02
7.627496383510803390e+00 7.540984911667949575e+01 2.500000000000000000e+02
6.699683721411558324e+00 7.434253301352714516e+01 2.500000000000000000e+02
5.771871059312312369e+00 7.327521691037480878e+01 2.500000000000000000e+02
4.844058397213067302e+00 7.220790080722245818e+01 2.500000000000000000e+02
3.916245735113822235e+00 7.114058470407010759e+01 2.500000000000000000e+02
2.988433073014576280e+00 7.007326860091775700e+01 2.500000000000000000e+02
2.060620410915331213e+00 6.900595249776540641e+01 2.500000000000000000e+02
1.132807748816085702e+00 6.793863639461307002e+01 2.500000000000000000e+02
7.627496383510803390e+00 7.540984911667949575e+01 2.510000000000000000e+02
6.699683721411558324e+00 7.434253301352714516e+01 2.510000000000000000e+02
5.771871059312312369e+00 7.327521691037480878e+01 2.510000000000000000e+02
4.844058397213067302e+00 7.220790080722245818e+01 2.510000000000000000e+02
3.916245735113822235e+00 7.114058470407010759e+01 2.510000000000000000e+02
2.988433073014576280e+00 7.007326860091775700e+01 2.510000000000000000e+02
2.060620410915331213e+00 6.900595249776540641e+01 2.510000000000000000e+02
1.132807748816085702e+00 6.793863639461307002e+01 2.510000000000000000e+02
7.627496383510803390e+00 7.540984911667949575e+01 2.520000000000000000e+02
6.699683721411558324e+00 7.434253301352714516e+01 2.520000000000000000e+02
5.771871059312312369e+00 7.327521691037480878e+01 2.520000000000000000e+02
4.844058397213067302e+00 7.220790080722245818e+01 2.520000000000000000e+02
3.916245735113822235e+00 7.114058470407010759e+01 2.520000000000000000e+02
2.988433073014576280e+00 7.007326860091775700e+01 2.520000000000000000e+02
2.060620410915331213e+00 6.900595249776540641e+01 2.520000000000000000e+02
1.132807748816085702e+00 6.793863639461307002e+01 2.520000000000000000e+02
2.049950867168410795e-01 6.687132029146071943e+01 2.520000000000000000e+02
7.627496383510803390e+00 7.540984911667949575e+01 2.530000000000000000e+02
6.699683721411558324e+00 7.434253301352714516e+01 2.530000000000000000e+02
5.771871059312312369e+00 7.327521691037480878e+01 2.530000000000000000e+02
4.844058397213067302e+00 7.220790080722245818e+01 2.530000000000000000e+02
3.916245735113822235e+00 7.114058470407010759e+01 2.530000000000000000e+02
2.988433073014576280e+00 7.007326860091775700e+01 2.530000000000000000e+02
2.060620410915331213e+00 6.900595249776540641e+01 2.530000000000000000e+02
1.132807748816085702e+00 6.793863639461307002e+01 2.530000000000000000e+02
7.627496383510803390e+00 7.540984911667949575e+01 2.540000000000000000e+02
6.699683721411558324e+00 7.434253301352714516e+01 2.540000000000000000e+02
5.771871059312312369e+00 7.327521691037480878e+01 2.540000000000000000e+02
4.844058397213067302e+00 7.220790080722245818e+01 2.540000000000000000e+02
3.916245735113822235e+00 7.114058470407010759e+01 2.540000000000000000e+02
2.988433073014576280e+00 7.007326860091775700e+01 2.540000000000000000e+02
2.060620410915331213e+00 6.900595249776540641e+01 2.540000000000000000e+02
1.132807748816085702e+00 6.793863639461307002e+01 2.540000000000000000e+02
7.627496383510803390e+00 7.540984911667949575e+01 2.550000000000000000e+02
6.699683721411558324e+00 7.434253301352714516e+01 2.550000000000000000e+02
5.771871059312312369e+00 7.327521691037480878e+01 2.550000000000000000e+02
4.844058397213067302e+00 7.220790080722245818e+01 2.550000000000000000e+02
3.916245735113822235e+00 7.114058470407010759e+01 2.550000000000000000e+02
2.988433073014576280e+00 7.007326860091775700e+01 2.550000000000000000e+02
2.060620410915331213e+00 6.900595249776540641e+01 2.550000000000000000e+02
1.132807748816085702e+00 6.793863639461307002e+01 2.550000000000000000e+02
7.627496383510803390e+00 7.540984911667949575e+01 2.560000000000000000e+02
6.699683721411558324e+00 7.434253301352714516e+01 2.560000000000000000e+02
5.771871059312312369e+00 7.327521691037480878e+01 2.560000000000000000e+02
4.844058397213067302e+00 7.220790080722245818e+01 2.560000000000000000e+02
3.916245735113822235e+00 7.114058470407010759e+01 2.560000000000000000e+02
2.988433073014576280e+00 7.007326860091775700e+01 2.560000000000000000e+02
2.060620410915331213e+00 6.900595249776540641e+01 2.560000000000000000e+02
1.132807748816085702e+00 6.793863639461307002e+01 2.560000000000000000e+02
7.627496383510803390e+00 7.540984911667949575e+01 2.570000000000000000e+02
6.699683721411558324e+00 7.434253301352714516e+01 2.570000000000000000e+02
5.771871059312312369e+00 7.327521691037480878e+01 2.570000000000000000e+02
4.844058397213067302e+00 7.220790080722245818e+01 2.570000000000000000e+02
3.916245735113822235e+00 7.114058470407010759e+01 2.570000000000000000e+02
2.988433073014576280e+00 7.007326860091775700e+01 2.570000000000000000e+02
2.060620410915331213e+00 6.900595249776540641e+01 2.570000000000000000e+02
1.132807748816085702e+00 6.793863639461307002e+01 2.570000000000000000e+02
7.627496383510803390e+00 7.540984911667949575e+01 2.580000000000000000e+02
6.699683721411558324e+00 7.434253301352714516e+01 2.580000000000000000e+02
5.771871059312312369e+00 7.327521691037480878e+01 2.580000000000000000e+02
4.844058397213067302e+00 7.220790080722245818e+01 2.580000000000000000e+02
3.916245735113822235e+00 7.114058470407010759e+01 2.580000000000000000e+02
2.988433073014576280e+00 7.007326860091775700e+01 2.580000000000000000e+02
2.060620410915331213e+00 6.900595249776540641e+01 2.580000000000000000e+02
1.132807748816085702e+00 6.793863639461307002e+01 2.580000000000000000e+02
7.627496383510803390e+00 7.540984911667949575e+01 2.590000000000000000e+02
6.699683721411558324e+00 7.434253301352714516e+01 2.590000000000000000e+02
5.771871059312312369e+00 7.327521691037480878e+01 2.590000000000000000e+02
4.844058397213067302e+00 7.220790080722245818e+01 2.590000000000000000e+02
3.916245735113822235e+00 7.114058470407010759e+01 2.590000000000000000e+02
2.988433073014576280e+00 7.007326860091775700e+01 2.590000000000000000e+02
2.060620410915331213e+00 6.900595249776540641e+01 2.590000000000000000e+02
1.132807748816085702e+00 6.793863639461307002e+01 2.590000000000000000e+02
7.627496383510803390e+00 7.540984911667949575e+01 2.600000000000000000e+02
6.699683721411558324e+00 7.434253301352714516e+01 2.600000000000000000e+02
5.771871059312312369e+00 7.327521691037480878e+01 2.600000000000000000e+02
4.844058397213067302e+00 7.220790080722245818e+01 2.600000000000000000e+02
3.916245735113822235e+00 7.114058470407010759e+01 2.600000000000000000e+02
2.988433073014576280e+00 7.007326860091775700e+01 2.600000000000000000e+02
2.060620410915331213e+00 6.900595249776540641e+01 2.600000000000000000e+02
1.132807748816085702e+00 6.793863639461307002e+01 2.600000000000000000e+02
7.627496383510803390e+00 7.540984911667949575e+01 2.610000000000000000e+02
6.699683721411558324e+00 7.434253301352714516e+01 2.610000000000000000e+02
5.771871059312312369e+00 7.327521691037480878e+01 2.610000000000000000e+02
4.844058397213067302e+00 7.220790080722245818e+01 2.610000000000000000e+02
3.916245735113822235e+00 7.114058470407010759e+01 2.610000000000000000e+02
2.988433073014576280e+00 7.007326860091775700e+01 2.610000000000000000e+02
2.060620410915331213e+00 6.900595249776540641e+01 2.610000000000000000e+02
1.132807748816085702e+00 6.793863639461307002e+01 2.610000000000000000e+02
7.627496383510803390e+00 7.540984911667949575e+01 2.620000000000000000e+02
6.699683721411558324e+00 7.434253301352714516e+01 2.620000000000000000e+02
5.771871059312312369e+00 7.327521691037480878e+01 2.620000000000000000e+02
4.844058397213067302e+00 7.220790080722245818e+01 2.620000000000000000e+02
3.916245735113822235e+00 7.114058470407010759e+01 2.620000000000000000e+02
2.988433073014576280e+00 7.007326860091775700e+01 2.620000000000000000e+02
2.060620410915331213e+00 6.900595249776540641e+01 2.620000000000000000e+02
1.132807748816085702e+00 6.793863639461307002e+01 2.620000000000000000e+02
2.049950867168410795e-01 6.687132029146071943e+01 2.620000000000000000e+02
7.627496383510803390e+00 7.540984911667949575e+01 2.630000000000000000e+02
6.699683721411558324e+00 7.434253301352714516e+01 2.630000000000000000e+02
5.771871059312312369e+00 7.327521691037480878e+01 2.630000000000000000e+02
4.844058397213067302e+00 7.220790080722245818e+01 2.630000000000000000e+02
3.916245735113822235e+00 7.114058470407010759e+01 2.630000000000000000e+02
2.988433073014576280e+00 7.007326860091775700e+01 2.630000000000000000e+02
2.060620410915331213e+00 6.900595249776540641e+01 2.630000000000000000e+02
1.132807748816085702e+00 6.793863639461307002e+01 2.630000000000000000e+02
2.049950867168410795e-01 6.687132029146071943e+01 2.630000000000000000e+02
7.627496383510803390e+00 7.540984911667949575e+01 2.640000000000000000e+02
6.699683721411558324e+00 7.434253301352714516e+01 2.640000000000000000e+02
5.771871059312312369e+00 7.327521691037480878e+01 2.640000000000000000e+02
4.844058397213067302e+00 7.220790080722245818e+01 2.640000000000000000e+02
3.916245735113822235e+00 7.114058470407010759e+01 2.640000000000000000e+02
2.988433073014576280e+00 7.007326860091775700e+01 2.640000000000000000e+02
2.060620410915331213e+00 6.900595249776540641e+01 2.640000000000000000e+02
1.132807748816085702e+00 6.793863639461307002e+01 2.640000000000000000e+02
2.049950867168410795e-01 6.687132029146071943e+01 2.640000000000000000e+02
7.627496383510803390e+00 7.540984911667949575e+01 2.650000000000000000e+02
6.699683721411558324e+00 7.434253301352714516e+01 2.650000000000000000e+02
5.771871059312312369e+00 7.327521691037480878e+01 2.650000000000000000e+02
4.844058397213067302e+00 7.220790080722245818e+01 2.650000000000000000e+02
3.916245735113822235e+00 7.114058470407010759e+01 2.650000000000000000e+02
2.988433073014576280e+00 7.007326860091775700e+01 2.650000000000000000e+02
2.060620410915331213e+00 6.900595249776540641e+01 2.650000000000000000e+02
1.132807748816085702e+00 6.793863639461307002e+01 2.650000000000000000e+02
2.049950867168410795e-01 6.687132029146071943e+01 2.650000000000000000e+02
7.627496383510803390e+00 7.540984911667949575e+01 2.660000000000000000e+02
6.699683721411558324e+00 7.434253301352714516e+01 2.660000000000000000e+02
5.771871059312312369e+00 7.327521691037480878e+01 2.660000000000000000e+02
4.844058397213067302e+00 7.220790080722245818e+01 2.660000000000000000e+02
3.916245735113822235e+00 7.114058470407010759e+01 2.660000000000000000e+02
2.988433073014576280e+00 7.007326860091775700e+01 2.660000000000000000e+02
2.060620410915331213e+00 6.900595249776540641e+01 2.660000000000000000e+02
1.132807748816085702e+00 6.793863639461307002e+01 2.660000000000000000e+02
2.049950867168410795e-01 6.687132029146071943e+01 2.660000000000000000e+02
7.627496383510803390e+00 7.540984911667949575e+01 2.670000000000000000e+02
6.699683721411558324e+00 7.434253301352714516e+01 2.670000000000000000e+02
5.771871059312312369e+00 7.327521691037480878e+01 2.670000000000000000e+02
4.844058397213067302e+00 7.220790080722245818e+01 2.670000000000000000e+02
3.916245735113822235e+00 7.114058470407010759e+01 2.670000000000000000e+02
2.988433073014576280e+00 7.007326860091775700e+01 2.670000000000000000e+02
2.060620410915331213e+00 6.900595249776540641e+01 2.670000000000000000e+02
