6.802333679689521517e+00 7.240301762041323741e+01 2.780000000000000000e+02
5.436309902369756308e+00 7.276904909419252476e+01 2.780000000000000000e+02
4.070286125049991099e+00 7.313508056797182633e+01 2.780000000000000000e+02
2.704262347730226779e+00 7.350111204175111368e+01 2.780000000000000000e+02
1.338238570410461570e+00 7.386714351553040103e+01 2.780000000000000000e+02
-2.778520690930275094e-02 7.423317498930970260e+01 2.780000000000000000e+02
-1.393808984229067960e+00 7.459920646308898995e+01 2.780000000000000000e+02
1.090040501164881626e+01 7.130492319907536114e+01 2.790000000000000000e+02
9.534381234329050159e+00 7.167095467285464849e+01 2.790000000000000000e+02
8.168357457009285838e+00 7.203698614663393585e+01 2.790000000000000000e+02
6.802333679689521517e+00 7.240301762041323741e+01 2.790000000000000000e+02
5.436309902369756308e+00 7.276904909419252476e+01 2.790000000000000000e+02
4.070286125049991099e+00 7.313508056797182633e+01 2.790000000000000000e+02
2.704262347730226779e+00 7.350111204175111368e+01 2.790000000000000000e+02
1.338238570410461570e+00 7.386714351553040103e+01 2.790000000000000000e+02
-2.778520690930275094e-02 7.423317498930970260e+01 2.790000000000000000e+02
-1.393808984229067960e+00 7.459920646308898995e+01 2.790000000000000000e+02
1.090040501164881626e+01 7.130492319907536114e+01 2.800000000000000000e+02
9.534381234329050159e+00 7.167095467285464849e+01 2.800000000000000000e+02
8.168357457009285838e+00 7.203698614663393585e+01 2.800000000000000000e+02
6.802333679689521517e+00 7.240301762041323741e+01 2.800000000000000000e+02
5.436309902369756308e+00 7.276904909419252476e+01 2.800000000000000000e+02
4.070286125049991099e+00 7.313508056797182633e+01 2.800000000000000000e+02
2.704262347730226779e+00 7.350111204175111368e+01 2.800000000000000000e+02
1.338238570410461570e+00 7.386714351553040103e+01 2.800000000000000000e+02
-2.778520690930275094e-02 7.423317498930970260e+01 2.800000000000000000e+02
-1.393808984229067960e+00 7.459920646308898995e+01 2.800000000000000000e+02
1.090040501164881626e+01 7.130492319907536114e+01 2.810000000000000000e+02
9.534381234329050159e+00 7.167095467285464849e+01 2.810000000000000000e+02
8.168357457009285838e+00 7.203698614663393585e+01 2.810000000000000000e+02
6.802333679689521517e+00 7.240301762041323741e+01 2.810000000000000000e+02
5.436309902369756308e+00 7.276904909419252476e+01 2.810000000000000000e+02
4.070286125049991099e+00 7.313508056797182633e+01 2.810000000000000000e+02
2.704262347730226779e+00 7.350111204175111368e+01 2.810000000000000000e+02
1.338238570410461570e+00 7.386714351553040103e+01 2.810000000000000000e+02
-2.778520690930275094e-02 7.423317498930970260e+01 2.810000000000000000e+02
-1.393808984229067960e+00 7.459920646308898995e+01 2.810000000000000000e+02
1.090040501164881626e+01 7.130492319907536114e+01 2.820000000000000000e+02
9.534381234329050159e+00 7.167095467285464849e+01 2.820000000000000000e+02
8.168357457009285838e+00 7.203698614663393585e+01 2.820000000000000000e+02
6.802333679689521517e+00 7.240301762041323741e+01 2.820000000000000000e+02
5.436309902369756308e+00 7.276904909419252476e+01 2.820000000000000000e+02
4.070286125049991099e+00 7.313508056797182633e+01 2.820000000000000000e+02
2.704262347730226779e+00 7.350111204175111368e+01 2.820000000000000000e+02
1.338238570410461570e+00 7.386714351553040103e+01 2.820000000000000000e+02
-2.778520690930275094e-02 7.423317498930970260e+01 2.820000000000000000e+02
-1.393808984229067960e+00 7.459920646308898995e+01 2.820000000000000000e+02
1.040040885987857955e+01 7.217095082462488165e+01 2.830000000000000000e+02
9.034385082558815228e+00 7.253698229840418321e+01 2.830000000000000000e+02
7.668361305239050019e+00 7.290301377218347056e+01 2.830000000000000000e+02
6.302337527919285698e+00 7.326904524596275792e+01 2.830000000000000000e+02
4.936313750599520489e+00 7.363507671974205948e+01 2.830000000000000000e+02
3.570289973279755724e+00 7.400110819352134683e+01 2.830000000000000000e+02
2.204266195959990959e+00 7.436713966730064840e+01 2.830000000000000000e+02
8.382424186402257504e-01 7.473317114107993575e+01 2.830000000000000000e+02
-5.277813586795385703e-01 7.509920261485922310e+01 2.830000000000000000e+02
1.040040885987857955e+01 7.217095082462488165e+01 2.840000000000000000e+02
9.034385082558815228e+00 7.253698229840418321e+01 2.840000000000000000e+02
7.668361305239050019e+00 7.290301377218347056e+01 2.840000000000000000e+02
6.302337527919285698e+00 7.326904524596275792e+01 2.840000000000000000e+02
4.936313750599520489e+00 7.363507671974205948e+01 2.840000000000000000e+02
3.570289973279755724e+00 7.400110819352134683e+01 2.840000000000000000e+02
2.204266195959990959e+00 7.436713966730064840e+01 2.840000000000000000e+02
8.382424186402257504e-01 7.473317114107993575e+01 2.840000000000000000e+02
-5.277813586795385703e-01 7.509920261485922310e+01 2.840000000000000000e+02
1.040040885987857955e+01 7.217095082462488165e+01 2.850000000000000000e+02
9.034385082558815228e+00 7.253698229840418321e+01 2.850000000000000000e+02
7.668361305239050019e+00 7.290301377218347056e+01 2.850000000000000000e+02
6.302337527919285698e+00 7.326904524596275792e+01 2.850000000000000000e+02
4.936313750599520489e+00 7.363507671974205948e+01 2.850000000000000000e+02
3.570289973279755724e+00 7.400110819352134683e+01 2.850000000000000000e+02
2.204266195959990959e+00 7.436713966730064840e+01 2.850000000000000000e+02
8.382424186402257504e-01 7.473317114107993575e+01 2.850000000000000000e+02
-5.277813586795385703e-01 7.509920261485922310e+01 2.850000000000000000e+02
1.090040501164881626e+01 7.130492319907536114e+01 2.860000000000000000e+02
9.534381234329050159e+00 7.167095467285464849e+01 2.860000000000000000e+02
8.168357457009285838e+00 7.203698614663393585e+01 2.860000000000000000e+02
6.802333679689521517e+00 7.240301762041323741e+01 2.860000000000000000e+02
5.436309902369756308e+00 7.276904909419252476e+01 2.860000000000000000e+02
4.070286125049991099e+00 7.313508056797182633e+01 2.860000000000000000e+02
2.704262347730226779e+00 7.350111204175111368e+01 2.860000000000000000e+02
1.338238570410461570e+00 7.386714351553040103e+01 2.860000000000000000e+02
-2.778520690930275094e-02 7.423317498930970260e+01 2.860000000000000000e+02
-1.393808984229067960e+00 7.459920646308898995e+01 2.860000000000000000e+02
1.090040501164881626e+01 7.130492319907536114e+01 2.870000000000000000e+02
9.534381234329050159e+00 7.167095467285464849e+01 2.870000000000000000e+02
8.168357457009285838e+00 7.203698614663393585e+01 2.870000000000000000e+02
6.802333679689521517e+00 7.240301762041323741e+01 2.870000000000000000e+02
5.436309902369756308e+00 7.276904909419252476e+01 2.870000000000000000e+02
4.070286125049991099e+00 7.313508056797182633e+01 2.870000000000000000e+02
2.704262347730226779e+00 7.350111204175111368e+01 2.870000000000000000e+02
1.338238570410461570e+00 7.386714351553040103e+01 2.870000000000000000e+02
-2.778520690930275094e-02 7.423317498930970260e+01 2.870000000000000000e+02
-1.393808984229067960e+00 7.459920646308898995e+01 2.870000000000000000e+02
1.090040501164881626e+01 7.130492319907536114e+01 2.880000000000000000e+02
9.534381234329050159e+00 7.167095467285464849e+01 2.880000000000000000e+02
8.168357457009285838e+00 7.203698614663393585e+01 2.880000000000000000e+02
6.802333679689521517e+00 7.240301762041323741e+01 2.880000000000000000e+02
5.436309902369756308e+00 7.276904909419252476e+01 2.880000000000000000e+02
4.070286125049991099e+00 7.313508056797182633e+01 2.880000000000000000e+02
2.704262347730226779e+00 7.350111204175111368e+01 2.880000000000000000e+02
1.338238570410461570e+00 7.386714351553040103e+01 2.880000000000000000e+02
-2.778520690930275094e-02 7.423317498930970260e+01 2.880000000000000000e+02
-1.393808984229067960e+00 7.459920646308898995e+01 2.880000000000000000e+02
1.090040501164881626e+01 7.130492319907536114e+01 2.890000000000000000e+02
9.534381234329050159e+00 7.167095467285464849e+01 2.890000000000000000e+02
8.168357457009285838e+00 7.203698614663393585e+01 2.890000000000000000e+02
6.802333679689521517e+00 7.240301762041323741e+01 2.890000000000000000e+02
5.436309902369756308e+00 7.276904909419252476e+01 2.890000000000000000e+02
4.070286125049991099e+00 7.313508056797182633e+01 2.890000000000000000e+02
2.704262347730226779e+00 7.350111204175111368e+01 2.890000000000000000e+02
1.338238570410461570e+00 7.386714351553040103e+01 2.890000000000000000e+02
-2.778520690930275094e-02 7.423317498930970260e+01 2.890000000000000000e+02
-1.393808984229067960e+00 7.459920646308898995e+01 2.890000000000000000e+02
1.090040501164881626e+01 7.130492319907536114e+01 2.900000000000000000e+02
9.534381234329050159e+00 7.167095467285464849e+01 2.900000000000000000e+02
8.168357457009285838e+00 7.203698614663393585e+01 2.900000000000000000e+02
6.802333679689521517e+00 7.240301762041323741e+01 2.900000000000000000e+02
5.436309902369756308e+00 7.276904909419252476e+01 2.900000000000000000e+02
4.070286125049991099e+00 7.313508056797182633e+01 2.900000000000000000e+02
2.704262347730226779e+00 7.350111204175111368e+01 2.900000000000000000e+02
1.338238570410461570e+00 7.386714351553040103e+01 2.900000000000000000e+02
-2.778520690930275094e-02 7.423317498930970260e+01 2.900000000000000000e+02
-1.393808984229067960e+00 7.459920646308898995e+01 2.900000000000000000e+02
1.090040501164881626e+01 7.130492319907536114e+01 2.910000000000000000e+02
9.534381234329050159e+00 7.167095467285464849e+01 2.910000000000000000e+02
8.168357457009285838e+00 7.203698614663393585e+01 2.910000000000000000e+02
6.802333679689521517e+00 7.240301762041323741e+01 2.910000000000000000e+02
5.436309902369756308e+00 7.276904909419252476e+01 2.910000000000000000e+02
4.070286125049991099e+00 7.313508056797182633e+01 2.910000000000000000e+02
2.704262347730226779e+00 7.350111204175111368e+01 2.910000000000000000e+02
1.338238570410461570e+00 7.386714351553040103e+01 2.910000000000000000e+02
-2.778520690930275094e-02 7.423317498930970260e+01 2.910000000000000000e+02
-1.393808984229067960e+00 7.459920646308898995e+01 2.910000000000000000e+02
1.090040501164881626e+01 7.130492319907536114e+01 2.920000000000000000e+02
9.534381234329050159e+00 7.167095467285464849e+01 2.920000000000000000e+02
8.168357457009285838e+00 7.203698614663393585e+01 2.920000000000000000e+02
6.802333679689521517e+00 7.240301762041323741e+01 2.920000000000000000e+02
5.436309902369756308e+00 7.276904909419252476e+01 2.920000000000000000e+02
4.070286125049991099e+00 7.313508056797182633e+01 2.920000000000000000e+02
2.704262347730226779e+00 7.350111204175111368e+01 2.920000000000000000e+02
1.338238570410461570e+00 7.386714351553040103e+01 2.920000000000000000e+02
-2.778520690930275094e-02 7.423317498930970260e+01 2.920000000000000000e+02
-1.393808984229067960e+00 7.459920646308898995e+01 2.920000000000000000e+02
1.090040501164881626e+01 7.130492319907536114e+01 2.930000000000000000e+02
9.534381234329050159e+00 7.167095467285464849e+01 2.930000000000000000e+02
8.168357457009285838e+00 7.203698614663393585e+01 2.930000000000000000e+02
6.802333679689521517e+00 7.240301762041323741e+01 2.930000000000000000e+02
5.436309902369756308e+00 7.276904909419252476e+01 2.930000000000000000e+02
4.070286125049991099e+00 7.313508056797182633e+01 2.930000000000000000e+02
2.704262347730226779e+00 7.350111204175111368e+01 2.930000000000000000e+02
1.338238570410461570e+00 7.386714351553040103e+01 2.930000000000000000e+02
-2.778520690930275094e-02 7.423317498930970260e+01 2.930000000000000000e+02
-1.393808984229067960e+00 7.459920646308898995e+01 2.930000000000000000e+02
1.090040501164881626e+01 7.130492319907536114e+01 2.940000000000000000e+02
9.534381234329050159e+00 7.167095467285464849e+01 2.940000000000000000e+02
8.168357457009285838e+00 7.203698614663393585e+01 2.940000000000000000e+02
6.802333679689521517e+00 7.240301762041323741e+01 2.940000000000000000e+02
5.436309902369756308e+00 7.276904909419252476e+01 2.940000000000000000e+02
4.070286125049991099e+00 7.313508056797182633e+01 2.940000000000000000e+02
2.704262347730226779e+00 7.350111204175111368e+01 2.940000000000000000e+02
1.338238570410461570e+00 7.386714351553040103e+01 2.940000000000000000e+02
-2.778520690930275094e-02 7.423317498930970260e+01 2.940000000000000000e+02
-1.393808984229067960e+00 7.459920646308898995e+01 2.940000000000000000e+02
1.090040501164881626e+01 7.130492319907536114e+01 2.950000000000000000e+02
9.534381234329050159e+00 7.167095467285464849e+01 2.950000000000000000e+02
8.168357457009285838e+00 7.203698614663393585e+01 2.950000000000000000e+02
6.802333679689521517e+00 7.240301762041323741e+01 2.950000000000000000e+02
5.436309902369756308e+00 7.276904909419252476e+01 2.950000000000000000e+02
4.070286125049991099e+00 7.313508056797182633e+01 2.950000000000000000e+02
2.704262347730226779e+00 7.350111204175111368e+01 2.950000000000000000e+02
1.338238570410461570e+00 7.386714351553040103e+01 2.950000000000000000e+02
-2.778520690930275094e-02 7.423317498930970260e+01 2.950000000000000000e+02
-1.393808984229067960e+00 7.459920646308898995e+01 2.950000000000000000e+02
1.090040501164881626e+01 7.130492319907536114e+01 2.960000000000000000e+02
9.534381234329050159e+00 7.167095467285464849e+01 2.960000000000000000e+02
8.168357457009285838e+00 7.203698614663393585e+01 2.960000000000000000e+02
6.802333679689521517e+00 7.240301762041323741e+01 2.960000000000000000e+02
5.436309902369756308e+00 7.276904909419252476e+01 2.960000000000000000e+02
4.070286125049991099e+00 7.313508056797182633e+01 2.960000000000000000e+02
2.704262347730226779e+00 7.350111204175111368e+01 2.960000000000000000e+02
1.338238570410461570e+00 7.386714351553040103e+01 2.960000000000000000e+02
-2.778520690930275094e-02 7.423317498930970260e+01 2.960000000000000000e+02
-1.393808984229067960e+00 7.459920646308898995e+01 2.960000000000000000e+02
1.040040885987857955e+01 7.217095082462488165e+01 2.970000000000000000e+02
9.034385082558815228e+00 7.253698229840418321e+01 2.970000000000000000e+02
7.668361305239050019e+00 7.290301377218347056e+01 2.970000000000000000e+02
6.302337527919285698e+00 7.326904524596275792e+01 2.970000000000000000e+02
4.936313750599520489e+00 7.363507671974205948e+01 2.970000000000000000e+02
3.570289973279755724e+00 7.400110819352134683e+01 2.970000000000000000e+02
2.204266195959990959e+00 7.436713966730064840e+01 2.970000000000000000e+02
8.382424186402257504e-01 7.473317114107993575e+01 2.970000000000000000e+02
-5.277813586795385703e-01 7.509920261485922310e+01 2.970000000000000000e+02
1.040040885987857955e+01 7.217095082462488165e+01 2.980000000000000000e+02
9.034385082558815228e+00 7.253698229840418321e+01 2.980000000000000000e+02
7.668361305239050019e+00 7.290301377218347056e+01 2.980000000000000000e+02
6.302337527919285698e+00 7.326904524596275792e+01 2.980000000000000000e+02
4.936313750599520489e+00 7.363507671974205948e+01 2.980000000000000000e+02
3.570289973279755724e+00 7.400110819352134683e+01 2.980000000000000000e+02
2.204266195959990959e+00 7.436713966730064840e+01 2.980000000000000000e+02
8.382424186402257504e-01 7.473317114107993575e+01 2.980000000000000000e+02
-5.277813586795385703e-01 7.509920261485922310e+01 2.980000000000000000e+02
1.040040885987857955e+01 7.217095082462488165e+01 2.990000000000000000e+02
9.034385082558815228e+00 7.253698229840418321e+01 2.990000000000000000e+02
7.668361305239050019e+00 7.290301377218347056e+01 2.990000000000000000e+02
6.302337527919285698e+00 7.326904524596275792e+01 2.990000000000000000e+02
4.936313750599520489e+00 7.363507671974205948e+01 2.990000000000000000e+02
3.570289973279755724e+00 7.400110819352134683e+01 2.990000000000000000e+02
2.204266195959990959e+00 7.436713966730064840e+01 2.990000000000000000e+02
8.382424186402257504e-01 7.473317114107993575e+01 2.990000000000000000e+02
-5.277813586795385703e-01 7.509920261485922310e+01 2.990000000000000000e+02
1.040040885987857955e+01 7.217095082462488165e+01 3.000000000000000000e+02
9.034385082558815228e+00 7.253698229840418321e+01 3.000000000000000000e+02
7.668361305239050019e+00 7.290301377218347056e+01 3.000000000000000000e+02
6.302337527919285698e+00 7.326904524596275792e+01 3.000000000000000000e+02
4.936313750599520489e+00 7.363507671974205948e+01 3.000000000000000000e+02
3.570289973279755724e+00 7.400110819352134683e+01 3.000000000000000000e+02
2.204266195959990959e+00 7.436713966730064840e+01 3.000000000000000000e+02
8.382424186402257504e-01 7.473317114107993575e+01 3.000000000000000000e+02
-5.277813586795385703e-01 7.509920261485922310e+01 3.000000000000000000e+02
-1.893805135999302891e+00 7.546523408863852467e+01 3.000000000000000000e+02
1.040040885987857955e+01 7.217095082462488165e+01 3.010000000000000000e+02
9.034385082558815228e+00 7.253698229840418321e+01 3.010000000000000000e+02
7.668361305239050019e+00 7.290301377218347056e+01 3.010000000000000000e+02
6.302337527919285698e+00 7.326904524596275792e+01 3.010000000000000000e+02
4.936313750599520489e+00 7.363507671974205948e+01 3.010000000000000000e+02
3.570289973279755724e+00 7.400110819352134683e+01 3.010000000000000000e+02
2.204266195959990959e+00 7.436713966730064840e+01 3.010000000000000000e+02
8.382424186402257504e-01 7.473317114107993575e+01 3.010000000000000000e+02
-5.277813586795385703e-01 7.509920261485922310e+01 3.010000000000000000e+02
-1.893805135999302891e+00 7.546523408863852467e+01 3.010000000000000000e+02
1.040040885987857955e+01 7.217095082462488165e+01 3.020000000000000000e+02
9.034385082558815228e+00 7.253698229840418321e+01 3.020000000000000000e+02
7.668361305239050019e+00 7.290301377218347056e+01 3.020000000000000000e+02
6.302337527919285698e+00 7.326904524596275792e+01 3.020000000000000000e+02
4.936313750599520489e+00 7.363507671974205948e+01 3.020000000000000000e+02
3.570289973279755724e+00 7.400110819352134683e+01 3.020000000000000000e+02
2.204266195959990959e+00 7.436713966730064840e+01 3.020000000000000000e+02
8.382424186402257504e-01 7.473317114107993575e+01 3.020000000000000000e+02
-5.277813586795385703e-01 7.509920261485922310e+01 3.020000000000000000e+02
1.040040885987857955e+01 7.217095082462488165e+01 3.030000000000000000e+02
9.034385082558815228e+00 7.253698229840418321e+01 3.030000000000000000e+02
7.668361305239050019e+00 7.290301377218347056e+01 3.030000000000000000e+02
6.302337527919285698e+00 7.326904524596275792e+01 3.030000000000000000e+02
4.936313750599520489e+00 7.363507671974205948e+01 3.030000000000000000e+02
3.570289973279755724e+00 7.400110819352134683e+01 3.030000000000000000e+02
2.204266195959990959e+00 7.436713966730064840e+01 3.030000000000000000e+02
8.382424186402257504e-01 7.473317114107993575e+01 3.030000000000000000e+02
-5.277813586795385703e-01 7.509920261485922310e+01 3.030000000000000000e+02
1.040040885987857955e+01 7.217095082462488165e+01 3.040000000000000000e+02
9.034385082558815228e+00 7.253698229840418321e+01 3.040000000000000000e+02
7.668361305239050019e+00 7.290301377218347056e+01 3.040000000000000000e+02
6.302337527919285698e+00 7.326904524596275792e+01 3.040000000000000000e+02
4.936313750599520489e+00 7.363507671974205948e+01 3.040000000000000000e+02
3.570289973279755724e+00 7.400110819352134683e+01 3.040000000000000000e+02
2.204266195959990959e+00 7.436713966730064840e+01 3.040000000000000000e+02
8.382424186402257504e-01 7.473317114107993575e+01 3.040000000000000000e+02
-5.277813586795385703e-01 7.509920261485922310e+01 3.040000000000000000e+02
1.040040885987857955e+01 7.217095082462488165e+01 3.050000000000000000e+02
9.034385082558815228e+00 7.253698229840418321e+01 3.050000000000000000e+02
7.668361305239050019e+00 7.290301377218347056e+01 3.050000000000000000e+02
6.302337527919285698e+00 7.326904524596275792e+01 3.050000000000000000e+02
4.936313750599520489e+00 7.363507671974205948e+01 3.050000000000000000e+02
3.570289973279755724e+00 7.400110819352134683e+01 3.050000000000000000e+02
2.204266195959990959e+00 7.436713966730064840e+01 3.050000000000000000e+02
8.382424186402257504e-01 7.473317114107993575e+01 3.050000000000000000e+02
-5.277813586795385703e-01 7.509920261485922310e+01 3.050000000000000000e+02
1.040040885987857955e+01 7.217095082462488165e+01 3.060000000000000000e+02
9.034385082558815228e+00 7.253698229840418321e+01 3.060000000000000000e+02
7.668361305239050019e+00 7.290301377218347056e+01 3.060000000000000000e+02
6.302337527919285698e+00 7.326904524596275792e+01 3.060000000000000000e+02
4.936313750599520489e+00 7.363507671974205948e+01 3.060000000000000000e+02
3.570289973279755724e+00 7.400110819352134683e+01 3.060000000000000000e+02
2.204266195959990959e+00 7.436713966730064840e+01 3.060000000000000000e+02
8.382424186402257504e-01 7.473317114107993575e+01 3.060000000000000000e+02
-5.277813586795385703e-01 7.509920261485922310e+01 3.060000000000000000e+02
1.040040885987857955e+01 7.217095082462488165e+01 3.070000000000000000e+02
9.034385082558815228e+00 7.253698229840418321e+01 3.070000000000000000e+02
7.668361305239050019e+00 7.290301377218347056e+01 3.070000000000000000e+02
6.302337527919285698e+00 7.326904524596275792e+01 3.070000000000000000e+02
4.936313750599520489e+00 7.363507671974205948e+01 3.070000000000000000e+02
3.570289973279755724e+00 7.400110819352134683e+01 3.070000000000000000e+02
2.204266195959990959e+00 7.436713966730064840e+01 3.070000000000000000e+02
8.382424186402257504e-01 7.473317114107993575e+01 3.070000000000000000e+02
-5.277813586795385703e-01 7.509920261485922310e+01 3.070000000000000000e+02
1.040040885987857955e+01 7.217095082462488165e+01 3.080000000000000000e+02
9.034385082558815228e+00 7.253698229840418321e+01 3.080000000000000000e+02
7.668361305239050019e+00 7.290301377218347056e+01 3.080000000000000000e+02
6.302337527919285698e+00 7.326904524596275792e+01 3.080000000000000000e+02
4.936313750599520489e+00 7.363507671974205948e+01 3.080000000000000000e+02
3.570289973279755724e+00 7.400110819352134683e+01 3.080000000000000000e+02
2.204266195959990959e+00 7.436713966730064840e+01 3.080000000000000000e+02
8.382424186402257504e-01 7.473317114107993575e+01 3.080000000000000000e+02
-5.277813586795385703e-01 7.509920261485922310e+01 3.080000000000000000e+02
1.040040885987857955e+01 7.217095082462488165e+01 3.090000000000000000e+02
9.034385082558815228e+00 7.253698229840418321e+01 3.090000000000000000e+02
7.668361305239050019e+00 7.290301377218347056e+01 3.090000000000000000e+02
6.302337527919285698e+00 7.326904524596275792e+01 3.090000000000000000e+02
4.936313750599520489e+00 7.363507671974205948e+01 3.090000000000000000e+02
3.570289973279755724e+00 7.400110819352134683e+01 3.090000000000000000e+02
2.204266195959990959e+00 7.436713966730064840e+01 3.090000000000000000e+02
8.382424186402257504e-01 7.473317114107993575e+01 3.090000000000000000e+02
-5.277813586795385703e-01 7.509920261485922310e+01 3.090000000000000000e+02
1.040040885987857955e+01 7.217095082462488165e+01 3.100000000000000000e+02
9.034385082558815228e+00 7.253698229840418321e+01 3.100000000000000000e+02
7.668361305239050019e+00 7.290301377218347056e+01 3.100000000000000000e+02
6.302337527919285698e+00 7.326904524596275792e+01 3.100000000000000000e+02
4.936313750599520489e+00 7.363507671974205948e+01 3.100000000000000000e+02
3.570289973279755724e+00 7.400110819352134683e+01 3.100000000000000000e+02
2.204266195959990959e+00 7.436713966730064840e+01 3.100000000000000000e+02
8.382424186402257504e-01 7.473317114107993575e+01 3.100000000000000000e+02
-5.277813586795385703e-01 7.509920261485922310e+01 3.100000000000000000e+02
1.040040885987857955e+01 7.217095082462488165e+01 3.110000000000000000e+02
9.034385082558815228e+00 7.253698229840418321e+01 3.110000000000000000e+02
7.668361305239050019e+00 7.290301377218347056e+01 3.110000000000000000e+02
6.302337527919285698e+00 7.326904524596275792e+01 3.110000000000000000e+02
4.936313750599520489e+00 7.363507671974205948e+01 3.110000000000000000e+02
3.570289973279755724e+00 7.400110819352134683e+01 3.110000000000000000e+02
2.204266195959990959e+00 7.436713966730064840e+01 3.110000000000000000e+02
8.382424186402257504e-01 7.473317114107993575e+01 3.110000000000000000e+02
-5.277813586795385703e-01 7.509920261485922310e+01 3.110000000000000000e+02
1.040040885987857955e+01 7.217095082462488165e+01 3.120000000000000000e+02
9.034385082558815228e+00 7.253698229840418321e+01 3.120000000000000000e+02
7.668361305239050019e+00 7.290301377218347056e+01 3.120000000000000000e+02
6.302337527919285698e+00 7.326904524596275792e+01 3.120000000000000000e+02
4.936313750599520489e+00 7.363507671974205948e+01 3.120000000000000000e+02
3.570289973279755724e+00 7.400110819352134683e+01 3.120000000000000000e+02
2.204266195959990959e+00 7.436713966730064840e+01 3.120000000000000000e+02
8.382424186402257504e-01 7.473317114107993575e+01 3.120000000000000000e+02
-5.277813586795385703e-01 7.509920261485922310e+01 3.120000000000000000e+02
1.040040885987857955e+01 7.217095082462488165e+01 3.130000000000000000e+02
9.034385082558815228e+00 7.253698229840418321e+01 3.130000000000000000e+02
7.668361305239050019e+00 7.290301377218347056e+01 3.130000000000000000e+02
6.302337527919285698e+00 7.326904524596275792e+01 3.130000000000000000e+02
4.936313750599520489e+00 7.363507671974205948e+01 3.130000000000000000e+02
3.570289973279755724e+00 7.400110819352134683e+01 3.130000000000000000e+02
2.204266195959990959e+00 7.436713966730064840e+01 3.130000000000000000e+02
8.382424186402257504e-01 7.473317114107993575e+01 3.130000000000000000e+02
-5.277813586795385703e-01 7.509920261485922310e+01 3.130000000000000000e+02
1.040040885987857955e+01 7.217095082462488165e+01 3.140000000000000000e+02
9.034385082558815228e+00 7.253698229840418321e+01 3.140000000000000000e+02
7.668361305239050019e+00 7.290301377218347056e+01 3.140000000000000000e+02
6.302337527919285698e+00 7.326904524596275792e+01 3.140000000000000000e+02
4.936313750599520489e+00 7.363507671974205948e+01 3.140000000000000000e+02
3.570289973279755724e+00 7.400110819352134683e+01 3.140000000000000000e+02
2.204266195959990959e+00 7.436713966730064840e+01 3.140000000000000000e+02
8.382424186402257504e-01 7.473317114107993575e+01 3.140000000000000000e+02
-5.277813586795385703e-01 7.509920261485922310e+01 3.140000000000000000e+02
1.040040885987857955e+01 7.217095082462488165e+01 3.150000000000000000e+02
9.034385082558815228e+00 7.253698229840418321e+01 3.150000000000000000e+02
7.668361305239050019e+00 7.290301377218347056e+01 3.150000000000000000e+02
6.302337527919285698e+00 7.326904524596275792e+01 3.150000000000000000e+02
4.936313750599520489e+00 7.363507671974205948e+01 3.150000000000000000e+02
3.570289973279755724e+00 7.400110819352134683e+01 3.150000000000000000e+02
2.204266195959990959e+00 7.436713966730064840e+01 3.150000000000000000e+02
8.382424186402257504e-01 7.473317114107993575e+01 3.150000000000000000e+02
-5.277813586795385703e-01 7.509920261485922310e+01 3.150000000000000000e+02
1.040040885987857955e+01 7.217095082462488165e+01 3.160000000000000000e+02
9.034385082558815228e+00 7.253698229840418321e+01 3.160000000000000000e+02
7.668361305239050019e+00 7.290301377218347056e+01 3.160000000000000000e+02
6.302337527919285698e+00 7.326904524596275792e+01 3.160000000000000000e+02
4.936313750599520489e+00 7.363507671974205948e+01 3.160000000000000000e+02
3.570289973279755724e+00 7.400110819352134683e+01 3.160000000000000000e+02
2.204266195959990959e+00 7.436713966730064840e+01 3.160000000000000000e+02
8.382424186402257504e-01 7.473317114107993575e+01 3.160000000000000000e+02
-5.277813586795385703e-01 7.509920261485922310e+01 3.160000000000000000e+02
1.040040885987857955e+01 7.217095082462488165e+01 3.170000000000000000e+02
9.034385082558815228e+00 7.253698229840418321e+01 3.170000000000000000e+02
7.668361305239050019e+00 7.290301377218347056e+01 3.170000000000000000e+02
6.302337527919285698e+00 7.326904524596275792e+01 3.170000000000000000e+02
4.936313750599520489e+00 7.363507671974205948e+01 3.170000000000000000e+02
3.570289973279755724e+00 7.400110819352134683e+01 3.170000000000000000e+02
2.204266195959990959e+00 7.436713966730064840e+01 3.170000000000000000e+02
8.382424186402257504e-01 7.473317114107993575e+01 3.170000000000000000e+02
-5.277813586795385703e-01 7.509920261485922310e+01 3.170000000000000000e+02
1.040040885987857955e+01 7.217095082462488165e+01 3.180000000000000000e+02
9.034385082558815228e+00 7.253698229840418321e+01 3.180000000000000000e+02
7.668361305239050019e+00 7.290301377218347056e+01 3.180000000000000000e+02
6.302337527919285698e+00 7.326904524596275792e+01 3.180000000000000000e+02
4.936313750599520489e+00 7.363507671974205948e+01 3.180000000000000000e+02
3.570289973279755724e+00 7.400110819352134683e+01 3.180000000000000000e+02
2.204266195959990959e+00 7.436713966730064840e+01 3.180000000000000000e+02
8.382424186402257504e-01 7.473317114107993575e+01 3.180000000000000000e+02
-5.277813586795385703e-01 7.509920261485922310e+01 3.180000000000000000e+02
1.040040885987857955e+01 7.217095082462488165e+01 3.190000000000000000e+02
9.034385082558815228e+00 7.253698229840418321e+01 3.190000000000000000e+02
7.668361305239050019e+00 7.290301377218347056e+01 3.190000000000000000e+02
6.302337527919285698e+00 7.326904524596275792e+01 3.190000000000000000e+02
4.936313750599520489e+00 7.363507671974205948e+01 3.190000000000000000e+02
3.570289973279755724e+00 7.400110819352134683e+01 3.190000000000000000e+02
2.204266195959990959e+00 7.436713966730064840e+01 3.190000000000000000e+02
8.382424186402257504e-01 7.473317114107993575e+01 3.190000000000000000e+02
-5.277813586795385703e-01 7.509920261485922310e+01 3.190000000000000000e+02
1.040040885987857955e+01 7.217095082462488165e+01 3.200000000000000000e+02
9.034385082558815228e+00 7.253698229840418321e+01 3.200000000000000000e+02
7.668361305239050019e+00 7.290301377218347056e+01 3.200000000000000000e+02
6.302337527919285698e+00 7.326904524596275792e+01 3.200000000000000000e+02
4.936313750599520489e+00 7.363507671974205948e+01 3.200000000000000000e+02
3.570289973279755724e+00 7.400110819352134683e+01 3.200000000000000000e+02
2.204266195959990959e+00 7.436713966730064840e+01 3.200000000000000000e+02
8.382424186402257504e-01 7.473317114107993575e+01 3.200000000000000000e+02
-5.277813586795385703e-01 7.509920261485922310e+01 3.200000000000000000e+02
1.040040885987857955e+01 7.217095082462488165e+01 3.210000000000000000e+02
9.034385082558815228e+00 7.253698229840418321e+01 3.210000000000000000e+02
7.668361305239050019e+00 7.290301377218347056e+01 3.210000000000000000e+02
6.302337527919285698e+00 7.326904524596275792e+01 3.210000000000000000e+02
4.936313750599520489e+00 7.363507671974205948e+01 3.210000000000000000e+02
3.570289973279755724e+00 7.400110819352134683e+01 3.210000000000000000e+02
2.204266195959990959e+00 7.436713966730064840e+01 3.210000000000000000e+02
8.382424186402257504e-01 7.473317114107993575e+01 3.210000000000000000e+02
-5.277813586795385703e-01 7.509920261485922310e+01 3.210000000000000000e+02
1.090040501164881626e+01 7.130492319907536114e+01 3.220000000000000000e+02
9.534381234329050159e+00 7.167095467285464849e+01 3.220000000000000000e+02
8.168357457009285838e+00 7.203698614663393585e+01 3.220000000000000000e+02
6.802333679689521517e+00 7.240301762041323741e+01 3.220000000000000000e+02
5.436309902369756308e+00 7.276904909419252476e+01 3.220000000000000000e+02
4.070286125049991099e+00 7.313508056797182633e+01 3.220000000000000000e+02
2.704262347730226779e+00 7.350111204175111368e+01 3.220000000000000000e+02
1.338238570410461570e+00 7.386714351553040103e+01 3.220000000000000000e+02
-2.778520690930275094e-02 7.423317498930970260e+01 3.220000000000000000e+02
-1.393808984229067960e+00 7.459920646308898995e+01 3.220000000000000000e+02
1.040040885987857955e+01 7.217095082462488165e+01 3.230000000000000000e+02
9.034385082558815228e+00 7.253698229840418321e+01 3.230000000000000000e+02
7.668361305239050019e+00 7.290301377218347056e+01 3.230000000000000000e+02
6.302337527919285698e+00 7.326904524596275792e+01 3.230000000000000000e+02
4.936313750599520489e+00 7.363507671974205948e+01 3.230000000000000000e+02
3.570289973279755724e+00 7.400110819352134683e+01 3.230000000000000000e+02
2.204266195959990959e+00 7.436713966730064840e+01 3.230000000000000000e+02
8.382424186402257504e-01 7.473317114107993575e+01 3.230000000000000000e+02
-5.277813586795385703e-01 7.509920261485922310e+01 3.230000000000000000e+02
1.040040885987857955e+01 7.217095082462488165e+01 3.240000000000000000e+02
9.034385082558815228e+00 7.253698229840418321e+01 3.240000000000000000e+02
7.668361305239050019e+00 7.290301377218347056e+01 3.240000000000000000e+02
6.302337527919285698e+00 7.326904524596275792e+01 3.240000000000000000e+02
4.936313750599520489e+00 7.363507671974205948e+01 3.240000000000000000e+02
3.570289973279755724e+00 7.400110819352134683e+01 3.240000000000000000e+02
2.204266195959990959e+00 7.436713966730064840e+01 3.240000000000000000e+02
8.382424186402257504e-01 7.473317114107993575e+01 3.240000000000000000e+02
-5.277813586795385703e-01 7.509920261485922310e+01 3.240000000000000000e+02
1.040040885987857955e+01 7.217095082462488165e+01 3.250000000000000000e+02
9.034385082558815228e+00 7.253698229840418321e+01 3.250000000000000000e+02
7.668361305239050019e+00 7.290301377218347056e+01 3.250000000000000000e+02
6.302337527919285698e+00 7.326904524596275792e+01 3.250000000000000000e+02
4.936313750599520489e+00 7.363507671974205948e+01 3.250000000000000000e+02
3.570289973279755724e+00 7.400110819352134683e+01 3.250000000000000000e+02
2.204266195959990959e+00 7.436713966730064840e+01 3.250000000000000000e+02
8.382424186402257504e-01 7.473317114107993575e+01 3.250000000000000000e+02
-5.277813586795385703e-01 7.509920261485922310e+01 3.250000000000000000e+02
1.040040885987857955e+01 7.217095082462488165e+01 3.260000000000000000e+02
9.034385082558815228e+00 7.253698229840418321e+01 3.260000000000000000e+02
7.668361305239050019e+00 7.290301377218347056e+01 3.260000000000000000e+02
6.302337527919285698e+00 7.326904524596275792e+01 3.260000000000000000e+02
4.936313750599520489e+00 7.363507671974205948e+01 3.260000000000000000e+02
3.570289973279755724e+00 7.400110819352134683e+01 3.260000000000000000e+02
2.204266195959990959e+00 7.436713966730064840e+01 3.260000000000000000e+02
8.382424186402257504e-01 7.473317114107993575e+01 3.260000000000000000e+02
-5.277813586795385703e-01 7.509920261485922310e+01 3.260000000000000000e+02
-1.893805135999302891e+00 7.546523408863852467e+01 3.260000000000000000e+02
1.040040885987857955e+01 7.217095082462488165e+01 3.270000000000000000e+02
9.034385082558815228e+00 7.253698229840418321e+01 3.270000000000000000e+02
7.668361305239050019e+00 7.290301377218347056e+01 3.270000000000000000e+02
6.302337527919285698e+00 7.326904524596275792e+01 3.270000000000000000e+02
4.936313750599520489e+00 7.363507671974205948e+01 3.270000000000000000e+02
3.570289973279755724e+00 7.400110819352134683e+01 3.270000000000000000e+02
2.204266195959990959e+00 7.436713966730064840e+01 3.270000000000000000e+02
8.382424186402257504e-01 7.473317114107993575e+01 3.270000000000000000e+02
-5.277813586795385703e-01 7.509920261485922310e+01 3.270000000000000000e+02
-1.893805135999302891e+00 7.546523408863852467e+01 3.270000000000000000e+02
1.040040885987857955e+01 7.217095082462488165e+01 3.280000000000000000e+02
9.034385082558815228e+00 7.253698229840418321e+01 3.280000000000000000e+02
7.668361305239050019e+00 7.290301377218347056e+01 3.280000000000000000e+02
6.302337527919285698e+00 7.326904524596275792e+01 3.280000000000000000e+02
4.936313750599520489e+00 7.363507671974205948e+01 3.280000000000000000e+02
3.570289973279755724e+00 7.400110819352134683e+01 3.280000000000000000e+02
2.204266195959990959e+00 7.436713966730064840e+01 3.280000000000000000e+02
8.382424186402257504e-01 7.473317114107993575e+01 3.280000000000000000e+02
-5.277813586795385703e-01 7.509920261485922310e+01 3.280000000000000000e+02
-1.893805135999302891e+00 7.546523408863852467e+01 3.280000000000000000e+02
1.040040885987857955e+01 7.217095082462488165e+01 3.290000000000000000e+02
9.034385082558815228e+00 7.253698229840418321e+01 3.290000000000000000e+02
7.668361305239050019e+00 7.290301377218347056e+01 3.290000000000000000e+02
6.302337527919285698e+00 7.326904524596275792e+01 3.290000000000000000e+02
4.936313750599520489e+00 7.363507671974205948e+01 3.290000000000000000e+02
3.570289973279755724e+00 7.400110819352134683e+01 3.290000000000000000e+02
2.204266195959990959e+00 7.436713966730064840e+01 3.290000000000000000e+02
8.382424186402257504e-01 7.473317114107993575e+01 3.290000000000000000e+02
-5.277813586795385703e-01 7.509920261485922310e+01 3.290000000000000000e+02
-1.893805135999302891e+00 7.546523408863852467e+01 3.290000000000000000e+02
1.040040885987857955e+01 7.217095082462488165e+01 3.300000000000000000e+02
9.034385082558815228e+00 7.253698229840418321e+01 3.300000000000000000e+02
7.668361305239050019e+00 7.290301377218347056e+01 3.300000000000000000e+02
6.302337527919285698e+00 7.326904524596275792e+01 3.300000000000000000e+02
4.936313750599520489e+00 7.363507671974205948e+01 3.300000000000000000e+02
3.570289973279755724e+00 7.400110819352134683e+01 3.300000000000000000e+02
2.204266195959990959e+00 7.436713966730064840e+01 3.300000000000000000e+02
8.382424186402257504e-01 7.473317114107993575e+01 3.300000000000000000e+02
-5.277813586795385703e-01 7.509920261485922310e+01 3.300000000000000000e+02
1.040040885987857955e+01 7.217095082462488165e+01 3.310000000000000000e+02
9.034385082558815228e+00 7.253698229840418321e+01 3.310000000000000000e+02
7.668361305239050019e+00 7.290301377218347056e+01 3.310000000000000000e+02
6.302337527919285698e+00 7.326904524596275792e+01 3.310000000000000000e+02
4.936313750599520489e+00 7.363507671974205948e+01 3.310000000000000000e+02
3.570289973279755724e+00 7.400110819352134683e+01 3.310000000000000000e+02
2.204266195959990959e+00 7.436713966730064840e+01 3.310000000000000000e+02
8.382424186402257504e-01 7.473317114107993575e+01 3.310000000000000000e+02
-5.277813586795385703e-01 7.509920261485922310e+01 3.310000000000000000e+02
1.040040885987857955e+01 7.217095082462488165e+01 3.320000000000000000e+02
9.034385082558815228e+00 7.253698229840418321e+01 3.320000000000000000e+02
7.668361305239050019e+00 7.290301377218347056e+01 3.320000000000000000e+02
6.302337527919285698e+00 7.326904524596275792e+01 3.320000000000000000e+02
4.936313750599520489e+00 7.363507671974205948e+01 3.320000000000000000e+02
3.570289973279755724e+00 7.400110819352134683e+01 3.320000000000000000e+02
2.204266195959990959e+00 7.436713966730064840e+01 3.320000000000000000e+02
8.382424186402257504e-01 7.473317114107993575e+01 3.320000000000000000e+02
-5.277813586795385703e-01 7.509920261485922310e+01 3.320000000000000000e+02
1.040040885987857955e+01 7.217095082462488165e+01 3.330000000000000000e+02
9.034385082558815228e+00 7.253698229840418321e+01 3.330000000000000000e+02
7.668361305239050019e+00 7.290301377218347056e+01 3.330000000000000000e+02
6.302337527919285698e+00 7.326904524596275792e+01 3.330000000000000000e+02
4.936313750599520489e+00 7.363507671974205948e+01 3.330000000000000000e+02
3.570289973279755724e+00 7.400110819352134683e+01 3.330000000000000000e+02
2.204266195959990959e+00 7.436713966730064840e+01 3.330000000000000000e+02
8.382424186402257504e-01 7.473317114107993575e+01 3.330000000000000000e+02
-5.277813586795385703e-01 7.509920261485922310e+01 3.330000000000000000e+02
-1.893805135999302891e+00 7.546523408863852467e+01 3.330000000000000000e+02
1.040040885987857955e+01 7.217095082462488165e+01 3.340000000000000000e+02
9.034385082558815228e+00 7.253698229840418321e+01 3.340000000000000000e+02
7.668361305239050019e+00 7.290301377218347056e+01 3.340000000000000000e+02
6.302337527919285698e+00 7.326904524596275792e+01 3.340000000000000000e+02
4.936313750599520489e+00 7.363507671974205948e+01 3.340000000000000000e+02
3.570289973279755724e+00 7.400110819352134683e+01 3.340000000000000000e+02
2.204266195959990959e+00 7.436713966730064840e+01 3.340000000000000000e+02
8.382424186402257504e-01 7.473317114107993575e+01 3.340000000000000000e+02
-5.277813586795385703e-01 7.509920261485922310e+01 3.340000000000000000e+02
-1.893805135999302891e+00 7.546523408863852467e+01 3.340000000000000000e+02
1.040040885987857955e+01 7.217095082462488165e+01 3.350000000000000000e+02
9.034385082558815228e+00 7.253698229840418321e+01 3.350000000000000000e+02
7.668361305239050019e+00 7.290301377218347056e+01 3.350000000000000000e+02
6.302337527919285698e+00 7.326904524596275792e+01 3.350000000000000000e+02
4.936313750599520489e+00 7.363507671974205948e+01 3.350000000000000000e+02
3.570289973279755724e+00 7.400110819352134683e+01 3.350000000000000000e+02
2.204266195959990959e+00 7.436713966730064840e+01 3.350000000000000000e+02
8.382424186402257504e-01 7.473317114107993575e+01 3.350000000000000000e+02
-5.277813586795385703e-01 7.509920261485922310e+01 3.350000000000000000e+02
-1.893805135999302891e+00 7.546523408863852467e+01 3.350000000000000000e+02
1.040040885987857955e+01 7.217095082462488165e+01 3.360000000000000000e+02
9.034385082558815228e+00 7.253698229840418321e+01 3.360000000000000000e+02
7.668361305239050019e+00 7.290301377218347056e+01 3.360000000000000000e+02
6.302337527919285698e+00 7.326904524596275792e+01 3.360000000000000000e+02
4.936313750599520489e+00 7.363507671974205948e+01 3.360000000000000000e+02
3.570289973279755724e+00 7.400110819352134683e+01 3.360000000000000000e+02
2.204266195959990959e+00 7.436713966730064840e+01 3.360000000000000000e+02
8.382424186402257504e-01 7.473317114107993575e+01 3.360000000000000000e+02
-5.277813586795385703e-01 7.509920261485922310e+01 3.360000000000000000e+02
1.040040885987857955e+01 7.217095082462488165e+01 3.370000000000000000e+02
9.034385082558815228e+00 7.253698229840418321e+01 3.370000000000000000e+02
7.668361305239050019e+00 7.290301377218347056e+01 3.370000000000000000e+02
6.302337527919285698e+00 7.326904524596275792e+01 3.370000000000000000e+02
4.936313750599520489e+00 7.363507671974205948e+01 3.370000000000000000e+02
3.570289973279755724e+00 7.400110819352134683e+01 3.370000000000000000e+02
2.204266195959990959e+00 7.436713966730064840e+01 3.370000000000000000e+02
8.382424186402257504e-01 7.473317114107993575e+01 3.370000000000000000e+02
-5.277813586795385703e-01 7.509920261485922310e+01 3.370000000000000000e+02
1.040040885987857955e+01 7.217095082462488165e+01 3.380000000000000000e+02
9.034385082558815228e+00 7.253698229840418321e+01 3.380000000000000000e+02
7.668361305239050019e+00 7.290301377218347056e+01 3.380000000000000000e+02
6.302337527919285698e+00 7.326904524596275792e+01 3.380000000000000000e+02
4.936313750599520489e+00 7.363507671974205948e+01 3.380000000000000000e+02
3.570289973279755724e+00 7.400110819352134683e+01 3.380000000000000000e+02
2.204266195959990959e+00 7.436713966730064840e+01 3.380000000000000000e+02
8.382424186402257504e-01 7.473317114107993575e+01 3.380000000000000000e+02
-5.277813586795385703e-01 7.509920261485922310e+01 3.380000000000000000e+02
1.040040885987857955e+01 7.217095082462488165e+01 3.390000000000000000e+02
9.034385082558815228e+00 7.253698229840418321e+01 3.390000000000000000e+02
7.668361305239050019e+00 7.290301377218347056e+01 3.390000000000000000e+02
6.302337527919285698e+00 7.326904524596275792e+01 3.390000000000000000e+02
4.936313750599520489e+00 7.363507671974205948e+01 3.390000000000000000e+02
3.570289973279755724e+00 7.400110819352134683e+01 3.390000000000000000e+02
2.204266195959990959e+00 7.436713966730064840e+01 3.390000000000000000e+02
8.382424186402257504e-01 7.473317114107993575e+01 3.390000000000000000e+02
-5.277813586795385703e-01 7.509920261485922310e+01 3.390000000000000000e+02
1.090040501164881626e+01 7.130492319907536114e+01 3.400000000000000000e+02
9.534381234329050159e+00 7.167095467285464849e+01 3.400000000000000000e+02
8.168357457009285838e+00 7.203698614663393585e+01 3.400000000000000000e+02
6.802333679689521517e+00 7.240301762041323741e+01 3.400000000000000000e+02
5.436309902369756308e+00 7.276904909419252476e+01 3.400000000000000000e+02
4.070286125049991099e+00 7.313508056797182633e+01 3.400000000000000000e+02
2.704262347730226779e+00 7.350111204175111368e+01 3.400000000000000000e+02
1.338238570410461570e+00 7.386714351553040103e+01 3.400000000000000000e+02
-2.778520690930275094e-02 7.423317498930970260e+01 3.400000000000000000e+02
-1.393808984229067960e+00 7.459920646308898995e+01 3.400000000000000000e+02
1.090040501164881626e+01 7.130492319907536114e+01 3.410000000000000000e+02
9.534381234329050159e+00 7.167095467285464849e+01 3.410000000000000000e+02
8.168357457009285838e+00 7.203698614663393585e+01 3.410000000000000000e+02
6.802333679689521517e+00 7.240301762041323741e+01 3.410000000000000000e+02
5.436309902369756308e+00 7.276904909419252476e+01 3.410000000000000000e+02
4.070286125049991099e+00 7.313508056797182633e+01 3.410000000000000000e+02
2.704262347730226779e+00 7.350111204175111368e+01 3.410000000000000000e+02
1.338238570410461570e+00 7.386714351553040103e+01 3.410000000000000000e+02
-2.778520690930275094e-02 7.423317498930970260e+01 3.410000000000000000e+02
-1.393808984229067960e+00 7.459920646308898995e+01 3.410000000000000000e+02
1.090040501164881626e+01 7.130492319907536114e+01 3.420000000000000000e+02
9.534381234329050159e+00 7.167095467285464849e+01 3.420000000000000000e+02
8.168357457009285838e+00 7.203698614663393585e+01 3.420000000000000000e+02
6.802333679689521517e+00 7.240301762041323741e+01 3.420000000000000000e+02
5.436309902369756308e+00 7.276904909419252476e+01 3.420000000000000000e+02
4.070286125049991099e+00 7.313508056797182633e+01 3.420000000000000000e+02
2.704262347730226779e+00 7.350111204175111368e+01 3.420000000000000000e+02
1.338238570410461570e+00 7.386714351553040103e+01 3.420000000000000000e+02
-2.778520690930275094e-02 7.423317498930970260e+01 3.420000000000000000e+02
-1.393808984229067960e+00 7.459920646308898995e+01 3.420000000000000000e+02
1.090040501164881626e+01 7.130492319907536114e+01 3.430000000000000000e+02
9.534381234329050159e+00 7.167095467285464849e+01 3.430000000000000000e+02
8.168357457009285838e+00 7.203698614663393585e+01 3.430000000000000000e+02
6.802333679689521517e+00 7.240301762041323741e+01 3.430000000000000000e+02
5.436309902369756308e+00 7.276904909419252476e+01 3.430000000000000000e+02
4.070286125049991099e+00 7.313508056797182633e+01 3.430000000000000000e+02
2.704262347730226779e+00 7.350111204175111368e+01 3.430000000000000000e+02
1.338238570410461570e+00 7.386714351553040103e+01 3.430000000000000000e+02
-2.778520690930275094e-02 7.423317498930970260e+01 3.430000000000000000e+02
-1.393808984229067960e+00 7.459920646308898995e+01 3.430000000000000000e+02
1.090040501164881626e+01 7.130492319907536114e+01 3.440000000000000000e+02
9.534381234329050159e+00 7.167095467285464849e+01 3.440000000000000000e+02
8.168357457009285838e+00 7.203698614663393585e+01 3.440000000000000000e+02
6.802333679689521517e+00 7.240301762041323741e+01 3.440000000000000000e+02
5.436309902369756308e+00 7.276904909419252476e+01 3.440000000000000000e+02
4.070286125049991099e+00 7.313508056797182633e+01 3.440000000000000000e+02
2.704262347730226779e+00 7.350111204175111368e+01 3.440000000000000000e+02
1.338238570410461570e+00 7.386714351553040103e+01 3.440000000000000000e+02
-2.778520690930275094e-02 7.423317498930970260e+01 3.440000000000000000e+02
-1.393808984229067960e+00 7.459920646308898995e+01 3.440000000000000000e+02
1.090040501164881626e+01 7.130492319907536114e+01 3.450000000000000000e+02
9.534381234329050159e+00 7.167095467285464849e+01 3.450000000000000000e+02
8.168357457009285838e+00 7.203698614663393585e+01 3.450000000000000000e+02
6.802333679689521517e+00 7.240301762041323741e+01 3.450000000000000000e+02
5.436309902369756308e+00 7.276904909419252476e+01 3.450000000000000000e+02
4.070286125049991099e+00 7.313508056797182633e+01 3.450000000000000000e+02
2.704262347730226779e+00 7.350111204175111368e+01 3.450000000000000000e+02
