-5.087344740421919642e-01 9.604621205452682497e-01 3.330000000000000000e+02
-1.244141014816013913e+00 -2.475019599584034058e-01 3.330000000000000000e+02
-1.979547555589836083e+00 -1.455466040462075172e+00 3.330000000000000000e+02
-2.714954096363658476e+00 -2.663430120965746717e+00 3.330000000000000000e+02
1.697485148279273659e+00 4.584354362056283883e+00 3.340000000000000000e+02
9.620786075054519326e-01 3.376390281552611228e+00 3.340000000000000000e+02
2.266720667316302062e-01 2.168426201048939905e+00 3.340000000000000000e+02
-5.087344740421919642e-01 9.604621205452682497e-01 3.340000000000000000e+02
-1.244141014816013913e+00 -2.475019599584034058e-01 3.340000000000000000e+02
-1.979547555589836083e+00 -1.455466040462075172e+00 3.340000000000000000e+02
-2.714954096363658476e+00 -2.663430120965746717e+00 3.340000000000000000e+02
1.697485148279273659e+00 4.584354362056283883e+00 3.350000000000000000e+02
9.620786075054519326e-01 3.376390281552611228e+00 3.350000000000000000e+02
2.266720667316302062e-01 2.168426201048939905e+00 3.350000000000000000e+02
-5.087344740421919642e-01 9.604621205452682497e-01 3.350000000000000000e+02
-1.244141014816013913e+00 -2.475019599584034058e-01 3.350000000000000000e+02
-1.979547555589836083e+00 -1.455466040462075172e+00 3.350000000000000000e+02
-2.714954096363658476e+00 -2.663430120965746717e+00 3.350000000000000000e+02
1.697485148279273659e+00 4.584354362056283883e+00 3.360000000000000000e+02
9.620786075054519326e-01 3.376390281552611228e+00 3.360000000000000000e+02
2.266720667316302062e-01 2.168426201048939905e+00 3.360000000000000000e+02
-5.087344740421919642e-01 9.604621205452682497e-01 3.360000000000000000e+02
-1.244141014816013913e+00 -2.475019599584034058e-01 3.360000000000000000e+02
-1.979547555589836083e+00 -1.455466040462075172e+00 3.360000000000000000e+02
-2.714954096363658476e+00 -2.663430120965746717e+00 3.360000000000000000e+02
7.257998376405270236e-01 4.348075592191358751e+00 3.370000000000000000e+02
-9.606703133294702823e-03 3.140111511687686985e+00 3.370000000000000000e+02
-7.450132439071167623e-01 1.932147431184014996e+00 3.370000000000000000e+02
-1.480419784680938822e+00 7.241833506803434517e-01 3.370000000000000000e+02
-2.215826325454760770e+00 -4.837807298233283149e-01 3.370000000000000000e+02
-2.951232866228583163e+00 -1.691744810326999859e+00 3.370000000000000000e+02
7.257998376405270236e-01 4.348075592191358751e+00 3.380000000000000000e+02
-9.606703133294702823e-03 3.140111511687686985e+00 3.380000000000000000e+02
-7.450132439071167623e-01 1.932147431184014996e+00 3.380000000000000000e+02
-1.480419784680938822e+00 7.241833506803434517e-01 3.380000000000000000e+02
-2.215826325454760770e+00 -4.837807298233283149e-01 3.380000000000000000e+02
-2.951232866228583163e+00 -1.691744810326999859e+00 3.380000000000000000e+02
1.697485148279273659e+00 4.584354362056283883e+00 3.390000000000000000e+02
9.620786075054519326e-01 3.376390281552611228e+00 3.390000000000000000e+02
2.266720667316302062e-01 2.168426201048939905e+00 3.390000000000000000e+02
-5.087344740421919642e-01 9.604621205452682497e-01 3.390000000000000000e+02
-1.244141014816013913e+00 -2.475019599584034058e-01 3.390000000000000000e+02
-1.979547555589836083e+00 -1.455466040462075172e+00 3.390000000000000000e+02
-2.714954096363658476e+00 -2.663430120965746717e+00 3.390000000000000000e+02
-3.450360637137479980e+00 -3.871394201469418483e+00 3.390000000000000000e+02
1.697485148279273659e+00 4.584354362056283883e+00 3.400000000000000000e+02
9.620786075054519326e-01 3.376390281552611228e+00 3.400000000000000000e+02
2.266720667316302062e-01 2.168426201048939905e+00 3.400000000000000000e+02
-5.087344740421919642e-01 9.604621205452682497e-01 3.400000000000000000e+02
-1.244141014816013913e+00 -2.475019599584034058e-01 3.400000000000000000e+02
-1.979547555589836083e+00 -1.455466040462075172e+00 3.400000000000000000e+02
-2.714954096363658476e+00 -2.663430120965746717e+00 3.400000000000000000e+02
-3.450360637137479980e+00 -3.871394201469418483e+00 3.400000000000000000e+02
1.697485148279273659e+00 4.584354362056283883e+00 3.410000000000000000e+02
9.620786075054519326e-01 3.376390281552611228e+00 3.410000000000000000e+02
2.266720667316302062e-01 2.168426201048939905e+00 3.410000000000000000e+02
-5.087344740421919642e-01 9.604621205452682497e-01 3.410000000000000000e+02
-1.244141014816013913e+00 -2.475019599584034058e-01 3.410000000000000000e+02
-1.979547555589836083e+00 -1.455466040462075172e+00 3.410000000000000000e+02
-2.714954096363658476e+00 -2.663430120965746717e+00 3.410000000000000000e+02
1.697485148279273659e+00 4.584354362056283883e+00 3.420000000000000000e+02
9.620786075054519326e-01 3.376390281552611228e+00 3.420000000000000000e+02
2.266720667316302062e-01 2.168426201048939905e+00 3.420000000000000000e+02
-5.087344740421919642e-01 9.604621205452682497e-01 3.420000000000000000e+02
-1.244141014816013913e+00 -2.475019599584034058e-01 3.420000000000000000e+02
-1.979547555589836083e+00 -1.455466040462075172e+00 3.420000000000000000e+02
-2.714954096363658476e+00 -2.663430120965746717e+00 3.420000000000000000e+02
1.697485148279273659e+00 4.584354362056283883e+00 3.430000000000000000e+02
9.620786075054519326e-01 3.376390281552611228e+00 3.430000000000000000e+02
2.266720667316302062e-01 2.168426201048939905e+00 3.430000000000000000e+02
-5.087344740421919642e-01 9.604621205452682497e-01 3.430000000000000000e+02
-1.244141014816013913e+00 -2.475019599584034058e-01 3.430000000000000000e+02
-1.979547555589836083e+00 -1.455466040462075172e+00 3.430000000000000000e+02
-2.714954096363658476e+00 -2.663430120965746717e+00 3.430000000000000000e+02
1.697485148279273659e+00 4.584354362056283883e+00 3.440000000000000000e+02
9.620786075054519326e-01 3.376390281552611228e+00 3.440000000000000000e+02
2.266720667316302062e-01 2.168426201048939905e+00 3.440000000000000000e+02
-5.087344740421919642e-01 9.604621205452682497e-01 3.440000000000000000e+02
-1.244141014816013913e+00 -2.475019599584034058e-01 3.440000000000000000e+02
-1.979547555589836083e+00 -1.455466040462075172e+00 3.440000000000000000e+02
-2.714954096363658476e+00 -2.663430120965746717e+00 3.440000000000000000e+02
1.697485148279273659e+00 4.584354362056283883e+00 3.450000000000000000e+02
9.620786075054519326e-01 3.376390281552611228e+00 3.450000000000000000e+02
2.266720667316302062e-01 2.168426201048939905e+00 3.450000000000000000e+02
-5.087344740421919642e-01 9.604621205452682497e-01 3.450000000000000000e+02
-1.244141014816013913e+00 -2.475019599584034058e-01 3.450000000000000000e+02
-1.979547555589836083e+00 -1.455466040462075172e+00 3.450000000000000000e+02
-2.714954096363658476e+00 -2.663430120965746717e+00 3.450000000000000000e+02
1.697485148279273659e+00 4.584354362056283883e+00 3.460000000000000000e+02
9.620786075054519326e-01 3.376390281552611228e+00 3.460000000000000000e+02
2.266720667316302062e-01 2.168426201048939905e+00 3.460000000000000000e+02
-5.087344740421919642e-01 9.604621205452682497e-01 3.460000000000000000e+02
-1.244141014816013913e+00 -2.475019599584034058e-01 3.460000000000000000e+02
-1.979547555589836083e+00 -1.455466040462075172e+00 3.460000000000000000e+02
-2.714954096363658476e+00 -2.663430120965746717e+00 3.460000000000000000e+02
-3.450360637137479980e+00 -3.871394201469418483e+00 3.460000000000000000e+02
1.697485148279273659e+00 4.584354362056283883e+00 3.470000000000000000e+02
9.620786075054519326e-01 3.376390281552611228e+00 3.470000000000000000e+02
2.266720667316302062e-01 2.168426201048939905e+00 3.470000000000000000e+02
-5.087344740421919642e-01 9.604621205452682497e-01 3.470000000000000000e+02
-1.244141014816013913e+00 -2.475019599584034058e-01 3.470000000000000000e+02
-1.979547555589836083e+00 -1.455466040462075172e+00 3.470000000000000000e+02
-2.714954096363658476e+00 -2.663430120965746717e+00 3.470000000000000000e+02
-3.450360637137479980e+00 -3.871394201469418483e+00 3.470000000000000000e+02
1.697485148279273659e+00 4.584354362056283883e+00 3.480000000000000000e+02
9.620786075054519326e-01 3.376390281552611228e+00 3.480000000000000000e+02
2.266720667316302062e-01 2.168426201048939905e+00 3.480000000000000000e+02
-5.087344740421919642e-01 9.604621205452682497e-01 3.480000000000000000e+02
-1.244141014816013913e+00 -2.475019599584034058e-01 3.480000000000000000e+02
-1.979547555589836083e+00 -1.455466040462075172e+00 3.480000000000000000e+02
-2.714954096363658476e+00 -2.663430120965746717e+00 3.480000000000000000e+02
-3.450360637137479980e+00 -3.871394201469418483e+00 3.480000000000000000e+02
1.697485148279273659e+00 4.584354362056283883e+00 3.490000000000000000e+02
9.620786075054519326e-01 3.376390281552611228e+00 3.490000000000000000e+02
2.266720667316302062e-01 2.168426201048939905e+00 3.490000000000000000e+02
-5.087344740421919642e-01 9.604621205452682497e-01 3.490000000000000000e+02
-1.244141014816013913e+00 -2.475019599584034058e-01 3.490000000000000000e+02
-1.979547555589836083e+00 -1.455466040462075172e+00 3.490000000000000000e+02
-2.714954096363658476e+00 -2.663430120965746717e+00 3.490000000000000000e+02
-3.450360637137479980e+00 -3.871394201469418483e+00 3.490000000000000000e+02
1.697485148279273659e+00 4.584354362056283883e+00 3.500000000000000000e+02
9.620786075054519326e-01 3.376390281552611228e+00 3.500000000000000000e+02
2.266720667316302062e-01 2.168426201048939905e+00 3.500000000000000000e+02
-5.087344740421919642e-01 9.604621205452682497e-01 3.500000000000000000e+02
-1.244141014816013913e+00 -2.475019599584034058e-01 3.500000000000000000e+02
-1.979547555589836083e+00 -1.455466040462075172e+00 3.500000000000000000e+02
-2.714954096363658476e+00 -2.663430120965746717e+00 3.500000000000000000e+02
-3.450360637137479980e+00 -3.871394201469418483e+00 3.500000000000000000e+02
1.697485148279273659e+00 4.584354362056283883e+00 3.510000000000000000e+02
9.620786075054519326e-01 3.376390281552611228e+00 3.510000000000000000e+02
2.266720667316302062e-01 2.168426201048939905e+00 3.510000000000000000e+02
-5.087344740421919642e-01 9.604621205452682497e-01 3.510000000000000000e+02
-1.244141014816013913e+00 -2.475019599584034058e-01 3.510000000000000000e+02
-1.979547555589836083e+00 -1.455466040462075172e+00 3.510000000000000000e+02
-2.714954096363658476e+00 -2.663430120965746717e+00 3.510000000000000000e+02
-3.450360637137479980e+00 -3.871394201469418483e+00 3.510000000000000000e+02
1.697485148279273659e+00 4.584354362056283883e+00 3.520000000000000000e+02
9.620786075054519326e-01 3.376390281552611228e+00 3.520000000000000000e+02
2.266720667316302062e-01 2.168426201048939905e+00 3.520000000000000000e+02
-5.087344740421919642e-01 9.604621205452682497e-01 3.520000000000000000e+02
-1.244141014816013913e+00 -2.475019599584034058e-01 3.520000000000000000e+02
-1.979547555589836083e+00 -1.455466040462075172e+00 3.520000000000000000e+02
-2.714954096363658476e+00 -2.663430120965746717e+00 3.520000000000000000e+02
1.697485148279273659e+00 4.584354362056283883e+00 3.530000000000000000e+02
9.620786075054519326e-01 3.376390281552611228e+00 3.530000000000000000e+02
2.266720667316302062e-01 2.168426201048939905e+00 3.530000000000000000e+02
-5.087344740421919642e-01 9.604621205452682497e-01 3.530000000000000000e+02
-1.244141014816013913e+00 -2.475019599584034058e-01 3.530000000000000000e+02
-1.979547555589836083e+00 -1.455466040462075172e+00 3.530000000000000000e+02
-2.714954096363658476e+00 -2.663430120965746717e+00 3.530000000000000000e+02
1.697485148279273659e+00 4.584354362056283883e+00 3.540000000000000000e+02
9.620786075054519326e-01 3.376390281552611228e+00 3.540000000000000000e+02
2.266720667316302062e-01 2.168426201048939905e+00 3.540000000000000000e+02
-5.087344740421919642e-01 9.604621205452682497e-01 3.540000000000000000e+02
-1.244141014816013913e+00 -2.475019599584034058e-01 3.540000000000000000e+02
-1.979547555589836083e+00 -1.455466040462075172e+00 3.540000000000000000e+02
-2.714954096363658476e+00 -2.663430120965746717e+00 3.540000000000000000e+02
-3.450360637137479980e+00 -3.871394201469418483e+00 3.540000000000000000e+02
1.697485148279273659e+00 4.584354362056283883e+00 3.550000000000000000e+02
9.620786075054519326e-01 3.376390281552611228e+00 3.550000000000000000e+02
2.266720667316302062e-01 2.168426201048939905e+00 3.550000000000000000e+02
-5.087344740421919642e-01 9.604621205452682497e-01 3.550000000000000000e+02
-1.244141014816013913e+00 -2.475019599584034058e-01 3.550000000000000000e+02
-1.979547555589836083e+00 -1.455466040462075172e+00 3.550000000000000000e+02
-2.714954096363658476e+00 -2.663430120965746717e+00 3.550000000000000000e+02
-3.450360637137479980e+00 -3.871394201469418483e+00 3.550000000000000000e+02
7.257998376405270236e-01 4.348075592191358751e+00 3.560000000000000000e+02
-9.606703133294702823e-03 3.140111511687686985e+00 3.560000000000000000e+02
-7.450132439071167623e-01 1.932147431184014996e+00 3.560000000000000000e+02
-1.480419784680938822e+00 7.241833506803434517e-01 3.560000000000000000e+02
-2.215826325454760770e+00 -4.837807298233283149e-01 3.560000000000000000e+02
-2.951232866228583163e+00 -1.691744810326999859e+00 3.560000000000000000e+02
-3.686639407002405111e+00 -2.899708890830671848e+00 3.560000000000000000e+02
7.257998376405270236e-01 4.348075592191358751e+00 3.570000000000000000e+02
-9.606703133294702823e-03 3.140111511687686985e+00 3.570000000000000000e+02
-7.450132439071167623e-01 1.932147431184014996e+00 3.570000000000000000e+02
-1.480419784680938822e+00 7.241833506803434517e-01 3.570000000000000000e+02
-2.215826325454760770e+00 -4.837807298233283149e-01 3.570000000000000000e+02
-2.951232866228583163e+00 -1.691744810326999859e+00 3.570000000000000000e+02
-3.686639407002405111e+00 -2.899708890830671848e+00 3.570000000000000000e+02
7.257998376405270236e-01 4.348075592191358751e+00 3.580000000000000000e+02
-9.606703133294702823e-03 3.140111511687686985e+00 3.580000000000000000e+02
-7.450132439071167623e-01 1.932147431184014996e+00 3.580000000000000000e+02
-1.480419784680938822e+00 7.241833506803434517e-01 3.580000000000000000e+02
-2.215826325454760770e+00 -4.837807298233283149e-01 3.580000000000000000e+02
-2.951232866228583163e+00 -1.691744810326999859e+00 3.580000000000000000e+02
1.697485148279273659e+00 4.584354362056283883e+00 3.590000000000000000e+02
9.620786075054519326e-01 3.376390281552611228e+00 3.590000000000000000e+02
2.266720667316302062e-01 2.168426201048939905e+00 3.590000000000000000e+02
-5.087344740421919642e-01 9.604621205452682497e-01 3.590000000000000000e+02
-1.244141014816013913e+00 -2.475019599584034058e-01 3.590000000000000000e+02
-1.979547555589836083e+00 -1.455466040462075172e+00 3.590000000000000000e+02
-2.714954096363658476e+00 -2.663430120965746717e+00 3.590000000000000000e+02
1.697485148279273659e+00 4.584354362056283883e+00 3.600000000000000000e+02
9.620786075054519326e-01 3.376390281552611228e+00 3.600000000000000000e+02
2.266720667316302062e-01 2.168426201048939905e+00 3.600000000000000000e+02
-5.087344740421919642e-01 9.604621205452682497e-01 3.600000000000000000e+02
-1.244141014816013913e+00 -2.475019599584034058e-01 3.600000000000000000e+02
-1.979547555589836083e+00 -1.455466040462075172e+00 3.600000000000000000e+02
-2.714954096363658476e+00 -2.663430120965746717e+00 3.600000000000000000e+02
-3.450360637137479980e+00 -3.871394201469418483e+00 3.600000000000000000e+02
1.697485148279273659e+00 4.584354362056283883e+00 3.610000000000000000e+02
9.620786075054519326e-01 3.376390281552611228e+00 3.610000000000000000e+02
2.266720667316302062e-01 2.168426201048939905e+00 3.610000000000000000e+02
-5.087344740421919642e-01 9.604621205452682497e-01 3.610000000000000000e+02
-1.244141014816013913e+00 -2.475019599584034058e-01 3.610000000000000000e+02
-1.979547555589836083e+00 -1.455466040462075172e+00 3.610000000000000000e+02
-2.714954096363658476e+00 -2.663430120965746717e+00 3.610000000000000000e+02
-3.450360637137479980e+00 -3.871394201469418483e+00 3.610000000000000000e+02
7.257998376405270236e-01 4.348075592191358751e+00 3.620000000000000000e+02
-9.606703133294702823e-03 3.140111511687686985e+00 3.620000000000000000e+02
-7.450132439071167623e-01 1.932147431184014996e+00 3.620000000000000000e+02
-1.480419784680938822e+00 7.241833506803434517e-01 3.620000000000000000e+02
-2.215826325454760770e+00 -4.837807298233283149e-01 3.620000000000000000e+02
-2.951232866228583163e+00 -1.691744810326999859e+00 3.620000000000000000e+02
-3.686639407002405111e+00 -2.899708890830671848e+00 3.620000000000000000e+02
7.257998376405270236e-01 4.348075592191358751e+00 3.630000000000000000e+02
-9.606703133294702823e-03 3.140111511687686985e+00 3.630000000000000000e+02
-7.450132439071167623e-01 1.932147431184014996e+00 3.630000000000000000e+02
-1.480419784680938822e+00 7.241833506803434517e-01 3.630000000000000000e+02
-2.215826325454760770e+00 -4.837807298233283149e-01 3.630000000000000000e+02
-2.951232866228583163e+00 -1.691744810326999859e+00 3.630000000000000000e+02
1.697485148279273659e+00 4.584354362056283883e+00 3.640000000000000000e+02
9.620786075054519326e-01 3.376390281552611228e+00 3.640000000000000000e+02
2.266720667316302062e-01 2.168426201048939905e+00 3.640000000000000000e+02
-5.087344740421919642e-01 9.604621205452682497e-01 3.640000000000000000e+02
-1.244141014816013913e+00 -2.475019599584034058e-01 3.640000000000000000e+02
-1.979547555589836083e+00 -1.455466040462075172e+00 3.640000000000000000e+02
-2.714954096363658476e+00 -2.663430120965746717e+00 3.640000000000000000e+02
7.257998376405270236e-01 4.348075592191358751e+00 3.650000000000000000e+02
-9.606703133294702823e-03 3.140111511687686985e+00 3.650000000000000000e+02
-7.450132439071167623e-01 1.932147431184014996e+00 3.650000000000000000e+02
-1.480419784680938822e+00 7.241833506803434517e-01 3.650000000000000000e+02
-2.215826325454760770e+00 -4.837807298233283149e-01 3.650000000000000000e+02
-2.951232866228583163e+00 -1.691744810326999859e+00 3.650000000000000000e+02
-3.686639407002405111e+00 -2.899708890830671848e+00 3.650000000000000000e+02
7.257998376405270236e-01 4.348075592191358751e+00 3.660000000000000000e+02
-9.606703133294702823e-03 3.140111511687686985e+00 3.660000000000000000e+02
-7.450132439071167623e-01 1.932147431184014996e+00 3.660000000000000000e+02
-1.480419784680938822e+00 7.241833506803434517e-01 3.660000000000000000e+02
-2.215826325454760770e+00 -4.837807298233283149e-01 3.660000000000000000e+02
-2.951232866228583163e+00 -1.691744810326999859e+00 3.660000000000000000e+02
-3.686639407002405111e+00 -2.899708890830671848e+00 3.660000000000000000e+02
7.257998376405270236e-01 4.348075592191358751e+00 3.670000000000000000e+02
-9.606703133294702823e-03 3.140111511687686985e+00 3.670000000000000000e+02
-7.450132439071167623e-01 1.932147431184014996e+00 3.670000000000000000e+02
-1.480419784680938822e+00 7.241833506803434517e-01 3.670000000000000000e+02
-2.215826325454760770e+00 -4.837807298233283149e-01 3.670000000000000000e+02
-2.951232866228583163e+00 -1.691744810326999859e+00 3.670000000000000000e+02
-3.686639407002405111e+00 -2.899708890830671848e+00 3.670000000000000000e+02
7.257998376405270236e-01 4.348075592191358751e+00 3.680000000000000000e+02
-9.606703133294702823e-03 3.140111511687686985e+00 3.680000000000000000e+02
-7.450132439071167623e-01 1.932147431184014996e+00 3.680000000000000000e+02
-1.480419784680938822e+00 7.241833506803434517e-01 3.680000000000000000e+02
-2.215826325454760770e+00 -4.837807298233283149e-01 3.680000000000000000e+02
-2.951232866228583163e+00 -1.691744810326999859e+00 3.680000000000000000e+02
-3.686639407002405111e+00 -2.899708890830671848e+00 3.680000000000000000e+02
7.257998376405270236e-01 4.348075592191358751e+00 3.690000000000000000e+02
-9.606703133294702823e-03 3.140111511687686985e+00 3.690000000000000000e+02
-7.450132439071167623e-01 1.932147431184014996e+00 3.690000000000000000e+02
-1.480419784680938822e+00 7.241833506803434517e-01 3.690000000000000000e+02
-2.215826325454760770e+00 -4.837807298233283149e-01 3.690000000000000000e+02
-2.951232866228583163e+00 -1.691744810326999859e+00 3.690000000000000000e+02
-3.686639407002405111e+00 -2.899708890830671848e+00 3.690000000000000000e+02
7.257998376405270236e-01 4.348075592191358751e+00 3.700000000000000000e+02
-9.606703133294702823e-03 3.140111511687686985e+00 3.700000000000000000e+02
-7.450132439071167623e-01 1.932147431184014996e+00 3.700000000000000000e+02
-1.480419784680938822e+00 7.241833506803434517e-01 3.700000000000000000e+02
-2.215826325454760770e+00 -4.837807298233283149e-01 3.700000000000000000e+02
-2.951232866228583163e+00 -1.691744810326999859e+00 3.700000000000000000e+02
-3.686639407002405111e+00 -2.899708890830671848e+00 3.700000000000000000e+02
1.697485148279273659e+00 4.584354362056283883e+00 3.710000000000000000e+02
9.620786075054519326e-01 3.376390281552611228e+00 3.710000000000000000e+02
2.266720667316302062e-01 2.168426201048939905e+00 3.710000000000000000e+02
-5.087344740421919642e-01 9.604621205452682497e-01 3.710000000000000000e+02
-1.244141014816013913e+00 -2.475019599584034058e-01 3.710000000000000000e+02
-1.979547555589836083e+00 -1.455466040462075172e+00 3.710000000000000000e+02
-2.714954096363658476e+00 -2.663430120965746717e+00 3.710000000000000000e+02
-3.450360637137479980e+00 -3.871394201469418483e+00 3.710000000000000000e+02
1.697485148279273659e+00 4.584354362056283883e+00 3.720000000000000000e+02
9.620786075054519326e-01 3.376390281552611228e+00 3.720000000000000000e+02
2.266720667316302062e-01 2.168426201048939905e+00 3.720000000000000000e+02
-5.087344740421919642e-01 9.604621205452682497e-01 3.720000000000000000e+02
-1.244141014816013913e+00 -2.475019599584034058e-01 3.720000000000000000e+02
-1.979547555589836083e+00 -1.455466040462075172e+00 3.720000000000000000e+02
-2.714954096363658476e+00 -2.663430120965746717e+00 3.720000000000000000e+02
-3.450360637137479980e+00 -3.871394201469418483e+00 3.720000000000000000e+02
1.697485148279273659e+00 4.584354362056283883e+00 3.730000000000000000e+02
9.620786075054519326e-01 3.376390281552611228e+00 3.730000000000000000e+02
2.266720667316302062e-01 2.168426201048939905e+00 3.730000000000000000e+02
-5.087344740421919642e-01 9.604621205452682497e-01 3.730000000000000000e+02
-1.244141014816013913e+00 -2.475019599584034058e-01 3.730000000000000000e+02
-1.979547555589836083e+00 -1.455466040462075172e+00 3.730000000000000000e+02
-2.714954096363658476e+00 -2.663430120965746717e+00 3.730000000000000000e+02
-3.450360637137479980e+00 -3.871394201469418483e+00 3.730000000000000000e+02
7.257998376405270236e-01 4.348075592191358751e+00 3.740000000000000000e+02
-9.606703133294702823e-03 3.140111511687686985e+00 3.740000000000000000e+02
-7.450132439071167623e-01 1.932147431184014996e+00 3.740000000000000000e+02
-1.480419784680938822e+00 7.241833506803434517e-01 3.740000000000000000e+02
-2.215826325454760770e+00 -4.837807298233283149e-01 3.740000000000000000e+02
-2.951232866228583163e+00 -1.691744810326999859e+00 3.740000000000000000e+02
-3.686639407002405111e+00 -2.899708890830671848e+00 3.740000000000000000e+02
7.257998376405270236e-01 4.348075592191358751e+00 3.750000000000000000e+02
-9.606703133294702823e-03 3.140111511687686985e+00 3.750000000000000000e+02
-7.450132439071167623e-01 1.932147431184014996e+00 3.750000000000000000e+02
-1.480419784680938822e+00 7.241833506803434517e-01 3.750000000000000000e+02
-2.215826325454760770e+00 -4.837807298233283149e-01 3.750000000000000000e+02
-2.951232866228583163e+00 -1.691744810326999859e+00 3.750000000000000000e+02
-3.686639407002405111e+00 -2.899708890830671848e+00 3.750000000000000000e+02
7.257998376405270236e-01 4.348075592191358751e+00 3.760000000000000000e+02
-9.606703133294702823e-03 3.140111511687686985e+00 3.760000000000000000e+02
-7.450132439071167623e-01 1.932147431184014996e+00 3.760000000000000000e+02
-1.480419784680938822e+00 7.241833506803434517e-01 3.760000000000000000e+02
-2.215826325454760770e+00 -4.837807298233283149e-01 3.760000000000000000e+02
-2.951232866228583163e+00 -1.691744810326999859e+00 3.760000000000000000e+02
-3.686639407002405111e+00 -2.899708890830671848e+00 3.760000000000000000e+02
7.257998376405270236e-01 4.348075592191358751e+00 3.770000000000000000e+02
-9.606703133294702823e-03 3.140111511687686985e+00 3.770000000000000000e+02
-7.450132439071167623e-01 1.932147431184014996e+00 3.770000000000000000e+02
-1.480419784680938822e+00 7.241833506803434517e-01 3.770000000000000000e+02
-2.215826325454760770e+00 -4.837807298233283149e-01 3.770000000000000000e+02
-2.951232866228583163e+00 -1.691744810326999859e+00 3.770000000000000000e+02
1.697485148279273659e+00 4.584354362056283883e+00 3.780000000000000000e+02
9.620786075054519326e-01 3.376390281552611228e+00 3.780000000000000000e+02
2.266720667316302062e-01 2.168426201048939905e+00 3.780000000000000000e+02
-5.087344740421919642e-01 9.604621205452682497e-01 3.780000000000000000e+02
-1.244141014816013913e+00 -2.475019599584034058e-01 3.780000000000000000e+02
-1.979547555589836083e+00 -1.455466040462075172e+00 3.780000000000000000e+02
-2.714954096363658476e+00 -2.663430120965746717e+00 3.780000000000000000e+02
7.257998376405270236e-01 4.348075592191358751e+00 3.790000000000000000e+02
-9.606703133294702823e-03 3.140111511687686985e+00 3.790000000000000000e+02
-7.450132439071167623e-01 1.932147431184014996e+00 3.790000000000000000e+02
-1.480419784680938822e+00 7.241833506803434517e-01 3.790000000000000000e+02
-2.215826325454760770e+00 -4.837807298233283149e-01 3.790000000000000000e+02
-2.951232866228583163e+00 -1.691744810326999859e+00 3.790000000000000000e+02
1.697485148279273659e+00 4.584354362056283883e+00 3.800000000000000000e+02
9.620786075054519326e-01 3.376390281552611228e+00 3.800000000000000000e+02
2.266720667316302062e-01 2.168426201048939905e+00 3.800000000000000000e+02
-5.087344740421919642e-01 9.604621205452682497e-01 3.800000000000000000e+02
-1.244141014816013913e+00 -2.475019599584034058e-01 3.800000000000000000e+02
-1.979547555589836083e+00 -1.455466040462075172e+00 3.800000000000000000e+02
-2.714954096363658476e+00 -2.663430120965746717e+00 3.800000000000000000e+02
-3.450360637137479980e+00 -3.871394201469418483e+00 3.800000000000000000e+02
7.257998376405270236e-01 4.348075592191358751e+00 3.810000000000000000e+02
-9.606703133294702823e-03 3.140111511687686985e+00 3.810000000000000000e+02
-7.450132439071167623e-01 1.932147431184014996e+00 3.810000000000000000e+02
-1.480419784680938822e+00 7.241833506803434517e-01 3.810000000000000000e+02
-2.215826325454760770e+00 -4.837807298233283149e-01 3.810000000000000000e+02
-2.951232866228583163e+00 -1.691744810326999859e+00 3.810000000000000000e+02
-3.686639407002405111e+00 -2.899708890830671848e+00 3.810000000000000000e+02
7.257998376405270236e-01 4.348075592191358751e+00 3.820000000000000000e+02
-9.606703133294702823e-03 3.140111511687686985e+00 3.820000000000000000e+02
-7.450132439071167623e-01 1.932147431184014996e+00 3.820000000000000000e+02
-1.480419784680938822e+00 7.241833506803434517e-01 3.820000000000000000e+02
-2.215826325454760770e+00 -4.837807298233283149e-01 3.820000000000000000e+02
-2.951232866228583163e+00 -1.691744810326999859e+00 3.820000000000000000e+02
-3.686639407002405111e+00 -2.899708890830671848e+00 3.820000000000000000e+02
7.257998376405270236e-01 4.348075592191358751e+00 3.830000000000000000e+02
-9.606703133294702823e-03 3.140111511687686985e+00 3.830000000000000000e+02
-7.450132439071167623e-01 1.932147431184014996e+00 3.830000000000000000e+02
-1.480419784680938822e+00 7.241833506803434517e-01 3.830000000000000000e+02
-2.215826325454760770e+00 -4.837807298233283149e-01 3.830000000000000000e+02
-2.951232866228583163e+00 -1.691744810326999859e+00 3.830000000000000000e+02
-3.686639407002405111e+00 -2.899708890830671848e+00 3.830000000000000000e+02
7.257998376405270236e-01 4.348075592191358751e+00 3.840000000000000000e+02
-9.606703133294702823e-03 3.140111511687686985e+00 3.840000000000000000e+02
-7.450132439071167623e-01 1.932147431184014996e+00 3.840000000000000000e+02
-1.480419784680938822e+00 7.241833506803434517e-01 3.840000000000000000e+02
-2.215826325454760770e+00 -4.837807298233283149e-01 3.840000000000000000e+02
-2.951232866228583163e+00 -1.691744810326999859e+00 3.840000000000000000e+02
-3.686639407002405111e+00 -2.899708890830671848e+00 3.840000000000000000e+02
7.257998376405270236e-01 4.348075592191358751e+00 3.850000000000000000e+02
-9.606703133294702823e-03 3.140111511687686985e+00 3.850000000000000000e+02
-7.450132439071167623e-01 1.932147431184014996e+00 3.850000000000000000e+02
-1.480419784680938822e+00 7.241833506803434517e-01 3.850000000000000000e+02
-2.215826325454760770e+00 -4.837807298233283149e-01 3.850000000000000000e+02
-2.951232866228583163e+00 -1.691744810326999859e+00 3.850000000000000000e+02
-3.686639407002405111e+00 -2.899708890830671848e+00 3.850000000000000000e+02
7.257998376405270236e-01 4.348075592191358751e+00 3.860000000000000000e+02
-9.606703133294702823e-03 3.140111511687686985e+00 3.860000000000000000e+02
-7.450132439071167623e-01 1.932147431184014996e+00 3.860000000000000000e+02
-1.480419784680938822e+00 7.241833506803434517e-01 3.860000000000000000e+02
-2.215826325454760770e+00 -4.837807298233283149e-01 3.860000000000000000e+02
-2.951232866228583163e+00 -1.691744810326999859e+00 3.860000000000000000e+02
-3.686639407002405111e+00 -2.899708890830671848e+00 3.860000000000000000e+02
7.257998376405270236e-01 4.348075592191358751e+00 3.870000000000000000e+02
-9.606703133294702823e-03 3.140111511687686985e+00 3.870000000000000000e+02
-7.450132439071167623e-01 1.932147431184014996e+00 3.870000000000000000e+02
-1.480419784680938822e+00 7.241833506803434517e-01 3.870000000000000000e+02
-2.215826325454760770e+00 -4.837807298233283149e-01 3.870000000000000000e+02
-2.951232866228583163e+00 -1.691744810326999859e+00 3.870000000000000000e+02
-3.686639407002405111e+00 -2.899708890830671848e+00 3.870000000000000000e+02
7.257998376405270236e-01 4.348075592191358751e+00 3.880000000000000000e+02
-9.606703133294702823e-03 3.140111511687686985e+00 3.880000000000000000e+02
-7.450132439071167623e-01 1.932147431184014996e+00 3.880000000000000000e+02
-1.480419784680938822e+00 7.241833506803434517e-01 3.880000000000000000e+02
-2.215826325454760770e+00 -4.837807298233283149e-01 3.880000000000000000e+02
-2.951232866228583163e+00 -1.691744810326999859e+00 3.880000000000000000e+02
-3.686639407002405111e+00 -2.899708890830671848e+00 3.880000000000000000e+02
1.697485148279273659e+00 4.584354362056283883e+00 3.890000000000000000e+02
9.620786075054519326e-01 3.376390281552611228e+00 3.890000000000000000e+02
2.266720667316302062e-01 2.168426201048939905e+00 3.890000000000000000e+02
-5.087344740421919642e-01 9.604621205452682497e-01 3.890000000000000000e+02
-1.244141014816013913e+00 -2.475019599584034058e-01 3.890000000000000000e+02
-1.979547555589836083e+00 -1.455466040462075172e+00 3.890000000000000000e+02
-2.714954096363658476e+00 -2.663430120965746717e+00 3.890000000000000000e+02
-3.450360637137479980e+00 -3.871394201469418483e+00 3.890000000000000000e+02
1.697485148279273659e+00 4.584354362056283883e+00 3.900000000000000000e+02
9.620786075054519326e-01 3.376390281552611228e+00 3.900000000000000000e+02
2.266720667316302062e-01 2.168426201048939905e+00 3.900000000000000000e+02
-5.087344740421919642e-01 9.604621205452682497e-01 3.900000000000000000e+02
-1.244141014816013913e+00 -2.475019599584034058e-01 3.900000000000000000e+02
-1.979547555589836083e+00 -1.455466040462075172e+00 3.900000000000000000e+02
-2.714954096363658476e+00 -2.663430120965746717e+00 3.900000000000000000e+02
-3.450360637137479980e+00 -3.871394201469418483e+00 3.900000000000000000e+02
1.697485148279273659e+00 4.584354362056283883e+00 3.910000000000000000e+02
9.620786075054519326e-01 3.376390281552611228e+00 3.910000000000000000e+02
2.266720667316302062e-01 2.168426201048939905e+00 3.910000000000000000e+02
-5.087344740421919642e-01 9.604621205452682497e-01 3.910000000000000000e+02
-1.244141014816013913e+00 -2.475019599584034058e-01 3.910000000000000000e+02
-1.979547555589836083e+00 -1.455466040462075172e+00 3.910000000000000000e+02
-2.714954096363658476e+00 -2.663430120965746717e+00 3.910000000000000000e+02
-3.450360637137479980e+00 -3.871394201469418483e+00 3.910000000000000000e+02
7.257998376405270236e-01 4.348075592191358751e+00 3.920000000000000000e+02
-9.606703133294702823e-03 3.140111511687686985e+00 3.920000000000000000e+02
-7.450132439071167623e-01 1.932147431184014996e+00 3.920000000000000000e+02
-1.480419784680938822e+00 7.241833506803434517e-01 3.920000000000000000e+02
-2.215826325454760770e+00 -4.837807298233283149e-01 3.920000000000000000e+02
-2.951232866228583163e+00 -1.691744810326999859e+00 3.920000000000000000e+02
1.697485148279273659e+00 4.584354362056283883e+00 3.930000000000000000e+02
9.620786075054519326e-01 3.376390281552611228e+00 3.930000000000000000e+02
2.266720667316302062e-01 2.168426201048939905e+00 3.930000000000000000e+02
-5.087344740421919642e-01 9.604621205452682497e-01 3.930000000000000000e+02
-1.244141014816013913e+00 -2.475019599584034058e-01 3.930000000000000000e+02
-1.979547555589836083e+00 -1.455466040462075172e+00 3.930000000000000000e+02
-2.714954096363658476e+00 -2.663430120965746717e+00 3.930000000000000000e+02
7.257998376405270236e-01 4.348075592191358751e+00 3.940000000000000000e+02
-9.606703133294702823e-03 3.140111511687686985e+00 3.940000000000000000e+02
-7.450132439071167623e-01 1.932147431184014996e+00 3.940000000000000000e+02
-1.480419784680938822e+00 7.241833506803434517e-01 3.940000000000000000e+02
-2.215826325454760770e+00 -4.837807298233283149e-01 3.940000000000000000e+02
-2.951232866228583163e+00 -1.691744810326999859e+00 3.940000000000000000e+02
7.257998376405270236e-01 4.348075592191358751e+00 3.950000000000000000e+02
-9.606703133294702823e-03 3.140111511687686985e+00 3.950000000000000000e+02
-7.450132439071167623e-01 1.932147431184014996e+00 3.950000000000000000e+02
-1.480419784680938822e+00 7.241833506803434517e-01 3.950000000000000000e+02
-2.215826325454760770e+00 -4.837807298233283149e-01 3.950000000000000000e+02
-2.951232866228583163e+00 -1.691744810326999859e+00 3.950000000000000000e+02
7.257998376405270236e-01 4.348075592191358751e+00 3.960000000000000000e+02
-9.606703133294702823e-03 3.140111511687686985e+00 3.960000000000000000e+02
-7.450132439071167623e-01 1.932147431184014996e+00 3.960000000000000000e+02
-1.480419784680938822e+00 7.241833506803434517e-01 3.960000000000000000e+02
-2.215826325454760770e+00 -4.837807298233283149e-01 3.960000000000000000e+02
-2.951232866228583163e+00 -1.691744810326999859e+00 3.960000000000000000e+02
-3.686639407002405111e+00 -2.899708890830671848e+00 3.960000000000000000e+02
7.257998376405270236e-01 4.348075592191358751e+00 3.970000000000000000e+02
-9.606703133294702823e-03 3.140111511687686985e+00 3.970000000000000000e+02
-7.450132439071167623e-01 1.932147431184014996e+00 3.970000000000000000e+02
-1.480419784680938822e+00 7.241833506803434517e-01 3.970000000000000000e+02
-2.215826325454760770e+00 -4.837807298233283149e-01 3.970000000000000000e+02
-2.951232866228583163e+00 -1.691744810326999859e+00 3.970000000000000000e+02
-3.686639407002405111e+00 -2.899708890830671848e+00 3.970000000000000000e+02
7.257998376405270236e-01 4.348075592191358751e+00 3.980000000000000000e+02
-9.606703133294702823e-03 3.140111511687686985e+00 3.980000000000000000e+02
-7.450132439071167623e-01 1.932147431184014996e+00 3.980000000000000000e+02
-1.480419784680938822e+00 7.241833506803434517e-01 3.980000000000000000e+02
-2.215826325454760770e+00 -4.837807298233283149e-01 3.980000000000000000e+02
-2.951232866228583163e+00 -1.691744810326999859e+00 3.980000000000000000e+02
-3.686639407002405111e+00 -2.899708890830671848e+00 3.980000000000000000e+02
7.257998376405270236e-01 4.348075592191358751e+00 3.990000000000000000e+02
-9.606703133294702823e-03 3.140111511687686985e+00 3.990000000000000000e+02
-7.450132439071167623e-01 1.932147431184014996e+00 3.990000000000000000e+02
-1.480419784680938822e+00 7.241833506803434517e-01 3.990000000000000000e+02
-2.215826325454760770e+00 -4.837807298233283149e-01 3.990000000000000000e+02
-2.951232866228583163e+00 -1.691744810326999859e+00 3.990000000000000000e+02
-3.686639407002405111e+00 -2.899708890830671848e+00 3.990000000000000000e+02
1.697485148279273659e+00 4.584354362056283883e+00 4.000000000000000000e+02
9.620786075054519326e-01 3.376390281552611228e+00 4.000000000000000000e+02
2.266720667316302062e-01 2.168426201048939905e+00 4.000000000000000000e+02
-5.087344740421919642e-01 9.604621205452682497e-01 4.000000000000000000e+02
-1.244141014816013913e+00 -2.475019599584034058e-01 4.000000000000000000e+02
-1.979547555589836083e+00 -1.455466040462075172e+00 4.000000000000000000e+02
-2.714954096363658476e+00 -2.663430120965746717e+00 4.000000000000000000e+02
-3.450360637137479980e+00 -3.871394201469418483e+00 4.000000000000000000e+02
1.697485148279273659e+00 4.584354362056283883e+00 4.010000000000000000e+02
9.620786075054519326e-01 3.376390281552611228e+00 4.010000000000000000e+02
2.266720667316302062e-01 2.168426201048939905e+00 4.010000000000000000e+02
-5.087344740421919642e-01 9.604621205452682497e-01 4.010000000000000000e+02
-1.244141014816013913e+00 -2.475019599584034058e-01 4.010000000000000000e+02
-1.979547555589836083e+00 -1.455466040462075172e+00 4.010000000000000000e+02
-2.714954096363658476e+00 -2.663430120965746717e+00 4.010000000000000000e+02
-3.450360637137479980e+00 -3.871394201469418483e+00 4.010000000000000000e+02
1.697485148279273659e+00 4.584354362056283883e+00 4.020000000000000000e+02
9.620786075054519326e-01 3.376390281552611228e+00 4.020000000000000000e+02
2.266720667316302062e-01 2.168426201048939905e+00 4.020000000000000000e+02
-5.087344740421919642e-01 9.604621205452682497e-01 4.020000000000000000e+02
-1.244141014816013913e+00 -2.475019599584034058e-01 4.020000000000000000e+02
-1.979547555589836083e+00 -1.455466040462075172e+00 4.020000000000000000e+02
-2.714954096363658476e+00 -2.663430120965746717e+00 4.020000000000000000e+02
-3.450360637137479980e+00 -3.871394201469418483e+00 4.020000000000000000e+02
1.697485148279273659e+00 4.584354362056283883e+00 4.030000000000000000e+02
9.620786075054519326e-01 3.376390281552611228e+00 4.030000000000000000e+02
2.266720667316302062e-01 2.168426201048939905e+00 4.030000000000000000e+02
-5.087344740421919642e-01 9.604621205452682497e-01 4.030000000000000000e+02
-1.244141014816013913e+00 -2.475019599584034058e-01 4.030000000000000000e+02
-1.979547555589836083e+00 -1.455466040462075172e+00 4.030000000000000000e+02
-2.714954096363658476e+00 -2.663430120965746717e+00 4.030000000000000000e+02
-3.450360637137479980e+00 -3.871394201469418483e+00 4.030000000000000000e+02
1.697485148279273659e+00 4.584354362056283883e+00 4.040000000000000000e+02
9.620786075054519326e-01 3.376390281552611228e+00 4.040000000000000000e+02
2.266720667316302062e-01 2.168426201048939905e+00 4.040000000000000000e+02
-5.087344740421919642e-01 9.604621205452682497e-01 4.040000000000000000e+02
-1.244141014816013913e+00 -2.475019599584034058e-01 4.040000000000000000e+02
-1.979547555589836083e+00 -1.455466040462075172e+00 4.040000000000000000e+02
-2.714954096363658476e+00 -2.663430120965746717e+00 4.040000000000000000e+02
1.697485148279273659e+00 4.584354362056283883e+00 4.050000000000000000e+02
9.620786075054519326e-01 3.376390281552611228e+00 4.050000000000000000e+02
2.266720667316302062e-01 2.168426201048939905e+00 4.050000000000000000e+02
-5.087344740421919642e-01 9.604621205452682497e-01 4.050000000000000000e+02
-1.244141014816013913e+00 -2.475019599584034058e-01 4.050000000000000000e+02
-1.979547555589836083e+00 -1.455466040462075172e+00 4.050000000000000000e+02
-2.714954096363658476e+00 -2.663430120965746717e+00 4.050000000000000000e+02
7.257998376405270236e-01 4.348075592191358751e+00 4.060000000000000000e+02
-9.606703133294702823e-03 3.140111511687686985e+00 4.060000000000000000e+02
-7.450132439071167623e-01 1.932147431184014996e+00 4.060000000000000000e+02
-1.480419784680938822e+00 7.241833506803434517e-01 4.060000000000000000e+02
-2.215826325454760770e+00 -4.837807298233283149e-01 4.060000000000000000e+02
-2.951232866228583163e+00 -1.691744810326999859e+00 4.060000000000000000e+02
1.697485148279273659e+00 4.584354362056283883e+00 4.070000000000000000e+02
9.620786075054519326e-01 3.376390281552611228e+00 4.070000000000000000e+02
2.266720667316302062e-01 2.168426201048939905e+00 4.070000000000000000e+02
-5.087344740421919642e-01 9.604621205452682497e-01 4.070000000000000000e+02
-1.244141014816013913e+00 -2.475019599584034058e-01 4.070000000000000000e+02
-1.979547555589836083e+00 -1.455466040462075172e+00 4.070000000000000000e+02
-2.714954096363658476e+00 -2.663430120965746717e+00 4.070000000000000000e+02
1.697485148279273659e+00 4.584354362056283883e+00 4.080000000000000000e+02
9.620786075054519326e-01 3.376390281552611228e+00 4.080000000000000000e+02
2.266720667316302062e-01 2.168426201048939905e+00 4.080000000000000000e+02
-5.087344740421919642e-01 9.604621205452682497e-01 4.080000000000000000e+02
-1.244141014816013913e+00 -2.475019599584034058e-01 4.080000000000000000e+02
-1.979547555589836083e+00 -1.455466040462075172e+00 4.080000000000000000e+02
-2.714954096363658476e+00 -2.663430120965746717e+00 4.080000000000000000e+02
-3.450360637137479980e+00 -3.871394201469418483e+00 4.080000000000000000e+02
1.697485148279273659e+00 4.584354362056283883e+00 4.090000000000000000e+02
9.620786075054519326e-01 3.376390281552611228e+00 4.090000000000000000e+02
2.266720667316302062e-01 2.168426201048939905e+00 4.090000000000000000e+02
-5.087344740421919642e-01 9.604621205452682497e-01 4.090000000000000000e+02
-1.244141014816013913e+00 -2.475019599584034058e-01 4.090000000000000000e+02
-1.979547555589836083e+00 -1.455466040462075172e+00 4.090000000000000000e+02
-2.714954096363658476e+00 -2.663430120965746717e+00 4.090000000000000000e+02
-3.450360637137479980e+00 -3.871394201469418483e+00 4.090000000000000000e+02
1.697485148279273659e+00 4.584354362056283883e+00 4.100000000000000000e+02
9.620786075054519326e-01 3.376390281552611228e+00 4.100000000000000000e+02
2.266720667316302062e-01 2.168426201048939905e+00 4.100000000000000000e+02
-5.087344740421919642e-01 9.604621205452682497e-01 4.100000000000000000e+02
-1.244141014816013913e+00 -2.475019599584034058e-01 4.100000000000000000e+02
-1.979547555589836083e+00 -1.455466040462075172e+00 4.100000000000000000e+02
-2.714954096363658476e+00 -2.663430120965746717e+00 4.100000000000000000e+02
-3.450360637137479980e+00 -3.871394201469418483e+00 4.100000000000000000e+02
1.697485148279273659e+00 4.584354362056283883e+00 4.110000000000000000e+02
9.620786075054519326e-01 3.376390281552611228e+00 4.110000000000000000e+02
2.266720667316302062e-01 2.168426201048939905e+00 4.110000000000000000e+02
-5.087344740421919642e-01 9.604621205452682497e-01 4.110000000000000000e+02
-1.244141014816013913e+00 -2.475019599584034058e-01 4.110000000000000000e+02
-1.979547555589836083e+00 -1.455466040462075172e+00 4.110000000000000000e+02
-2.714954096363658476e+00 -2.663430120965746717e+00 4.110000000000000000e+02
-3.450360637137479980e+00 -3.871394201469418483e+00 4.110000000000000000e+02
1.697485148279273659e+00 4.584354362056283883e+00 4.120000000000000000e+02
9.620786075054519326e-01 3.376390281552611228e+00 4.120000000000000000e+02
2.266720667316302062e-01 2.168426201048939905e+00 4.120000000000000000e+02
-5.087344740421919642e-01 9.604621205452682497e-01 4.120000000000000000e+02
-1.244141014816013913e+00 -2.475019599584034058e-01 4.120000000000000000e+02
-1.979547555589836083e+00 -1.455466040462075172e+00 4.120000000000000000e+02
-2.714954096363658476e+00 -2.663430120965746717e+00 4.120000000000000000e+02
-3.450360637137479980e+00 -3.871394201469418483e+00 4.120000000000000000e+02
1.697485148279273659e+00 4.584354362056283883e+00 4.130000000000000000e+02
9.620786075054519326e-01 3.376390281552611228e+00 4.130000000000000000e+02
2.266720667316302062e-01 2.168426201048939905e+00 4.130000000000000000e+02
-5.087344740421919642e-01 9.604621205452682497e-01 4.130000000000000000e+02
-1.244141014816013913e+00 -2.475019599584034058e-01 4.130000000000000000e+02
-1.979547555589836083e+00 -1.455466040462075172e+00 4.130000000000000000e+02
-2.714954096363658476e+00 -2.663430120965746717e+00 4.130000000000000000e+02
-3.450360637137479980e+00 -3.871394201469418483e+00 4.130000000000000000e+02
1.697485148279273659e+00 4.584354362056283883e+00 4.140000000000000000e+02
9.620786075054519326e-01 3.376390281552611228e+00 4.140000000000000000e+02
2.266720667316302062e-01 2.168426201048939905e+00 4.140000000000000000e+02
-5.087344740421919642e-01 9.604621205452682497e-01 4.140000000000000000e+02
-1.244141014816013913e+00 -2.475019599584034058e-01 4.140000000000000000e+02
-1.979547555589836083e+00 -1.455466040462075172e+00 4.140000000000000000e+02
-2.714954096363658476e+00 -2.663430120965746717e+00 4.140000000000000000e+02
-3.450360637137479980e+00 -3.871394201469418483e+00 4.140000000000000000e+02
1.697485148279273659e+00 4.584354362056283883e+00 4.150000000000000000e+02
9.620786075054519326e-01 3.376390281552611228e+00 4.150000000000000000e+02
2.266720667316302062e-01 2.168426201048939905e+00 4.150000000000000000e+02
-5.087344740421919642e-01 9.604621205452682497e-01 4.150000000000000000e+02
-1.244141014816013913e+00 -2.475019599584034058e-01 4.150000000000000000e+02
-1.979547555589836083e+00 -1.455466040462075172e+00 4.150000000000000000e+02
-2.714954096363658476e+00 -2.663430120965746717e+00 4.150000000000000000e+02
-3.450360637137479980e+00 -3.871394201469418483e+00 4.150000000000000000e+02
1.697485148279273659e+00 4.584354362056283883e+00 4.160000000000000000e+02
9.620786075054519326e-01 3.376390281552611228e+00 4.160000000000000000e+02
2.266720667316302062e-01 2.168426201048939905e+00 4.160000000000000000e+02
-5.087344740421919642e-01 9.604621205452682497e-01 4.160000000000000000e+02
-1.244141014816013913e+00 -2.475019599584034058e-01 4.160000000000000000e+02
-1.979547555589836083e+00 -1.455466040462075172e+00 4.160000000000000000e+02
-2.714954096363658476e+00 -2.663430120965746717e+00 4.160000000000000000e+02
-3.450360637137479980e+00 -3.871394201469418483e+00 4.160000000000000000e+02
1.697485148279273659e+00 4.584354362056283883e+00 4.170000000000000000e+02
9.620786075054519326e-01 3.376390281552611228e+00 4.170000000000000000e+02
2.266720667316302062e-01 2.168426201048939905e+00 4.170000000000000000e+02
-5.087344740421919642e-01 9.604621205452682497e-01 4.170000000000000000e+02
-1.244141014816013913e+00 -2.475019599584034058e-01 4.170000000000000000e+02
-1.979547555589836083e+00 -1.455466040462075172e+00 4.170000000000000000e+02
-2.714954096363658476e+00 -2.663430120965746717e+00 4.170000000000000000e+02
-3.450360637137479980e+00 -3.871394201469418483e+00 4.170000000000000000e+02
1.697485148279273659e+00 4.584354362056283883e+00 4.180000000000000000e+02
9.620786075054519326e-01 3.376390281552611228e+00 4.180000000000000000e+02
2.266720667316302062e-01 2.168426201048939905e+00 4.180000000000000000e+02
-5.087344740421919642e-01 9.604621205452682497e-01 4.180000000000000000e+02
-1.244141014816013913e+00 -2.475019599584034058e-01 4.180000000000000000e+02
-1.979547555589836083e+00 -1.455466040462075172e+00 4.180000000000000000e+02
-2.714954096363658476e+00 -2.663430120965746717e+00 4.180000000000000000e+02
-3.450360637137479980e+00 -3.871394201469418483e+00 4.180000000000000000e+02
1.697485148279273659e+00 4.584354362056283883e+00 4.190000000000000000e+02
9.620786075054519326e-01 3.376390281552611228e+00 4.190000000000000000e+02
2.266720667316302062e-01 2.168426201048939905e+00 4.190000000000000000e+02
-5.087344740421919642e-01 9.604621205452682497e-01 4.190000000000000000e+02
-1.244141014816013913e+00 -2.475019599584034058e-01 4.190000000000000000e+02
-1.979547555589836083e+00 -1.455466040462075172e+00 4.190000000000000000e+02
-2.714954096363658476e+00 -2.663430120965746717e+00 4.190000000000000000e+02
