2.491223825938480907e+00 1.146532052592067252e+00 3.010000000000000000e+02
1.465472247708099474e+00 1.729645409330748396e-01 3.010000000000000000e+02
4.397206694777187064e-01 -8.006029707259174621e-01 3.010000000000000000e+02
-5.860309087526625049e-01 -1.774170482384909819e+00 3.010000000000000000e+02
4.568819015684937312e+00 4.093326620854739417e+00 3.020000000000000000e+02
3.543067437454556323e+00 3.119759109195746394e+00 3.020000000000000000e+02
2.517315859224175334e+00 2.146191597536754259e+00 3.020000000000000000e+02
1.491564280993793901e+00 1.172624085877761679e+00 3.020000000000000000e+02
4.658127027634131334e-01 1.990565742187692666e-01 3.020000000000000000e+02
4.568819015684937312e+00 4.093326620854739417e+00 3.030000000000000000e+02
3.543067437454556323e+00 3.119759109195746394e+00 3.030000000000000000e+02
2.517315859224175334e+00 2.146191597536754259e+00 3.030000000000000000e+02
1.491564280993793901e+00 1.172624085877761679e+00 3.030000000000000000e+02
4.658127027634131334e-01 1.990565742187692666e-01 3.030000000000000000e+02
5.568478560629625207e+00 4.067234587569044990e+00 3.040000000000000000e+02
4.542726982399242885e+00 3.093667075910051967e+00 3.040000000000000000e+02
3.516975404168861896e+00 2.120099564251059832e+00 3.040000000000000000e+02
2.491223825938480907e+00 1.146532052592067252e+00 3.040000000000000000e+02
1.465472247708099474e+00 1.729645409330748396e-01 3.040000000000000000e+02
4.397206694777187064e-01 -8.006029707259174621e-01 3.040000000000000000e+02
-5.860309087526625049e-01 -1.774170482384909819e+00 3.040000000000000000e+02
-1.611782486983043938e+00 -2.747737994043902177e+00 3.040000000000000000e+02
5.568478560629625207e+00 4.067234587569044990e+00 3.050000000000000000e+02
4.542726982399242885e+00 3.093667075910051967e+00 3.050000000000000000e+02
3.516975404168861896e+00 2.120099564251059832e+00 3.050000000000000000e+02
2.491223825938480907e+00 1.146532052592067252e+00 3.050000000000000000e+02
1.465472247708099474e+00 1.729645409330748396e-01 3.050000000000000000e+02
4.397206694777187064e-01 -8.006029707259174621e-01 3.050000000000000000e+02
-5.860309087526625049e-01 -1.774170482384909819e+00 3.050000000000000000e+02
-1.611782486983043938e+00 -2.747737994043902177e+00 3.050000000000000000e+02
-2.637534065213424928e+00 -3.721305505702894312e+00 3.050000000000000000e+02
6.568138105574311325e+00 4.041142554283350563e+00 3.060000000000000000e+02
5.542386527343930780e+00 3.067575042624357540e+00 3.060000000000000000e+02
4.516634949113548458e+00 2.094007530965365405e+00 3.060000000000000000e+02
3.490883370883167469e+00 1.120440019306372825e+00 3.060000000000000000e+02
2.465131792652786480e+00 1.468725076473804125e-01 3.060000000000000000e+02
1.439380214422405047e+00 -8.266950040116118892e-01 3.060000000000000000e+02
4.136286361920242793e-01 -1.800262515670604246e+00 3.060000000000000000e+02
-6.121229420383569320e-01 -2.773830027329596604e+00 3.060000000000000000e+02
-1.637874520268738365e+00 -3.747397538988588739e+00 3.060000000000000000e+02
-2.663626098499119355e+00 -4.720965050647580874e+00 3.060000000000000000e+02
6.568138105574311325e+00 4.041142554283350563e+00 3.070000000000000000e+02
5.542386527343930780e+00 3.067575042624357540e+00 3.070000000000000000e+02
4.516634949113548458e+00 2.094007530965365405e+00 3.070000000000000000e+02
3.490883370883167469e+00 1.120440019306372825e+00 3.070000000000000000e+02
2.465131792652786480e+00 1.468725076473804125e-01 3.070000000000000000e+02
1.439380214422405047e+00 -8.266950040116118892e-01 3.070000000000000000e+02
4.136286361920242793e-01 -1.800262515670604246e+00 3.070000000000000000e+02
-6.121229420383569320e-01 -2.773830027329596604e+00 3.070000000000000000e+02
-1.637874520268738365e+00 -3.747397538988588739e+00 3.070000000000000000e+02
-2.663626098499119355e+00 -4.720965050647580874e+00 3.070000000000000000e+02
-3.689377676729500788e+00 -5.694532562306573453e+00 3.070000000000000000e+02
4.568819015684937312e+00 4.093326620854739417e+00 3.080000000000000000e+02
3.543067437454556323e+00 3.119759109195746394e+00 3.080000000000000000e+02
2.517315859224175334e+00 2.146191597536754259e+00 3.080000000000000000e+02
1.491564280993793901e+00 1.172624085877761679e+00 3.080000000000000000e+02
4.658127027634131334e-01 1.990565742187692666e-01 3.080000000000000000e+02
-5.599388754669680779e-01 -7.745109374402230351e-01 3.080000000000000000e+02
-1.585690453697349511e+00 -1.748078449099215392e+00 3.080000000000000000e+02
-2.611442031927730500e+00 -2.721645960758207750e+00 3.080000000000000000e+02
-3.637193610158111934e+00 -3.695213472417199885e+00 3.080000000000000000e+02
-4.662945188388492923e+00 -4.668780984076192020e+00 3.080000000000000000e+02
4.568819015684937312e+00 4.093326620854739417e+00 3.090000000000000000e+02
3.543067437454556323e+00 3.119759109195746394e+00 3.090000000000000000e+02
2.517315859224175334e+00 2.146191597536754259e+00 3.090000000000000000e+02
1.491564280993793901e+00 1.172624085877761679e+00 3.090000000000000000e+02
4.658127027634131334e-01 1.990565742187692666e-01 3.090000000000000000e+02
-5.599388754669680779e-01 -7.745109374402230351e-01 3.090000000000000000e+02
-1.585690453697349511e+00 -1.748078449099215392e+00 3.090000000000000000e+02
-2.611442031927730500e+00 -2.721645960758207750e+00 3.090000000000000000e+02
-3.637193610158111934e+00 -3.695213472417199885e+00 3.090000000000000000e+02
-4.662945188388492923e+00 -4.668780984076192020e+00 3.090000000000000000e+02
4.568819015684937312e+00 4.093326620854739417e+00 3.100000000000000000e+02
3.543067437454556323e+00 3.119759109195746394e+00 3.100000000000000000e+02
2.517315859224175334e+00 2.146191597536754259e+00 3.100000000000000000e+02
1.491564280993793901e+00 1.172624085877761679e+00 3.100000000000000000e+02
4.658127027634131334e-01 1.990565742187692666e-01 3.100000000000000000e+02
-5.599388754669680779e-01 -7.745109374402230351e-01 3.100000000000000000e+02
-1.585690453697349511e+00 -1.748078449099215392e+00 3.100000000000000000e+02
-2.611442031927730500e+00 -2.721645960758207750e+00 3.100000000000000000e+02
-3.637193610158111934e+00 -3.695213472417199885e+00 3.100000000000000000e+02
-4.662945188388492923e+00 -4.668780984076192020e+00 3.100000000000000000e+02
5.568478560629625207e+00 4.067234587569044990e+00 3.110000000000000000e+02
4.542726982399242885e+00 3.093667075910051967e+00 3.110000000000000000e+02
3.516975404168861896e+00 2.120099564251059832e+00 3.110000000000000000e+02
2.491223825938480907e+00 1.146532052592067252e+00 3.110000000000000000e+02
1.465472247708099474e+00 1.729645409330748396e-01 3.110000000000000000e+02
4.397206694777187064e-01 -8.006029707259174621e-01 3.110000000000000000e+02
-5.860309087526625049e-01 -1.774170482384909819e+00 3.110000000000000000e+02
-1.611782486983043938e+00 -2.747737994043902177e+00 3.110000000000000000e+02
-2.637534065213424928e+00 -3.721305505702894312e+00 3.110000000000000000e+02
-3.663285643443806361e+00 -4.694873017361886447e+00 3.110000000000000000e+02
-4.689037221674187350e+00 -5.668440529020879026e+00 3.110000000000000000e+02
5.568478560629625207e+00 4.067234587569044990e+00 3.120000000000000000e+02
4.542726982399242885e+00 3.093667075910051967e+00 3.120000000000000000e+02
3.516975404168861896e+00 2.120099564251059832e+00 3.120000000000000000e+02
2.491223825938480907e+00 1.146532052592067252e+00 3.120000000000000000e+02
1.465472247708099474e+00 1.729645409330748396e-01 3.120000000000000000e+02
4.397206694777187064e-01 -8.006029707259174621e-01 3.120000000000000000e+02
-5.860309087526625049e-01 -1.774170482384909819e+00 3.120000000000000000e+02
-1.611782486983043938e+00 -2.747737994043902177e+00 3.120000000000000000e+02
-2.637534065213424928e+00 -3.721305505702894312e+00 3.120000000000000000e+02
-3.663285643443806361e+00 -4.694873017361886447e+00 3.120000000000000000e+02
-4.689037221674187350e+00 -5.668440529020879026e+00 3.120000000000000000e+02
5.568478560629625207e+00 4.067234587569044990e+00 3.130000000000000000e+02
4.542726982399242885e+00 3.093667075910051967e+00 3.130000000000000000e+02
3.516975404168861896e+00 2.120099564251059832e+00 3.130000000000000000e+02
2.491223825938480907e+00 1.146532052592067252e+00 3.130000000000000000e+02
1.465472247708099474e+00 1.729645409330748396e-01 3.130000000000000000e+02
4.397206694777187064e-01 -8.006029707259174621e-01 3.130000000000000000e+02
-5.860309087526625049e-01 -1.774170482384909819e+00 3.130000000000000000e+02
-1.611782486983043938e+00 -2.747737994043902177e+00 3.130000000000000000e+02
-2.637534065213424928e+00 -3.721305505702894312e+00 3.130000000000000000e+02
-3.663285643443806361e+00 -4.694873017361886447e+00 3.130000000000000000e+02
-4.689037221674187350e+00 -5.668440529020879026e+00 3.130000000000000000e+02
4.568819015684937312e+00 4.093326620854739417e+00 3.140000000000000000e+02
3.543067437454556323e+00 3.119759109195746394e+00 3.140000000000000000e+02
2.517315859224175334e+00 2.146191597536754259e+00 3.140000000000000000e+02
1.491564280993793901e+00 1.172624085877761679e+00 3.140000000000000000e+02
4.658127027634131334e-01 1.990565742187692666e-01 3.140000000000000000e+02
-5.599388754669680779e-01 -7.745109374402230351e-01 3.140000000000000000e+02
-1.585690453697349511e+00 -1.748078449099215392e+00 3.140000000000000000e+02
-2.611442031927730500e+00 -2.721645960758207750e+00 3.140000000000000000e+02
-3.637193610158111934e+00 -3.695213472417199885e+00 3.140000000000000000e+02
-4.662945188388492923e+00 -4.668780984076192020e+00 3.140000000000000000e+02
4.568819015684937312e+00 4.093326620854739417e+00 3.150000000000000000e+02
3.543067437454556323e+00 3.119759109195746394e+00 3.150000000000000000e+02
2.517315859224175334e+00 2.146191597536754259e+00 3.150000000000000000e+02
1.491564280993793901e+00 1.172624085877761679e+00 3.150000000000000000e+02
4.658127027634131334e-01 1.990565742187692666e-01 3.150000000000000000e+02
-5.599388754669680779e-01 -7.745109374402230351e-01 3.150000000000000000e+02
-1.585690453697349511e+00 -1.748078449099215392e+00 3.150000000000000000e+02
-2.611442031927730500e+00 -2.721645960758207750e+00 3.150000000000000000e+02
-3.637193610158111934e+00 -3.695213472417199885e+00 3.150000000000000000e+02
4.568819015684937312e+00 4.093326620854739417e+00 3.160000000000000000e+02
3.543067437454556323e+00 3.119759109195746394e+00 3.160000000000000000e+02
2.517315859224175334e+00 2.146191597536754259e+00 3.160000000000000000e+02
1.491564280993793901e+00 1.172624085877761679e+00 3.160000000000000000e+02
4.658127027634131334e-01 1.990565742187692666e-01 3.160000000000000000e+02
-5.599388754669680779e-01 -7.745109374402230351e-01 3.160000000000000000e+02
-1.585690453697349511e+00 -1.748078449099215392e+00 3.160000000000000000e+02
-2.611442031927730500e+00 -2.721645960758207750e+00 3.160000000000000000e+02
-3.637193610158111934e+00 -3.695213472417199885e+00 3.160000000000000000e+02
4.568819015684937312e+00 4.093326620854739417e+00 3.170000000000000000e+02
3.543067437454556323e+00 3.119759109195746394e+00 3.170000000000000000e+02
2.517315859224175334e+00 2.146191597536754259e+00 3.170000000000000000e+02
1.491564280993793901e+00 1.172624085877761679e+00 3.170000000000000000e+02
4.658127027634131334e-01 1.990565742187692666e-01 3.170000000000000000e+02
-5.599388754669680779e-01 -7.745109374402230351e-01 3.170000000000000000e+02
-1.585690453697349511e+00 -1.748078449099215392e+00 3.170000000000000000e+02
-2.611442031927730500e+00 -2.721645960758207750e+00 3.170000000000000000e+02
-3.637193610158111934e+00 -3.695213472417199885e+00 3.170000000000000000e+02
4.568819015684937312e+00 4.093326620854739417e+00 3.180000000000000000e+02
3.543067437454556323e+00 3.119759109195746394e+00 3.180000000000000000e+02
2.517315859224175334e+00 2.146191597536754259e+00 3.180000000000000000e+02
1.491564280993793901e+00 1.172624085877761679e+00 3.180000000000000000e+02
4.658127027634131334e-01 1.990565742187692666e-01 3.180000000000000000e+02
-5.599388754669680779e-01 -7.745109374402230351e-01 3.180000000000000000e+02
-1.585690453697349511e+00 -1.748078449099215392e+00 3.180000000000000000e+02
-2.611442031927730500e+00 -2.721645960758207750e+00 3.180000000000000000e+02
-3.637193610158111934e+00 -3.695213472417199885e+00 3.180000000000000000e+02
4.568819015684937312e+00 4.093326620854739417e+00 3.190000000000000000e+02
3.543067437454556323e+00 3.119759109195746394e+00 3.190000000000000000e+02
2.517315859224175334e+00 2.146191597536754259e+00 3.190000000000000000e+02
1.491564280993793901e+00 1.172624085877761679e+00 3.190000000000000000e+02
4.658127027634131334e-01 1.990565742187692666e-01 3.190000000000000000e+02
-5.599388754669680779e-01 -7.745109374402230351e-01 3.190000000000000000e+02
-1.585690453697349511e+00 -1.748078449099215392e+00 3.190000000000000000e+02
-2.611442031927730500e+00 -2.721645960758207750e+00 3.190000000000000000e+02
-3.637193610158111934e+00 -3.695213472417199885e+00 3.190000000000000000e+02
4.568819015684937312e+00 4.093326620854739417e+00 3.200000000000000000e+02
3.543067437454556323e+00 3.119759109195746394e+00 3.200000000000000000e+02
2.517315859224175334e+00 2.146191597536754259e+00 3.200000000000000000e+02
1.491564280993793901e+00 1.172624085877761679e+00 3.200000000000000000e+02
4.658127027634131334e-01 1.990565742187692666e-01 3.200000000000000000e+02
-5.599388754669680779e-01 -7.745109374402230351e-01 3.200000000000000000e+02
-1.585690453697349511e+00 -1.748078449099215392e+00 3.200000000000000000e+02
-2.611442031927730500e+00 -2.721645960758207750e+00 3.200000000000000000e+02
-3.637193610158111934e+00 -3.695213472417199885e+00 3.200000000000000000e+02
-4.662945188388492923e+00 -4.668780984076192020e+00 3.200000000000000000e+02
4.568819015684937312e+00 4.093326620854739417e+00 3.210000000000000000e+02
3.543067437454556323e+00 3.119759109195746394e+00 3.210000000000000000e+02
2.517315859224175334e+00 2.146191597536754259e+00 3.210000000000000000e+02
1.491564280993793901e+00 1.172624085877761679e+00 3.210000000000000000e+02
4.658127027634131334e-01 1.990565742187692666e-01 3.210000000000000000e+02
-5.599388754669680779e-01 -7.745109374402230351e-01 3.210000000000000000e+02
-1.585690453697349511e+00 -1.748078449099215392e+00 3.210000000000000000e+02
-2.611442031927730500e+00 -2.721645960758207750e+00 3.210000000000000000e+02
-3.637193610158111934e+00 -3.695213472417199885e+00 3.210000000000000000e+02
-4.662945188388492923e+00 -4.668780984076192020e+00 3.210000000000000000e+02
4.568819015684937312e+00 4.093326620854739417e+00 3.220000000000000000e+02
3.543067437454556323e+00 3.119759109195746394e+00 3.220000000000000000e+02
2.517315859224175334e+00 2.146191597536754259e+00 3.220000000000000000e+02
1.491564280993793901e+00 1.172624085877761679e+00 3.220000000000000000e+02
4.658127027634131334e-01 1.990565742187692666e-01 3.220000000000000000e+02
-5.599388754669680779e-01 -7.745109374402230351e-01 3.220000000000000000e+02
-1.585690453697349511e+00 -1.748078449099215392e+00 3.220000000000000000e+02
-2.611442031927730500e+00 -2.721645960758207750e+00 3.220000000000000000e+02
-3.637193610158111934e+00 -3.695213472417199885e+00 3.220000000000000000e+02
-4.662945188388492923e+00 -4.668780984076192020e+00 3.220000000000000000e+02
4.568819015684937312e+00 4.093326620854739417e+00 3.230000000000000000e+02
3.543067437454556323e+00 3.119759109195746394e+00 3.230000000000000000e+02
2.517315859224175334e+00 2.146191597536754259e+00 3.230000000000000000e+02
1.491564280993793901e+00 1.172624085877761679e+00 3.230000000000000000e+02
4.658127027634131334e-01 1.990565742187692666e-01 3.230000000000000000e+02
-5.599388754669680779e-01 -7.745109374402230351e-01 3.230000000000000000e+02
-1.585690453697349511e+00 -1.748078449099215392e+00 3.230000000000000000e+02
-2.611442031927730500e+00 -2.721645960758207750e+00 3.230000000000000000e+02
-3.637193610158111934e+00 -3.695213472417199885e+00 3.230000000000000000e+02
-4.662945188388492923e+00 -4.668780984076192020e+00 3.230000000000000000e+02
4.568819015684937312e+00 4.093326620854739417e+00 3.240000000000000000e+02
3.543067437454556323e+00 3.119759109195746394e+00 3.240000000000000000e+02
2.517315859224175334e+00 2.146191597536754259e+00 3.240000000000000000e+02
1.491564280993793901e+00 1.172624085877761679e+00 3.240000000000000000e+02
4.658127027634131334e-01 1.990565742187692666e-01 3.240000000000000000e+02
-5.599388754669680779e-01 -7.745109374402230351e-01 3.240000000000000000e+02
-1.585690453697349511e+00 -1.748078449099215392e+00 3.240000000000000000e+02
-2.611442031927730500e+00 -2.721645960758207750e+00 3.240000000000000000e+02
-3.637193610158111934e+00 -3.695213472417199885e+00 3.240000000000000000e+02
-4.662945188388492923e+00 -4.668780984076192020e+00 3.240000000000000000e+02
3.569159470740250750e+00 4.119418654140433844e+00 3.250000000000000000e+02
2.543407892509869761e+00 3.145851142481440821e+00 3.250000000000000000e+02
1.517656314279488328e+00 2.172283630822448686e+00 3.250000000000000000e+02
4.919047360491075604e-01 1.198716119163456106e+00 3.250000000000000000e+02
-5.338468421812736509e-01 2.251486075044636936e-01 3.250000000000000000e+02
-1.559598420411655084e+00 -7.484189041545286081e-01 3.250000000000000000e+02
-2.585349998642036073e+00 -1.721986415813520965e+00 3.250000000000000000e+02
-3.611101576872417507e+00 -2.695553927472513323e+00 3.250000000000000000e+02
-4.636853155102798496e+00 -3.669121439131505458e+00 3.250000000000000000e+02
3.569159470740250750e+00 4.119418654140433844e+00 3.260000000000000000e+02
2.543407892509869761e+00 3.145851142481440821e+00 3.260000000000000000e+02
1.517656314279488328e+00 2.172283630822448686e+00 3.260000000000000000e+02
4.919047360491075604e-01 1.198716119163456106e+00 3.260000000000000000e+02
-5.338468421812736509e-01 2.251486075044636936e-01 3.260000000000000000e+02
-1.559598420411655084e+00 -7.484189041545286081e-01 3.260000000000000000e+02
-2.585349998642036073e+00 -1.721986415813520965e+00 3.260000000000000000e+02
-3.611101576872417507e+00 -2.695553927472513323e+00 3.260000000000000000e+02
-4.636853155102798496e+00 -3.669121439131505458e+00 3.260000000000000000e+02
4.568819015684937312e+00 4.093326620854739417e+00 3.270000000000000000e+02
3.543067437454556323e+00 3.119759109195746394e+00 3.270000000000000000e+02
2.517315859224175334e+00 2.146191597536754259e+00 3.270000000000000000e+02
1.491564280993793901e+00 1.172624085877761679e+00 3.270000000000000000e+02
4.658127027634131334e-01 1.990565742187692666e-01 3.270000000000000000e+02
-5.599388754669680779e-01 -7.745109374402230351e-01 3.270000000000000000e+02
-1.585690453697349511e+00 -1.748078449099215392e+00 3.270000000000000000e+02
-2.611442031927730500e+00 -2.721645960758207750e+00 3.270000000000000000e+02
-3.637193610158111934e+00 -3.695213472417199885e+00 3.270000000000000000e+02
-4.662945188388492923e+00 -4.668780984076192020e+00 3.270000000000000000e+02
3.569159470740250750e+00 4.119418654140433844e+00 3.280000000000000000e+02
2.543407892509869761e+00 3.145851142481440821e+00 3.280000000000000000e+02
1.517656314279488328e+00 2.172283630822448686e+00 3.280000000000000000e+02
4.919047360491075604e-01 1.198716119163456106e+00 3.280000000000000000e+02
-5.338468421812736509e-01 2.251486075044636936e-01 3.280000000000000000e+02
-1.559598420411655084e+00 -7.484189041545286081e-01 3.280000000000000000e+02
-2.585349998642036073e+00 -1.721986415813520965e+00 3.280000000000000000e+02
-3.611101576872417507e+00 -2.695553927472513323e+00 3.280000000000000000e+02
-4.636853155102798496e+00 -3.669121439131505458e+00 3.280000000000000000e+02
-5.662604733333180818e+00 -4.642688950790497593e+00 3.280000000000000000e+02
3.569159470740250750e+00 4.119418654140433844e+00 3.290000000000000000e+02
2.543407892509869761e+00 3.145851142481440821e+00 3.290000000000000000e+02
1.517656314279488328e+00 2.172283630822448686e+00 3.290000000000000000e+02
4.919047360491075604e-01 1.198716119163456106e+00 3.290000000000000000e+02
-5.338468421812736509e-01 2.251486075044636936e-01 3.290000000000000000e+02
-1.559598420411655084e+00 -7.484189041545286081e-01 3.290000000000000000e+02
-2.585349998642036073e+00 -1.721986415813520965e+00 3.290000000000000000e+02
-3.611101576872417507e+00 -2.695553927472513323e+00 3.290000000000000000e+02
-4.636853155102798496e+00 -3.669121439131505458e+00 3.290000000000000000e+02
-5.662604733333180818e+00 -4.642688950790497593e+00 3.290000000000000000e+02
3.569159470740250750e+00 4.119418654140433844e+00 3.300000000000000000e+02
2.543407892509869761e+00 3.145851142481440821e+00 3.300000000000000000e+02
1.517656314279488328e+00 2.172283630822448686e+00 3.300000000000000000e+02
4.919047360491075604e-01 1.198716119163456106e+00 3.300000000000000000e+02
-5.338468421812736509e-01 2.251486075044636936e-01 3.300000000000000000e+02
-1.559598420411655084e+00 -7.484189041545286081e-01 3.300000000000000000e+02
-2.585349998642036073e+00 -1.721986415813520965e+00 3.300000000000000000e+02
-3.611101576872417507e+00 -2.695553927472513323e+00 3.300000000000000000e+02
-4.636853155102798496e+00 -3.669121439131505458e+00 3.300000000000000000e+02
3.569159470740250750e+00 4.119418654140433844e+00 3.310000000000000000e+02
2.543407892509869761e+00 3.145851142481440821e+00 3.310000000000000000e+02
1.517656314279488328e+00 2.172283630822448686e+00 3.310000000000000000e+02
4.919047360491075604e-01 1.198716119163456106e+00 3.310000000000000000e+02
-5.338468421812736509e-01 2.251486075044636936e-01 3.310000000000000000e+02
-1.559598420411655084e+00 -7.484189041545286081e-01 3.310000000000000000e+02
-2.585349998642036073e+00 -1.721986415813520965e+00 3.310000000000000000e+02
-3.611101576872417507e+00 -2.695553927472513323e+00 3.310000000000000000e+02
-4.636853155102798496e+00 -3.669121439131505458e+00 3.310000000000000000e+02
3.569159470740250750e+00 4.119418654140433844e+00 3.320000000000000000e+02
2.543407892509869761e+00 3.145851142481440821e+00 3.320000000000000000e+02
1.517656314279488328e+00 2.172283630822448686e+00 3.320000000000000000e+02
4.919047360491075604e-01 1.198716119163456106e+00 3.320000000000000000e+02
-5.338468421812736509e-01 2.251486075044636936e-01 3.320000000000000000e+02
-1.559598420411655084e+00 -7.484189041545286081e-01 3.320000000000000000e+02
-2.585349998642036073e+00 -1.721986415813520965e+00 3.320000000000000000e+02
-3.611101576872417507e+00 -2.695553927472513323e+00 3.320000000000000000e+02
-4.636853155102798496e+00 -3.669121439131505458e+00 3.320000000000000000e+02
3.569159470740250750e+00 4.119418654140433844e+00 3.330000000000000000e+02
2.543407892509869761e+00 3.145851142481440821e+00 3.330000000000000000e+02
1.517656314279488328e+00 2.172283630822448686e+00 3.330000000000000000e+02
4.919047360491075604e-01 1.198716119163456106e+00 3.330000000000000000e+02
-5.338468421812736509e-01 2.251486075044636936e-01 3.330000000000000000e+02
-1.559598420411655084e+00 -7.484189041545286081e-01 3.330000000000000000e+02
-2.585349998642036073e+00 -1.721986415813520965e+00 3.330000000000000000e+02
-3.611101576872417507e+00 -2.695553927472513323e+00 3.330000000000000000e+02
-4.636853155102798496e+00 -3.669121439131505458e+00 3.330000000000000000e+02
4.568819015684937312e+00 4.093326620854739417e+00 3.340000000000000000e+02
3.543067437454556323e+00 3.119759109195746394e+00 3.340000000000000000e+02
2.517315859224175334e+00 2.146191597536754259e+00 3.340000000000000000e+02
1.491564280993793901e+00 1.172624085877761679e+00 3.340000000000000000e+02
4.658127027634131334e-01 1.990565742187692666e-01 3.340000000000000000e+02
-5.599388754669680779e-01 -7.745109374402230351e-01 3.340000000000000000e+02
-1.585690453697349511e+00 -1.748078449099215392e+00 3.340000000000000000e+02
-2.611442031927730500e+00 -2.721645960758207750e+00 3.340000000000000000e+02
-3.637193610158111934e+00 -3.695213472417199885e+00 3.340000000000000000e+02
-4.662945188388492923e+00 -4.668780984076192020e+00 3.340000000000000000e+02
-5.688696766618875245e+00 -5.642348495735184599e+00 3.340000000000000000e+02
4.568819015684937312e+00 4.093326620854739417e+00 3.350000000000000000e+02
3.543067437454556323e+00 3.119759109195746394e+00 3.350000000000000000e+02
2.517315859224175334e+00 2.146191597536754259e+00 3.350000000000000000e+02
1.491564280993793901e+00 1.172624085877761679e+00 3.350000000000000000e+02
4.658127027634131334e-01 1.990565742187692666e-01 3.350000000000000000e+02
-5.599388754669680779e-01 -7.745109374402230351e-01 3.350000000000000000e+02
-1.585690453697349511e+00 -1.748078449099215392e+00 3.350000000000000000e+02
-2.611442031927730500e+00 -2.721645960758207750e+00 3.350000000000000000e+02
-3.637193610158111934e+00 -3.695213472417199885e+00 3.350000000000000000e+02
-4.662945188388492923e+00 -4.668780984076192020e+00 3.350000000000000000e+02
-5.688696766618875245e+00 -5.642348495735184599e+00 3.350000000000000000e+02
3.569159470740250750e+00 4.119418654140433844e+00 3.360000000000000000e+02
2.543407892509869761e+00 3.145851142481440821e+00 3.360000000000000000e+02
1.517656314279488328e+00 2.172283630822448686e+00 3.360000000000000000e+02
4.919047360491075604e-01 1.198716119163456106e+00 3.360000000000000000e+02
-5.338468421812736509e-01 2.251486075044636936e-01 3.360000000000000000e+02
-1.559598420411655084e+00 -7.484189041545286081e-01 3.360000000000000000e+02
-2.585349998642036073e+00 -1.721986415813520965e+00 3.360000000000000000e+02
-3.611101576872417507e+00 -2.695553927472513323e+00 3.360000000000000000e+02
-4.636853155102798496e+00 -3.669121439131505458e+00 3.360000000000000000e+02
-5.662604733333180818e+00 -4.642688950790497593e+00 3.360000000000000000e+02
3.569159470740250750e+00 4.119418654140433844e+00 3.370000000000000000e+02
2.543407892509869761e+00 3.145851142481440821e+00 3.370000000000000000e+02
1.517656314279488328e+00 2.172283630822448686e+00 3.370000000000000000e+02
4.919047360491075604e-01 1.198716119163456106e+00 3.370000000000000000e+02
-5.338468421812736509e-01 2.251486075044636936e-01 3.370000000000000000e+02
-1.559598420411655084e+00 -7.484189041545286081e-01 3.370000000000000000e+02
-2.585349998642036073e+00 -1.721986415813520965e+00 3.370000000000000000e+02
-3.611101576872417507e+00 -2.695553927472513323e+00 3.370000000000000000e+02
-4.636853155102798496e+00 -3.669121439131505458e+00 3.370000000000000000e+02
-5.662604733333180818e+00 -4.642688950790497593e+00 3.370000000000000000e+02
3.569159470740250750e+00 4.119418654140433844e+00 3.380000000000000000e+02
2.543407892509869761e+00 3.145851142481440821e+00 3.380000000000000000e+02
1.517656314279488328e+00 2.172283630822448686e+00 3.380000000000000000e+02
4.919047360491075604e-01 1.198716119163456106e+00 3.380000000000000000e+02
-5.338468421812736509e-01 2.251486075044636936e-01 3.380000000000000000e+02
-1.559598420411655084e+00 -7.484189041545286081e-01 3.380000000000000000e+02
-2.585349998642036073e+00 -1.721986415813520965e+00 3.380000000000000000e+02
-3.611101576872417507e+00 -2.695553927472513323e+00 3.380000000000000000e+02
-4.636853155102798496e+00 -3.669121439131505458e+00 3.380000000000000000e+02
-5.662604733333180818e+00 -4.642688950790497593e+00 3.380000000000000000e+02
3.569159470740250750e+00 4.119418654140433844e+00 3.390000000000000000e+02
2.543407892509869761e+00 3.145851142481440821e+00 3.390000000000000000e+02
1.517656314279488328e+00 2.172283630822448686e+00 3.390000000000000000e+02
4.919047360491075604e-01 1.198716119163456106e+00 3.390000000000000000e+02
-5.338468421812736509e-01 2.251486075044636936e-01 3.390000000000000000e+02
-1.559598420411655084e+00 -7.484189041545286081e-01 3.390000000000000000e+02
-2.585349998642036073e+00 -1.721986415813520965e+00 3.390000000000000000e+02
-3.611101576872417507e+00 -2.695553927472513323e+00 3.390000000000000000e+02
-4.636853155102798496e+00 -3.669121439131505458e+00 3.390000000000000000e+02
2.569499925795564632e+00 4.145510687426128271e+00 3.400000000000000000e+02
1.543748347565182755e+00 3.171943175767135248e+00 3.400000000000000000e+02
5.179967693348019875e-01 2.198375664108143113e+00 3.400000000000000000e+02
-5.077548088955792238e-01 1.224808152449150533e+00 3.400000000000000000e+02
-1.533506387125960435e+00 2.512406407901581762e-01 3.400000000000000000e+02
-2.559257965356341646e+00 -7.223268708688341810e-01 3.400000000000000000e+02
-3.585009543586723080e+00 -1.695894382527826538e+00 3.400000000000000000e+02
-4.610761121817104069e+00 -2.669461894186818895e+00 3.400000000000000000e+02
-5.636512700047486391e+00 -3.643029405845811031e+00 3.400000000000000000e+02
3.569159470740250750e+00 4.119418654140433844e+00 3.410000000000000000e+02
2.543407892509869761e+00 3.145851142481440821e+00 3.410000000000000000e+02
1.517656314279488328e+00 2.172283630822448686e+00 3.410000000000000000e+02
4.919047360491075604e-01 1.198716119163456106e+00 3.410000000000000000e+02
-5.338468421812736509e-01 2.251486075044636936e-01 3.410000000000000000e+02
-1.559598420411655084e+00 -7.484189041545286081e-01 3.410000000000000000e+02
-2.585349998642036073e+00 -1.721986415813520965e+00 3.410000000000000000e+02
-3.611101576872417507e+00 -2.695553927472513323e+00 3.410000000000000000e+02
-4.636853155102798496e+00 -3.669121439131505458e+00 3.410000000000000000e+02
-5.662604733333180818e+00 -4.642688950790497593e+00 3.410000000000000000e+02
2.569499925795564632e+00 4.145510687426128271e+00 3.420000000000000000e+02
1.543748347565182755e+00 3.171943175767135248e+00 3.420000000000000000e+02
5.179967693348019875e-01 2.198375664108143113e+00 3.420000000000000000e+02
-5.077548088955792238e-01 1.224808152449150533e+00 3.420000000000000000e+02
-1.533506387125960435e+00 2.512406407901581762e-01 3.420000000000000000e+02
-2.559257965356341646e+00 -7.223268708688341810e-01 3.420000000000000000e+02
-3.585009543586723080e+00 -1.695894382527826538e+00 3.420000000000000000e+02
-4.610761121817104069e+00 -2.669461894186818895e+00 3.420000000000000000e+02
-5.636512700047486391e+00 -3.643029405845811031e+00 3.420000000000000000e+02
3.569159470740250750e+00 4.119418654140433844e+00 3.430000000000000000e+02
2.543407892509869761e+00 3.145851142481440821e+00 3.430000000000000000e+02
1.517656314279488328e+00 2.172283630822448686e+00 3.430000000000000000e+02
4.919047360491075604e-01 1.198716119163456106e+00 3.430000000000000000e+02
-5.338468421812736509e-01 2.251486075044636936e-01 3.430000000000000000e+02
-1.559598420411655084e+00 -7.484189041545286081e-01 3.430000000000000000e+02
-2.585349998642036073e+00 -1.721986415813520965e+00 3.430000000000000000e+02
-3.611101576872417507e+00 -2.695553927472513323e+00 3.430000000000000000e+02
-4.636853155102798496e+00 -3.669121439131505458e+00 3.430000000000000000e+02
-5.662604733333180818e+00 -4.642688950790497593e+00 3.430000000000000000e+02
3.569159470740250750e+00 4.119418654140433844e+00 3.440000000000000000e+02
2.543407892509869761e+00 3.145851142481440821e+00 3.440000000000000000e+02
1.517656314279488328e+00 2.172283630822448686e+00 3.440000000000000000e+02
4.919047360491075604e-01 1.198716119163456106e+00 3.440000000000000000e+02
-5.338468421812736509e-01 2.251486075044636936e-01 3.440000000000000000e+02
-1.559598420411655084e+00 -7.484189041545286081e-01 3.440000000000000000e+02
-2.585349998642036073e+00 -1.721986415813520965e+00 3.440000000000000000e+02
-3.611101576872417507e+00 -2.695553927472513323e+00 3.440000000000000000e+02
-4.636853155102798496e+00 -3.669121439131505458e+00 3.440000000000000000e+02
3.569159470740250750e+00 4.119418654140433844e+00 3.450000000000000000e+02
2.543407892509869761e+00 3.145851142481440821e+00 3.450000000000000000e+02
1.517656314279488328e+00 2.172283630822448686e+00 3.450000000000000000e+02
4.919047360491075604e-01 1.198716119163456106e+00 3.450000000000000000e+02
-5.338468421812736509e-01 2.251486075044636936e-01 3.450000000000000000e+02
-1.559598420411655084e+00 -7.484189041545286081e-01 3.450000000000000000e+02
-2.585349998642036073e+00 -1.721986415813520965e+00 3.450000000000000000e+02
-3.611101576872417507e+00 -2.695553927472513323e+00 3.450000000000000000e+02
-4.636853155102798496e+00 -3.669121439131505458e+00 3.450000000000000000e+02
2.569499925795564632e+00 4.145510687426128271e+00 3.460000000000000000e+02
1.543748347565182755e+00 3.171943175767135248e+00 3.460000000000000000e+02
5.179967693348019875e-01 2.198375664108143113e+00 3.460000000000000000e+02
-5.077548088955792238e-01 1.224808152449150533e+00 3.460000000000000000e+02
-1.533506387125960435e+00 2.512406407901581762e-01 3.460000000000000000e+02
-2.559257965356341646e+00 -7.223268708688341810e-01 3.460000000000000000e+02
-3.585009543586723080e+00 -1.695894382527826538e+00 3.460000000000000000e+02
-4.610761121817104069e+00 -2.669461894186818895e+00 3.460000000000000000e+02
-5.636512700047486391e+00 -3.643029405845811031e+00 3.460000000000000000e+02
3.569159470740250750e+00 4.119418654140433844e+00 3.470000000000000000e+02
2.543407892509869761e+00 3.145851142481440821e+00 3.470000000000000000e+02
1.517656314279488328e+00 2.172283630822448686e+00 3.470000000000000000e+02
4.919047360491075604e-01 1.198716119163456106e+00 3.470000000000000000e+02
-5.338468421812736509e-01 2.251486075044636936e-01 3.470000000000000000e+02
-1.559598420411655084e+00 -7.484189041545286081e-01 3.470000000000000000e+02
-2.585349998642036073e+00 -1.721986415813520965e+00 3.470000000000000000e+02
-3.611101576872417507e+00 -2.695553927472513323e+00 3.470000000000000000e+02
-4.636853155102798496e+00 -3.669121439131505458e+00 3.470000000000000000e+02
-5.662604733333180818e+00 -4.642688950790497593e+00 3.470000000000000000e+02
3.569159470740250750e+00 4.119418654140433844e+00 3.480000000000000000e+02
2.543407892509869761e+00 3.145851142481440821e+00 3.480000000000000000e+02
1.517656314279488328e+00 2.172283630822448686e+00 3.480000000000000000e+02
4.919047360491075604e-01 1.198716119163456106e+00 3.480000000000000000e+02
-5.338468421812736509e-01 2.251486075044636936e-01 3.480000000000000000e+02
-1.559598420411655084e+00 -7.484189041545286081e-01 3.480000000000000000e+02
-2.585349998642036073e+00 -1.721986415813520965e+00 3.480000000000000000e+02
-3.611101576872417507e+00 -2.695553927472513323e+00 3.480000000000000000e+02
-4.636853155102798496e+00 -3.669121439131505458e+00 3.480000000000000000e+02
-5.662604733333180818e+00 -4.642688950790497593e+00 3.480000000000000000e+02
3.569159470740250750e+00 4.119418654140433844e+00 3.490000000000000000e+02
2.543407892509869761e+00 3.145851142481440821e+00 3.490000000000000000e+02
1.517656314279488328e+00 2.172283630822448686e+00 3.490000000000000000e+02
4.919047360491075604e-01 1.198716119163456106e+00 3.490000000000000000e+02
-5.338468421812736509e-01 2.251486075044636936e-01 3.490000000000000000e+02
-1.559598420411655084e+00 -7.484189041545286081e-01 3.490000000000000000e+02
-2.585349998642036073e+00 -1.721986415813520965e+00 3.490000000000000000e+02
-3.611101576872417507e+00 -2.695553927472513323e+00 3.490000000000000000e+02
-4.636853155102798496e+00 -3.669121439131505458e+00 3.490000000000000000e+02
-5.662604733333180818e+00 -4.642688950790497593e+00 3.490000000000000000e+02
2.569499925795564632e+00 4.145510687426128271e+00 3.500000000000000000e+02
1.543748347565182755e+00 3.171943175767135248e+00 3.500000000000000000e+02
5.179967693348019875e-01 2.198375664108143113e+00 3.500000000000000000e+02
-5.077548088955792238e-01 1.224808152449150533e+00 3.500000000000000000e+02
-1.533506387125960435e+00 2.512406407901581762e-01 3.500000000000000000e+02
-2.559257965356341646e+00 -7.223268708688341810e-01 3.500000000000000000e+02
-3.585009543586723080e+00 -1.695894382527826538e+00 3.500000000000000000e+02
-4.610761121817104069e+00 -2.669461894186818895e+00 3.500000000000000000e+02
2.569499925795564632e+00 4.145510687426128271e+00 3.510000000000000000e+02
1.543748347565182755e+00 3.171943175767135248e+00 3.510000000000000000e+02
5.179967693348019875e-01 2.198375664108143113e+00 3.510000000000000000e+02
-5.077548088955792238e-01 1.224808152449150533e+00 3.510000000000000000e+02
-1.533506387125960435e+00 2.512406407901581762e-01 3.510000000000000000e+02
-2.559257965356341646e+00 -7.223268708688341810e-01 3.510000000000000000e+02
-3.585009543586723080e+00 -1.695894382527826538e+00 3.510000000000000000e+02
-4.610761121817104069e+00 -2.669461894186818895e+00 3.510000000000000000e+02
2.569499925795564632e+00 4.145510687426128271e+00 3.520000000000000000e+02
1.543748347565182755e+00 3.171943175767135248e+00 3.520000000000000000e+02
5.179967693348019875e-01 2.198375664108143113e+00 3.520000000000000000e+02
-5.077548088955792238e-01 1.224808152449150533e+00 3.520000000000000000e+02
-1.533506387125960435e+00 2.512406407901581762e-01 3.520000000000000000e+02
-2.559257965356341646e+00 -7.223268708688341810e-01 3.520000000000000000e+02
-3.585009543586723080e+00 -1.695894382527826538e+00 3.520000000000000000e+02
-4.610761121817104069e+00 -2.669461894186818895e+00 3.520000000000000000e+02
-5.636512700047486391e+00 -3.643029405845811031e+00 3.520000000000000000e+02
3.569159470740250750e+00 4.119418654140433844e+00 3.530000000000000000e+02
2.543407892509869761e+00 3.145851142481440821e+00 3.530000000000000000e+02
1.517656314279488328e+00 2.172283630822448686e+00 3.530000000000000000e+02
4.919047360491075604e-01 1.198716119163456106e+00 3.530000000000000000e+02
-5.338468421812736509e-01 2.251486075044636936e-01 3.530000000000000000e+02
-1.559598420411655084e+00 -7.484189041545286081e-01 3.530000000000000000e+02
-2.585349998642036073e+00 -1.721986415813520965e+00 3.530000000000000000e+02
-3.611101576872417507e+00 -2.695553927472513323e+00 3.530000000000000000e+02
-4.636853155102798496e+00 -3.669121439131505458e+00 3.530000000000000000e+02
-5.662604733333180818e+00 -4.642688950790497593e+00 3.530000000000000000e+02
3.569159470740250750e+00 4.119418654140433844e+00 3.540000000000000000e+02
2.543407892509869761e+00 3.145851142481440821e+00 3.540000000000000000e+02
1.517656314279488328e+00 2.172283630822448686e+00 3.540000000000000000e+02
4.919047360491075604e-01 1.198716119163456106e+00 3.540000000000000000e+02
-5.338468421812736509e-01 2.251486075044636936e-01 3.540000000000000000e+02
-1.559598420411655084e+00 -7.484189041545286081e-01 3.540000000000000000e+02
-2.585349998642036073e+00 -1.721986415813520965e+00 3.540000000000000000e+02
-3.611101576872417507e+00 -2.695553927472513323e+00 3.540000000000000000e+02
-4.636853155102798496e+00 -3.669121439131505458e+00 3.540000000000000000e+02
-5.662604733333180818e+00 -4.642688950790497593e+00 3.540000000000000000e+02
3.569159470740250750e+00 4.119418654140433844e+00 3.550000000000000000e+02
2.543407892509869761e+00 3.145851142481440821e+00 3.550000000000000000e+02
1.517656314279488328e+00 2.172283630822448686e+00 3.550000000000000000e+02
4.919047360491075604e-01 1.198716119163456106e+00 3.550000000000000000e+02
-5.338468421812736509e-01 2.251486075044636936e-01 3.550000000000000000e+02
-1.559598420411655084e+00 -7.484189041545286081e-01 3.550000000000000000e+02
-2.585349998642036073e+00 -1.721986415813520965e+00 3.550000000000000000e+02
-3.611101576872417507e+00 -2.695553927472513323e+00 3.550000000000000000e+02
-4.636853155102798496e+00 -3.669121439131505458e+00 3.550000000000000000e+02
-5.662604733333180818e+00 -4.642688950790497593e+00 3.550000000000000000e+02
3.569159470740250750e+00 4.119418654140433844e+00 3.560000000000000000e+02
2.543407892509869761e+00 3.145851142481440821e+00 3.560000000000000000e+02
1.517656314279488328e+00 2.172283630822448686e+00 3.560000000000000000e+02
4.919047360491075604e-01 1.198716119163456106e+00 3.560000000000000000e+02
-5.338468421812736509e-01 2.251486075044636936e-01 3.560000000000000000e+02
-1.559598420411655084e+00 -7.484189041545286081e-01 3.560000000000000000e+02
-2.585349998642036073e+00 -1.721986415813520965e+00 3.560000000000000000e+02
-3.611101576872417507e+00 -2.695553927472513323e+00 3.560000000000000000e+02
-4.636853155102798496e+00 -3.669121439131505458e+00 3.560000000000000000e+02
-5.662604733333180818e+00 -4.642688950790497593e+00 3.560000000000000000e+02
3.569159470740250750e+00 4.119418654140433844e+00 3.570000000000000000e+02
2.543407892509869761e+00 3.145851142481440821e+00 3.570000000000000000e+02
1.517656314279488328e+00 2.172283630822448686e+00 3.570000000000000000e+02
4.919047360491075604e-01 1.198716119163456106e+00 3.570000000000000000e+02
-5.338468421812736509e-01 2.251486075044636936e-01 3.570000000000000000e+02
-1.559598420411655084e+00 -7.484189041545286081e-01 3.570000000000000000e+02
-2.585349998642036073e+00 -1.721986415813520965e+00 3.570000000000000000e+02
-3.611101576872417507e+00 -2.695553927472513323e+00 3.570000000000000000e+02
-4.636853155102798496e+00 -3.669121439131505458e+00 3.570000000000000000e+02
-5.662604733333180818e+00 -4.642688950790497593e+00 3.570000000000000000e+02
3.569159470740250750e+00 4.119418654140433844e+00 3.580000000000000000e+02
2.543407892509869761e+00 3.145851142481440821e+00 3.580000000000000000e+02
1.517656314279488328e+00 2.172283630822448686e+00 3.580000000000000000e+02
4.919047360491075604e-01 1.198716119163456106e+00 3.580000000000000000e+02
-5.338468421812736509e-01 2.251486075044636936e-01 3.580000000000000000e+02
-1.559598420411655084e+00 -7.484189041545286081e-01 3.580000000000000000e+02
-2.585349998642036073e+00 -1.721986415813520965e+00 3.580000000000000000e+02
-3.611101576872417507e+00 -2.695553927472513323e+00 3.580000000000000000e+02
-4.636853155102798496e+00 -3.669121439131505458e+00 3.580000000000000000e+02
-5.662604733333180818e+00 -4.642688950790497593e+00 3.580000000000000000e+02
3.569159470740250750e+00 4.119418654140433844e+00 3.590000000000000000e+02
2.543407892509869761e+00 3.145851142481440821e+00 3.590000000000000000e+02
1.517656314279488328e+00 2.172283630822448686e+00 3.590000000000000000e+02
4.919047360491075604e-01 1.198716119163456106e+00 3.590000000000000000e+02
-5.338468421812736509e-01 2.251486075044636936e-01 3.590000000000000000e+02
-1.559598420411655084e+00 -7.484189041545286081e-01 3.590000000000000000e+02
-2.585349998642036073e+00 -1.721986415813520965e+00 3.590000000000000000e+02
-3.611101576872417507e+00 -2.695553927472513323e+00 3.590000000000000000e+02
-4.636853155102798496e+00 -3.669121439131505458e+00 3.590000000000000000e+02
-5.662604733333180818e+00 -4.642688950790497593e+00 3.590000000000000000e+02
-6.688356311563561363e+00 -5.616256462449490172e+00 3.590000000000000000e+02
3.569159470740250750e+00 4.119418654140433844e+00 3.600000000000000000e+02
2.543407892509869761e+00 3.145851142481440821e+00 3.600000000000000000e+02
1.517656314279488328e+00 2.172283630822448686e+00 3.600000000000000000e+02
4.919047360491075604e-01 1.198716119163456106e+00 3.600000000000000000e+02
-5.338468421812736509e-01 2.251486075044636936e-01 3.600000000000000000e+02
-1.559598420411655084e+00 -7.484189041545286081e-01 3.600000000000000000e+02
-2.585349998642036073e+00 -1.721986415813520965e+00 3.600000000000000000e+02
-3.611101576872417507e+00 -2.695553927472513323e+00 3.600000000000000000e+02
-4.636853155102798496e+00 -3.669121439131505458e+00 3.600000000000000000e+02
-5.662604733333180818e+00 -4.642688950790497593e+00 3.600000000000000000e+02
-6.688356311563561363e+00 -5.616256462449490172e+00 3.600000000000000000e+02
3.569159470740250750e+00 4.119418654140433844e+00 3.610000000000000000e+02
2.543407892509869761e+00 3.145851142481440821e+00 3.610000000000000000e+02
1.517656314279488328e+00 2.172283630822448686e+00 3.610000000000000000e+02
4.919047360491075604e-01 1.198716119163456106e+00 3.610000000000000000e+02
-5.338468421812736509e-01 2.251486075044636936e-01 3.610000000000000000e+02
-1.559598420411655084e+00 -7.484189041545286081e-01 3.610000000000000000e+02
-2.585349998642036073e+00 -1.721986415813520965e+00 3.610000000000000000e+02
-3.611101576872417507e+00 -2.695553927472513323e+00 3.610000000000000000e+02
-4.636853155102798496e+00 -3.669121439131505458e+00 3.610000000000000000e+02
-5.662604733333180818e+00 -4.642688950790497593e+00 3.610000000000000000e+02
3.569159470740250750e+00 4.119418654140433844e+00 3.620000000000000000e+02
2.543407892509869761e+00 3.145851142481440821e+00 3.620000000000000000e+02
1.517656314279488328e+00 2.172283630822448686e+00 3.620000000000000000e+02
4.919047360491075604e-01 1.198716119163456106e+00 3.620000000000000000e+02
-5.338468421812736509e-01 2.251486075044636936e-01 3.620000000000000000e+02
-1.559598420411655084e+00 -7.484189041545286081e-01 3.620000000000000000e+02
-2.585349998642036073e+00 -1.721986415813520965e+00 3.620000000000000000e+02
-3.611101576872417507e+00 -2.695553927472513323e+00 3.620000000000000000e+02
-4.636853155102798496e+00 -3.669121439131505458e+00 3.620000000000000000e+02
-5.662604733333180818e+00 -4.642688950790497593e+00 3.620000000000000000e+02
3.569159470740250750e+00 4.119418654140433844e+00 3.630000000000000000e+02
2.543407892509869761e+00 3.145851142481440821e+00 3.630000000000000000e+02
1.517656314279488328e+00 2.172283630822448686e+00 3.630000000000000000e+02
4.919047360491075604e-01 1.198716119163456106e+00 3.630000000000000000e+02
-5.338468421812736509e-01 2.251486075044636936e-01 3.630000000000000000e+02
-1.559598420411655084e+00 -7.484189041545286081e-01 3.630000000000000000e+02
-2.585349998642036073e+00 -1.721986415813520965e+00 3.630000000000000000e+02
-3.611101576872417507e+00 -2.695553927472513323e+00 3.630000000000000000e+02
-4.636853155102798496e+00 -3.669121439131505458e+00 3.630000000000000000e+02
-5.662604733333180818e+00 -4.642688950790497593e+00 3.630000000000000000e+02
3.569159470740250750e+00 4.119418654140433844e+00 3.640000000000000000e+02
2.543407892509869761e+00 3.145851142481440821e+00 3.640000000000000000e+02
1.517656314279488328e+00 2.172283630822448686e+00 3.640000000000000000e+02
4.919047360491075604e-01 1.198716119163456106e+00 3.640000000000000000e+02
-5.338468421812736509e-01 2.251486075044636936e-01 3.640000000000000000e+02
-1.559598420411655084e+00 -7.484189041545286081e-01 3.640000000000000000e+02
-2.585349998642036073e+00 -1.721986415813520965e+00 3.640000000000000000e+02
-3.611101576872417507e+00 -2.695553927472513323e+00 3.640000000000000000e+02
-4.636853155102798496e+00 -3.669121439131505458e+00 3.640000000000000000e+02
-5.662604733333180818e+00 -4.642688950790497593e+00 3.640000000000000000e+02
3.569159470740250750e+00 4.119418654140433844e+00 3.650000000000000000e+02
2.543407892509869761e+00 3.145851142481440821e+00 3.650000000000000000e+02
1.517656314279488328e+00 2.172283630822448686e+00 3.650000000000000000e+02
4.919047360491075604e-01 1.198716119163456106e+00 3.650000000000000000e+02
-5.338468421812736509e-01 2.251486075044636936e-01 3.650000000000000000e+02
-1.559598420411655084e+00 -7.484189041545286081e-01 3.650000000000000000e+02
-2.585349998642036073e+00 -1.721986415813520965e+00 3.650000000000000000e+02
-3.611101576872417507e+00 -2.695553927472513323e+00 3.650000000000000000e+02
-4.636853155102798496e+00 -3.669121439131505458e+00 3.650000000000000000e+02
-5.662604733333180818e+00 -4.642688950790497593e+00 3.650000000000000000e+02
3.569159470740250750e+00 4.119418654140433844e+00 3.660000000000000000e+02
2.543407892509869761e+00 3.145851142481440821e+00 3.660000000000000000e+02
1.517656314279488328e+00 2.172283630822448686e+00 3.660000000000000000e+02
4.919047360491075604e-01 1.198716119163456106e+00 3.660000000000000000e+02
-5.338468421812736509e-01 2.251486075044636936e-01 3.660000000000000000e+02
-1.559598420411655084e+00 -7.484189041545286081e-01 3.660000000000000000e+02
-2.585349998642036073e+00 -1.721986415813520965e+00 3.660000000000000000e+02
-3.611101576872417507e+00 -2.695553927472513323e+00 3.660000000000000000e+02
-4.636853155102798496e+00 -3.669121439131505458e+00 3.660000000000000000e+02
-5.662604733333180818e+00 -4.642688950790497593e+00 3.660000000000000000e+02
3.569159470740250750e+00 4.119418654140433844e+00 3.670000000000000000e+02
2.543407892509869761e+00 3.145851142481440821e+00 3.670000000000000000e+02
1.517656314279488328e+00 2.172283630822448686e+00 3.670000000000000000e+02
4.919047360491075604e-01 1.198716119163456106e+00 3.670000000000000000e+02
