4.754985067129972265e+00 -6.176740000573477829e+00 3.320000000000000000e+02
5.493358272199563963e+00 -7.382892980106031899e+00 3.320000000000000000e+02
6.231731477269155661e+00 -8.589045959638585970e+00 3.320000000000000000e+02
6.970104682338747359e+00 -9.795198939171140040e+00 3.320000000000000000e+02
1.297008929013496736e+00 8.262879893903667394e-01 3.330000000000000000e+02
2.035382134083087990e+00 -3.798649901421864428e-01 3.330000000000000000e+02
2.773755339152679689e+00 -1.586017969674741401e+00 3.330000000000000000e+02
3.512128544222270943e+00 -2.792170949207295916e+00 3.330000000000000000e+02
4.250501749291862197e+00 -3.998323928739850430e+00 3.330000000000000000e+02
4.988874954361453895e+00 -5.204476908272404501e+00 3.330000000000000000e+02
5.727248159431045593e+00 -6.410629887804959459e+00 3.330000000000000000e+02
6.465621364500637291e+00 -7.616782867337514418e+00 3.330000000000000000e+02
7.203994569570228990e+00 -8.822935846870068488e+00 3.330000000000000000e+02
1.297008929013496736e+00 8.262879893903667394e-01 3.340000000000000000e+02
2.035382134083087990e+00 -3.798649901421864428e-01 3.340000000000000000e+02
2.773755339152679689e+00 -1.586017969674741401e+00 3.340000000000000000e+02
3.512128544222270943e+00 -2.792170949207295916e+00 3.340000000000000000e+02
4.250501749291862197e+00 -3.998323928739850430e+00 3.340000000000000000e+02
4.988874954361453895e+00 -5.204476908272404501e+00 3.340000000000000000e+02
5.727248159431045593e+00 -6.410629887804959459e+00 3.340000000000000000e+02
6.465621364500637291e+00 -7.616782867337514418e+00 3.340000000000000000e+02
7.203994569570228990e+00 -8.822935846870068488e+00 3.340000000000000000e+02
1.297008929013496736e+00 8.262879893903667394e-01 3.350000000000000000e+02
2.035382134083087990e+00 -3.798649901421864428e-01 3.350000000000000000e+02
2.773755339152679689e+00 -1.586017969674741401e+00 3.350000000000000000e+02
3.512128544222270943e+00 -2.792170949207295916e+00 3.350000000000000000e+02
4.250501749291862197e+00 -3.998323928739850430e+00 3.350000000000000000e+02
4.988874954361453895e+00 -5.204476908272404501e+00 3.350000000000000000e+02
5.727248159431045593e+00 -6.410629887804959459e+00 3.350000000000000000e+02
6.465621364500637291e+00 -7.616782867337514418e+00 3.350000000000000000e+02
7.203994569570228990e+00 -8.822935846870068488e+00 3.350000000000000000e+02
7.942367774639820688e+00 -1.002908882640262256e+01 3.350000000000000000e+02
1.297008929013496736e+00 8.262879893903667394e-01 3.360000000000000000e+02
2.035382134083087990e+00 -3.798649901421864428e-01 3.360000000000000000e+02
2.773755339152679689e+00 -1.586017969674741401e+00 3.360000000000000000e+02
3.512128544222270943e+00 -2.792170949207295916e+00 3.360000000000000000e+02
4.250501749291862197e+00 -3.998323928739850430e+00 3.360000000000000000e+02
4.988874954361453895e+00 -5.204476908272404501e+00 3.360000000000000000e+02
5.727248159431045593e+00 -6.410629887804959459e+00 3.360000000000000000e+02
6.465621364500637291e+00 -7.616782867337514418e+00 3.360000000000000000e+02
7.203994569570228990e+00 -8.822935846870068488e+00 3.360000000000000000e+02
1.297008929013496736e+00 8.262879893903667394e-01 3.370000000000000000e+02
2.035382134083087990e+00 -3.798649901421864428e-01 3.370000000000000000e+02
2.773755339152679689e+00 -1.586017969674741401e+00 3.370000000000000000e+02
3.512128544222270943e+00 -2.792170949207295916e+00 3.370000000000000000e+02
4.250501749291862197e+00 -3.998323928739850430e+00 3.370000000000000000e+02
4.988874954361453895e+00 -5.204476908272404501e+00 3.370000000000000000e+02
5.727248159431045593e+00 -6.410629887804959459e+00 3.370000000000000000e+02
6.465621364500637291e+00 -7.616782867337514418e+00 3.370000000000000000e+02
7.203994569570228990e+00 -8.822935846870068488e+00 3.370000000000000000e+02
1.297008929013496736e+00 8.262879893903667394e-01 3.380000000000000000e+02
2.035382134083087990e+00 -3.798649901421864428e-01 3.380000000000000000e+02
2.773755339152679689e+00 -1.586017969674741401e+00 3.380000000000000000e+02
3.512128544222270943e+00 -2.792170949207295916e+00 3.380000000000000000e+02
4.250501749291862197e+00 -3.998323928739850430e+00 3.380000000000000000e+02
4.988874954361453895e+00 -5.204476908272404501e+00 3.380000000000000000e+02
5.727248159431045593e+00 -6.410629887804959459e+00 3.380000000000000000e+02
6.465621364500637291e+00 -7.616782867337514418e+00 3.380000000000000000e+02
7.203994569570228990e+00 -8.822935846870068488e+00 3.380000000000000000e+02
7.942367774639820688e+00 -1.002908882640262256e+01 3.380000000000000000e+02
1.297008929013496736e+00 8.262879893903667394e-01 3.390000000000000000e+02
2.035382134083087990e+00 -3.798649901421864428e-01 3.390000000000000000e+02
2.773755339152679689e+00 -1.586017969674741401e+00 3.390000000000000000e+02
3.512128544222270943e+00 -2.792170949207295916e+00 3.390000000000000000e+02
4.250501749291862197e+00 -3.998323928739850430e+00 3.390000000000000000e+02
4.988874954361453895e+00 -5.204476908272404501e+00 3.390000000000000000e+02
5.727248159431045593e+00 -6.410629887804959459e+00 3.390000000000000000e+02
6.465621364500637291e+00 -7.616782867337514418e+00 3.390000000000000000e+02
7.203994569570228990e+00 -8.822935846870068488e+00 3.390000000000000000e+02
7.942367774639820688e+00 -1.002908882640262256e+01 3.390000000000000000e+02
1.297008929013496736e+00 8.262879893903667394e-01 3.400000000000000000e+02
2.035382134083087990e+00 -3.798649901421864428e-01 3.400000000000000000e+02
2.773755339152679689e+00 -1.586017969674741401e+00 3.400000000000000000e+02
3.512128544222270943e+00 -2.792170949207295916e+00 3.400000000000000000e+02
4.250501749291862197e+00 -3.998323928739850430e+00 3.400000000000000000e+02
4.988874954361453895e+00 -5.204476908272404501e+00 3.400000000000000000e+02
5.727248159431045593e+00 -6.410629887804959459e+00 3.400000000000000000e+02
6.465621364500637291e+00 -7.616782867337514418e+00 3.400000000000000000e+02
7.203994569570228990e+00 -8.822935846870068488e+00 3.400000000000000000e+02
7.942367774639820688e+00 -1.002908882640262256e+01 3.400000000000000000e+02
1.297008929013496736e+00 8.262879893903667394e-01 3.410000000000000000e+02
2.035382134083087990e+00 -3.798649901421864428e-01 3.410000000000000000e+02
2.773755339152679689e+00 -1.586017969674741401e+00 3.410000000000000000e+02
3.512128544222270943e+00 -2.792170949207295916e+00 3.410000000000000000e+02
4.250501749291862197e+00 -3.998323928739850430e+00 3.410000000000000000e+02
4.988874954361453895e+00 -5.204476908272404501e+00 3.410000000000000000e+02
5.727248159431045593e+00 -6.410629887804959459e+00 3.410000000000000000e+02
6.465621364500637291e+00 -7.616782867337514418e+00 3.410000000000000000e+02
7.203994569570228990e+00 -8.822935846870068488e+00 3.410000000000000000e+02
7.942367774639820688e+00 -1.002908882640262256e+01 3.410000000000000000e+02
1.063119041782015106e+00 -1.459751029107048126e-01 3.420000000000000000e+02
1.801492246851606360e+00 -1.352128082443260215e+00 3.420000000000000000e+02
2.539865451921198058e+00 -2.558281061975814730e+00 3.420000000000000000e+02
3.278238656990789757e+00 -3.764434041508368800e+00 3.420000000000000000e+02
4.016611862060381455e+00 -4.970587021040923759e+00 3.420000000000000000e+02
4.754985067129972265e+00 -6.176740000573477829e+00 3.420000000000000000e+02
5.493358272199563963e+00 -7.382892980106031899e+00 3.420000000000000000e+02
6.231731477269155661e+00 -8.589045959638585970e+00 3.420000000000000000e+02
6.970104682338747359e+00 -9.795198939171140040e+00 3.420000000000000000e+02
1.063119041782015106e+00 -1.459751029107048126e-01 3.430000000000000000e+02
1.801492246851606360e+00 -1.352128082443260215e+00 3.430000000000000000e+02
2.539865451921198058e+00 -2.558281061975814730e+00 3.430000000000000000e+02
3.278238656990789757e+00 -3.764434041508368800e+00 3.430000000000000000e+02
4.016611862060381455e+00 -4.970587021040923759e+00 3.430000000000000000e+02
4.754985067129972265e+00 -6.176740000573477829e+00 3.430000000000000000e+02
5.493358272199563963e+00 -7.382892980106031899e+00 3.430000000000000000e+02
6.231731477269155661e+00 -8.589045959638585970e+00 3.430000000000000000e+02
6.970104682338747359e+00 -9.795198939171140040e+00 3.430000000000000000e+02
1.063119041782015106e+00 -1.459751029107048126e-01 3.440000000000000000e+02
1.801492246851606360e+00 -1.352128082443260215e+00 3.440000000000000000e+02
2.539865451921198058e+00 -2.558281061975814730e+00 3.440000000000000000e+02
3.278238656990789757e+00 -3.764434041508368800e+00 3.440000000000000000e+02
4.016611862060381455e+00 -4.970587021040923759e+00 3.440000000000000000e+02
4.754985067129972265e+00 -6.176740000573477829e+00 3.440000000000000000e+02
5.493358272199563963e+00 -7.382892980106031899e+00 3.440000000000000000e+02
6.231731477269155661e+00 -8.589045959638585970e+00 3.440000000000000000e+02
6.970104682338747359e+00 -9.795198939171140040e+00 3.440000000000000000e+02
1.063119041782015106e+00 -1.459751029107048126e-01 3.450000000000000000e+02
1.801492246851606360e+00 -1.352128082443260215e+00 3.450000000000000000e+02
2.539865451921198058e+00 -2.558281061975814730e+00 3.450000000000000000e+02
3.278238656990789757e+00 -3.764434041508368800e+00 3.450000000000000000e+02
4.016611862060381455e+00 -4.970587021040923759e+00 3.450000000000000000e+02
4.754985067129972265e+00 -6.176740000573477829e+00 3.450000000000000000e+02
5.493358272199563963e+00 -7.382892980106031899e+00 3.450000000000000000e+02
6.231731477269155661e+00 -8.589045959638585970e+00 3.450000000000000000e+02
6.970104682338747359e+00 -9.795198939171140040e+00 3.450000000000000000e+02
1.063119041782015106e+00 -1.459751029107048126e-01 3.460000000000000000e+02
1.801492246851606360e+00 -1.352128082443260215e+00 3.460000000000000000e+02
2.539865451921198058e+00 -2.558281061975814730e+00 3.460000000000000000e+02
3.278238656990789757e+00 -3.764434041508368800e+00 3.460000000000000000e+02
4.016611862060381455e+00 -4.970587021040923759e+00 3.460000000000000000e+02
4.754985067129972265e+00 -6.176740000573477829e+00 3.460000000000000000e+02
5.493358272199563963e+00 -7.382892980106031899e+00 3.460000000000000000e+02
6.231731477269155661e+00 -8.589045959638585970e+00 3.460000000000000000e+02
6.970104682338747359e+00 -9.795198939171140040e+00 3.460000000000000000e+02
1.297008929013496736e+00 8.262879893903667394e-01 3.470000000000000000e+02
2.035382134083087990e+00 -3.798649901421864428e-01 3.470000000000000000e+02
2.773755339152679689e+00 -1.586017969674741401e+00 3.470000000000000000e+02
3.512128544222270943e+00 -2.792170949207295916e+00 3.470000000000000000e+02
4.250501749291862197e+00 -3.998323928739850430e+00 3.470000000000000000e+02
4.988874954361453895e+00 -5.204476908272404501e+00 3.470000000000000000e+02
5.727248159431045593e+00 -6.410629887804959459e+00 3.470000000000000000e+02
6.465621364500637291e+00 -7.616782867337514418e+00 3.470000000000000000e+02
7.203994569570228990e+00 -8.822935846870068488e+00 3.470000000000000000e+02
1.297008929013496736e+00 8.262879893903667394e-01 3.480000000000000000e+02
2.035382134083087990e+00 -3.798649901421864428e-01 3.480000000000000000e+02
2.773755339152679689e+00 -1.586017969674741401e+00 3.480000000000000000e+02
3.512128544222270943e+00 -2.792170949207295916e+00 3.480000000000000000e+02
4.250501749291862197e+00 -3.998323928739850430e+00 3.480000000000000000e+02
4.988874954361453895e+00 -5.204476908272404501e+00 3.480000000000000000e+02
5.727248159431045593e+00 -6.410629887804959459e+00 3.480000000000000000e+02
6.465621364500637291e+00 -7.616782867337514418e+00 3.480000000000000000e+02
7.203994569570228990e+00 -8.822935846870068488e+00 3.480000000000000000e+02
7.942367774639820688e+00 -1.002908882640262256e+01 3.480000000000000000e+02
1.297008929013496736e+00 8.262879893903667394e-01 3.490000000000000000e+02
2.035382134083087990e+00 -3.798649901421864428e-01 3.490000000000000000e+02
2.773755339152679689e+00 -1.586017969674741401e+00 3.490000000000000000e+02
3.512128544222270943e+00 -2.792170949207295916e+00 3.490000000000000000e+02
4.250501749291862197e+00 -3.998323928739850430e+00 3.490000000000000000e+02
4.988874954361453895e+00 -5.204476908272404501e+00 3.490000000000000000e+02
5.727248159431045593e+00 -6.410629887804959459e+00 3.490000000000000000e+02
6.465621364500637291e+00 -7.616782867337514418e+00 3.490000000000000000e+02
7.203994569570228990e+00 -8.822935846870068488e+00 3.490000000000000000e+02
7.942367774639820688e+00 -1.002908882640262256e+01 3.490000000000000000e+02
1.063119041782015106e+00 -1.459751029107048126e-01 3.500000000000000000e+02
1.801492246851606360e+00 -1.352128082443260215e+00 3.500000000000000000e+02
2.539865451921198058e+00 -2.558281061975814730e+00 3.500000000000000000e+02
3.278238656990789757e+00 -3.764434041508368800e+00 3.500000000000000000e+02
4.016611862060381455e+00 -4.970587021040923759e+00 3.500000000000000000e+02
4.754985067129972265e+00 -6.176740000573477829e+00 3.500000000000000000e+02
5.493358272199563963e+00 -7.382892980106031899e+00 3.500000000000000000e+02
6.231731477269155661e+00 -8.589045959638585970e+00 3.500000000000000000e+02
6.970104682338747359e+00 -9.795198939171140040e+00 3.500000000000000000e+02
1.063119041782015106e+00 -1.459751029107048126e-01 3.510000000000000000e+02
1.801492246851606360e+00 -1.352128082443260215e+00 3.510000000000000000e+02
2.539865451921198058e+00 -2.558281061975814730e+00 3.510000000000000000e+02
3.278238656990789757e+00 -3.764434041508368800e+00 3.510000000000000000e+02
4.016611862060381455e+00 -4.970587021040923759e+00 3.510000000000000000e+02
4.754985067129972265e+00 -6.176740000573477829e+00 3.510000000000000000e+02
5.493358272199563963e+00 -7.382892980106031899e+00 3.510000000000000000e+02
6.231731477269155661e+00 -8.589045959638585970e+00 3.510000000000000000e+02
6.970104682338747359e+00 -9.795198939171140040e+00 3.510000000000000000e+02
1.063119041782015106e+00 -1.459751029107048126e-01 3.520000000000000000e+02
1.801492246851606360e+00 -1.352128082443260215e+00 3.520000000000000000e+02
2.539865451921198058e+00 -2.558281061975814730e+00 3.520000000000000000e+02
3.278238656990789757e+00 -3.764434041508368800e+00 3.520000000000000000e+02
4.016611862060381455e+00 -4.970587021040923759e+00 3.520000000000000000e+02
4.754985067129972265e+00 -6.176740000573477829e+00 3.520000000000000000e+02
5.493358272199563963e+00 -7.382892980106031899e+00 3.520000000000000000e+02
6.231731477269155661e+00 -8.589045959638585970e+00 3.520000000000000000e+02
6.970104682338747359e+00 -9.795198939171140040e+00 3.520000000000000000e+02
1.297008929013496736e+00 8.262879893903667394e-01 3.530000000000000000e+02
2.035382134083087990e+00 -3.798649901421864428e-01 3.530000000000000000e+02
2.773755339152679689e+00 -1.586017969674741401e+00 3.530000000000000000e+02
3.512128544222270943e+00 -2.792170949207295916e+00 3.530000000000000000e+02
4.250501749291862197e+00 -3.998323928739850430e+00 3.530000000000000000e+02
4.988874954361453895e+00 -5.204476908272404501e+00 3.530000000000000000e+02
5.727248159431045593e+00 -6.410629887804959459e+00 3.530000000000000000e+02
6.465621364500637291e+00 -7.616782867337514418e+00 3.530000000000000000e+02
7.203994569570228990e+00 -8.822935846870068488e+00 3.530000000000000000e+02
7.942367774639820688e+00 -1.002908882640262256e+01 3.530000000000000000e+02
1.063119041782015106e+00 -1.459751029107048126e-01 3.540000000000000000e+02
1.801492246851606360e+00 -1.352128082443260215e+00 3.540000000000000000e+02
2.539865451921198058e+00 -2.558281061975814730e+00 3.540000000000000000e+02
3.278238656990789757e+00 -3.764434041508368800e+00 3.540000000000000000e+02
4.016611862060381455e+00 -4.970587021040923759e+00 3.540000000000000000e+02
4.754985067129972265e+00 -6.176740000573477829e+00 3.540000000000000000e+02
5.493358272199563963e+00 -7.382892980106031899e+00 3.540000000000000000e+02
6.231731477269155661e+00 -8.589045959638585970e+00 3.540000000000000000e+02
6.970104682338747359e+00 -9.795198939171140040e+00 3.540000000000000000e+02
1.063119041782015106e+00 -1.459751029107048126e-01 3.550000000000000000e+02
1.801492246851606360e+00 -1.352128082443260215e+00 3.550000000000000000e+02
2.539865451921198058e+00 -2.558281061975814730e+00 3.550000000000000000e+02
3.278238656990789757e+00 -3.764434041508368800e+00 3.550000000000000000e+02
4.016611862060381455e+00 -4.970587021040923759e+00 3.550000000000000000e+02
4.754985067129972265e+00 -6.176740000573477829e+00 3.550000000000000000e+02
5.493358272199563963e+00 -7.382892980106031899e+00 3.550000000000000000e+02
6.231731477269155661e+00 -8.589045959638585970e+00 3.550000000000000000e+02
6.970104682338747359e+00 -9.795198939171140040e+00 3.550000000000000000e+02
1.063119041782015106e+00 -1.459751029107048126e-01 3.560000000000000000e+02
1.801492246851606360e+00 -1.352128082443260215e+00 3.560000000000000000e+02
2.539865451921198058e+00 -2.558281061975814730e+00 3.560000000000000000e+02
3.278238656990789757e+00 -3.764434041508368800e+00 3.560000000000000000e+02
4.016611862060381455e+00 -4.970587021040923759e+00 3.560000000000000000e+02
4.754985067129972265e+00 -6.176740000573477829e+00 3.560000000000000000e+02
5.493358272199563963e+00 -7.382892980106031899e+00 3.560000000000000000e+02
6.231731477269155661e+00 -8.589045959638585970e+00 3.560000000000000000e+02
6.970104682338747359e+00 -9.795198939171140040e+00 3.560000000000000000e+02
1.063119041782015106e+00 -1.459751029107048126e-01 3.570000000000000000e+02
1.801492246851606360e+00 -1.352128082443260215e+00 3.570000000000000000e+02
2.539865451921198058e+00 -2.558281061975814730e+00 3.570000000000000000e+02
3.278238656990789757e+00 -3.764434041508368800e+00 3.570000000000000000e+02
4.016611862060381455e+00 -4.970587021040923759e+00 3.570000000000000000e+02
4.754985067129972265e+00 -6.176740000573477829e+00 3.570000000000000000e+02
5.493358272199563963e+00 -7.382892980106031899e+00 3.570000000000000000e+02
6.231731477269155661e+00 -8.589045959638585970e+00 3.570000000000000000e+02
6.970104682338747359e+00 -9.795198939171140040e+00 3.570000000000000000e+02
1.063119041782015106e+00 -1.459751029107048126e-01 3.580000000000000000e+02
1.801492246851606360e+00 -1.352128082443260215e+00 3.580000000000000000e+02
2.539865451921198058e+00 -2.558281061975814730e+00 3.580000000000000000e+02
3.278238656990789757e+00 -3.764434041508368800e+00 3.580000000000000000e+02
4.016611862060381455e+00 -4.970587021040923759e+00 3.580000000000000000e+02
4.754985067129972265e+00 -6.176740000573477829e+00 3.580000000000000000e+02
5.493358272199563963e+00 -7.382892980106031899e+00 3.580000000000000000e+02
6.231731477269155661e+00 -8.589045959638585970e+00 3.580000000000000000e+02
6.970104682338747359e+00 -9.795198939171140040e+00 3.580000000000000000e+02
1.063119041782015106e+00 -1.459751029107048126e-01 3.590000000000000000e+02
1.801492246851606360e+00 -1.352128082443260215e+00 3.590000000000000000e+02
2.539865451921198058e+00 -2.558281061975814730e+00 3.590000000000000000e+02
3.278238656990789757e+00 -3.764434041508368800e+00 3.590000000000000000e+02
4.016611862060381455e+00 -4.970587021040923759e+00 3.590000000000000000e+02
4.754985067129972265e+00 -6.176740000573477829e+00 3.590000000000000000e+02
5.493358272199563963e+00 -7.382892980106031899e+00 3.590000000000000000e+02
6.231731477269155661e+00 -8.589045959638585970e+00 3.590000000000000000e+02
6.970104682338747359e+00 -9.795198939171140040e+00 3.590000000000000000e+02
1.063119041782015106e+00 -1.459751029107048126e-01 3.600000000000000000e+02
1.801492246851606360e+00 -1.352128082443260215e+00 3.600000000000000000e+02
2.539865451921198058e+00 -2.558281061975814730e+00 3.600000000000000000e+02
3.278238656990789757e+00 -3.764434041508368800e+00 3.600000000000000000e+02
4.016611862060381455e+00 -4.970587021040923759e+00 3.600000000000000000e+02
4.754985067129972265e+00 -6.176740000573477829e+00 3.600000000000000000e+02
5.493358272199563963e+00 -7.382892980106031899e+00 3.600000000000000000e+02
6.231731477269155661e+00 -8.589045959638585970e+00 3.600000000000000000e+02
6.970104682338747359e+00 -9.795198939171140040e+00 3.600000000000000000e+02
1.063119041782015106e+00 -1.459751029107048126e-01 3.610000000000000000e+02
1.801492246851606360e+00 -1.352128082443260215e+00 3.610000000000000000e+02
2.539865451921198058e+00 -2.558281061975814730e+00 3.610000000000000000e+02
3.278238656990789757e+00 -3.764434041508368800e+00 3.610000000000000000e+02
4.016611862060381455e+00 -4.970587021040923759e+00 3.610000000000000000e+02
4.754985067129972265e+00 -6.176740000573477829e+00 3.610000000000000000e+02
5.493358272199563963e+00 -7.382892980106031899e+00 3.610000000000000000e+02
6.231731477269155661e+00 -8.589045959638585970e+00 3.610000000000000000e+02
6.970104682338747359e+00 -9.795198939171140040e+00 3.610000000000000000e+02
1.063119041782015106e+00 -1.459751029107048126e-01 3.620000000000000000e+02
1.801492246851606360e+00 -1.352128082443260215e+00 3.620000000000000000e+02
2.539865451921198058e+00 -2.558281061975814730e+00 3.620000000000000000e+02
3.278238656990789757e+00 -3.764434041508368800e+00 3.620000000000000000e+02
4.016611862060381455e+00 -4.970587021040923759e+00 3.620000000000000000e+02
4.754985067129972265e+00 -6.176740000573477829e+00 3.620000000000000000e+02
5.493358272199563963e+00 -7.382892980106031899e+00 3.620000000000000000e+02
6.231731477269155661e+00 -8.589045959638585970e+00 3.620000000000000000e+02
6.970104682338747359e+00 -9.795198939171140040e+00 3.620000000000000000e+02
1.063119041782015106e+00 -1.459751029107048126e-01 3.630000000000000000e+02
1.801492246851606360e+00 -1.352128082443260215e+00 3.630000000000000000e+02
2.539865451921198058e+00 -2.558281061975814730e+00 3.630000000000000000e+02
3.278238656990789757e+00 -3.764434041508368800e+00 3.630000000000000000e+02
4.016611862060381455e+00 -4.970587021040923759e+00 3.630000000000000000e+02
4.754985067129972265e+00 -6.176740000573477829e+00 3.630000000000000000e+02
5.493358272199563963e+00 -7.382892980106031899e+00 3.630000000000000000e+02
6.231731477269155661e+00 -8.589045959638585970e+00 3.630000000000000000e+02
6.970104682338747359e+00 -9.795198939171140040e+00 3.630000000000000000e+02
1.063119041782015106e+00 -1.459751029107048126e-01 3.640000000000000000e+02
1.801492246851606360e+00 -1.352128082443260215e+00 3.640000000000000000e+02
2.539865451921198058e+00 -2.558281061975814730e+00 3.640000000000000000e+02
3.278238656990789757e+00 -3.764434041508368800e+00 3.640000000000000000e+02
4.016611862060381455e+00 -4.970587021040923759e+00 3.640000000000000000e+02
4.754985067129972265e+00 -6.176740000573477829e+00 3.640000000000000000e+02
5.493358272199563963e+00 -7.382892980106031899e+00 3.640000000000000000e+02
6.231731477269155661e+00 -8.589045959638585970e+00 3.640000000000000000e+02
6.970104682338747359e+00 -9.795198939171140040e+00 3.640000000000000000e+02
1.063119041782015106e+00 -1.459751029107048126e-01 3.650000000000000000e+02
1.801492246851606360e+00 -1.352128082443260215e+00 3.650000000000000000e+02
2.539865451921198058e+00 -2.558281061975814730e+00 3.650000000000000000e+02
3.278238656990789757e+00 -3.764434041508368800e+00 3.650000000000000000e+02
4.016611862060381455e+00 -4.970587021040923759e+00 3.650000000000000000e+02
4.754985067129972265e+00 -6.176740000573477829e+00 3.650000000000000000e+02
5.493358272199563963e+00 -7.382892980106031899e+00 3.650000000000000000e+02
6.231731477269155661e+00 -8.589045959638585970e+00 3.650000000000000000e+02
6.970104682338747359e+00 -9.795198939171140040e+00 3.650000000000000000e+02
1.063119041782015106e+00 -1.459751029107048126e-01 3.660000000000000000e+02
1.801492246851606360e+00 -1.352128082443260215e+00 3.660000000000000000e+02
2.539865451921198058e+00 -2.558281061975814730e+00 3.660000000000000000e+02
3.278238656990789757e+00 -3.764434041508368800e+00 3.660000000000000000e+02
4.016611862060381455e+00 -4.970587021040923759e+00 3.660000000000000000e+02
4.754985067129972265e+00 -6.176740000573477829e+00 3.660000000000000000e+02
5.493358272199563963e+00 -7.382892980106031899e+00 3.660000000000000000e+02
6.231731477269155661e+00 -8.589045959638585970e+00 3.660000000000000000e+02
6.970104682338747359e+00 -9.795198939171140040e+00 3.660000000000000000e+02
1.063119041782015106e+00 -1.459751029107048126e-01 3.670000000000000000e+02
1.801492246851606360e+00 -1.352128082443260215e+00 3.670000000000000000e+02
2.539865451921198058e+00 -2.558281061975814730e+00 3.670000000000000000e+02
3.278238656990789757e+00 -3.764434041508368800e+00 3.670000000000000000e+02
4.016611862060381455e+00 -4.970587021040923759e+00 3.670000000000000000e+02
4.754985067129972265e+00 -6.176740000573477829e+00 3.670000000000000000e+02
5.493358272199563963e+00 -7.382892980106031899e+00 3.670000000000000000e+02
6.231731477269155661e+00 -8.589045959638585970e+00 3.670000000000000000e+02
6.970104682338747359e+00 -9.795198939171140040e+00 3.670000000000000000e+02
1.063119041782015106e+00 -1.459751029107048126e-01 3.680000000000000000e+02
1.801492246851606360e+00 -1.352128082443260215e+00 3.680000000000000000e+02
2.539865451921198058e+00 -2.558281061975814730e+00 3.680000000000000000e+02
3.278238656990789757e+00 -3.764434041508368800e+00 3.680000000000000000e+02
4.016611862060381455e+00 -4.970587021040923759e+00 3.680000000000000000e+02
4.754985067129972265e+00 -6.176740000573477829e+00 3.680000000000000000e+02
5.493358272199563963e+00 -7.382892980106031899e+00 3.680000000000000000e+02
6.231731477269155661e+00 -8.589045959638585970e+00 3.680000000000000000e+02
6.970104682338747359e+00 -9.795198939171140040e+00 3.680000000000000000e+02
7.708477887408339058e+00 -1.100135191870369589e+01 3.680000000000000000e+02
1.063119041782015106e+00 -1.459751029107048126e-01 3.690000000000000000e+02
1.801492246851606360e+00 -1.352128082443260215e+00 3.690000000000000000e+02
2.539865451921198058e+00 -2.558281061975814730e+00 3.690000000000000000e+02
3.278238656990789757e+00 -3.764434041508368800e+00 3.690000000000000000e+02
4.016611862060381455e+00 -4.970587021040923759e+00 3.690000000000000000e+02
4.754985067129972265e+00 -6.176740000573477829e+00 3.690000000000000000e+02
5.493358272199563963e+00 -7.382892980106031899e+00 3.690000000000000000e+02
6.231731477269155661e+00 -8.589045959638585970e+00 3.690000000000000000e+02
6.970104682338747359e+00 -9.795198939171140040e+00 3.690000000000000000e+02
7.708477887408339058e+00 -1.100135191870369589e+01 3.690000000000000000e+02
1.063119041782015106e+00 -1.459751029107048126e-01 3.700000000000000000e+02
1.801492246851606360e+00 -1.352128082443260215e+00 3.700000000000000000e+02
2.539865451921198058e+00 -2.558281061975814730e+00 3.700000000000000000e+02
3.278238656990789757e+00 -3.764434041508368800e+00 3.700000000000000000e+02
4.016611862060381455e+00 -4.970587021040923759e+00 3.700000000000000000e+02
4.754985067129972265e+00 -6.176740000573477829e+00 3.700000000000000000e+02
5.493358272199563963e+00 -7.382892980106031899e+00 3.700000000000000000e+02
6.231731477269155661e+00 -8.589045959638585970e+00 3.700000000000000000e+02
6.970104682338747359e+00 -9.795198939171140040e+00 3.700000000000000000e+02
7.708477887408339058e+00 -1.100135191870369589e+01 3.700000000000000000e+02
1.063119041782015106e+00 -1.459751029107048126e-01 3.710000000000000000e+02
1.801492246851606360e+00 -1.352128082443260215e+00 3.710000000000000000e+02
2.539865451921198058e+00 -2.558281061975814730e+00 3.710000000000000000e+02
3.278238656990789757e+00 -3.764434041508368800e+00 3.710000000000000000e+02
4.016611862060381455e+00 -4.970587021040923759e+00 3.710000000000000000e+02
4.754985067129972265e+00 -6.176740000573477829e+00 3.710000000000000000e+02
5.493358272199563963e+00 -7.382892980106031899e+00 3.710000000000000000e+02
6.231731477269155661e+00 -8.589045959638585970e+00 3.710000000000000000e+02
6.970104682338747359e+00 -9.795198939171140040e+00 3.710000000000000000e+02
7.708477887408339058e+00 -1.100135191870369589e+01 3.710000000000000000e+02
1.063119041782015106e+00 -1.459751029107048126e-01 3.720000000000000000e+02
1.801492246851606360e+00 -1.352128082443260215e+00 3.720000000000000000e+02
2.539865451921198058e+00 -2.558281061975814730e+00 3.720000000000000000e+02
3.278238656990789757e+00 -3.764434041508368800e+00 3.720000000000000000e+02
4.016611862060381455e+00 -4.970587021040923759e+00 3.720000000000000000e+02
4.754985067129972265e+00 -6.176740000573477829e+00 3.720000000000000000e+02
5.493358272199563963e+00 -7.382892980106031899e+00 3.720000000000000000e+02
6.231731477269155661e+00 -8.589045959638585970e+00 3.720000000000000000e+02
6.970104682338747359e+00 -9.795198939171140040e+00 3.720000000000000000e+02
7.708477887408339058e+00 -1.100135191870369589e+01 3.720000000000000000e+02
1.063119041782015106e+00 -1.459751029107048126e-01 3.730000000000000000e+02
1.801492246851606360e+00 -1.352128082443260215e+00 3.730000000000000000e+02
2.539865451921198058e+00 -2.558281061975814730e+00 3.730000000000000000e+02
3.278238656990789757e+00 -3.764434041508368800e+00 3.730000000000000000e+02
4.016611862060381455e+00 -4.970587021040923759e+00 3.730000000000000000e+02
4.754985067129972265e+00 -6.176740000573477829e+00 3.730000000000000000e+02
5.493358272199563963e+00 -7.382892980106031899e+00 3.730000000000000000e+02
6.231731477269155661e+00 -8.589045959638585970e+00 3.730000000000000000e+02
6.970104682338747359e+00 -9.795198939171140040e+00 3.730000000000000000e+02
1.063119041782015106e+00 -1.459751029107048126e-01 3.740000000000000000e+02
1.801492246851606360e+00 -1.352128082443260215e+00 3.740000000000000000e+02
2.539865451921198058e+00 -2.558281061975814730e+00 3.740000000000000000e+02
3.278238656990789757e+00 -3.764434041508368800e+00 3.740000000000000000e+02
4.016611862060381455e+00 -4.970587021040923759e+00 3.740000000000000000e+02
4.754985067129972265e+00 -6.176740000573477829e+00 3.740000000000000000e+02
5.493358272199563963e+00 -7.382892980106031899e+00 3.740000000000000000e+02
6.231731477269155661e+00 -8.589045959638585970e+00 3.740000000000000000e+02
6.970104682338747359e+00 -9.795198939171140040e+00 3.740000000000000000e+02
1.063119041782015106e+00 -1.459751029107048126e-01 3.750000000000000000e+02
1.801492246851606360e+00 -1.352128082443260215e+00 3.750000000000000000e+02
2.539865451921198058e+00 -2.558281061975814730e+00 3.750000000000000000e+02
3.278238656990789757e+00 -3.764434041508368800e+00 3.750000000000000000e+02
4.016611862060381455e+00 -4.970587021040923759e+00 3.750000000000000000e+02
4.754985067129972265e+00 -6.176740000573477829e+00 3.750000000000000000e+02
5.493358272199563963e+00 -7.382892980106031899e+00 3.750000000000000000e+02
6.231731477269155661e+00 -8.589045959638585970e+00 3.750000000000000000e+02
6.970104682338747359e+00 -9.795198939171140040e+00 3.750000000000000000e+02
1.063119041782015106e+00 -1.459751029107048126e-01 3.760000000000000000e+02
1.801492246851606360e+00 -1.352128082443260215e+00 3.760000000000000000e+02
2.539865451921198058e+00 -2.558281061975814730e+00 3.760000000000000000e+02
3.278238656990789757e+00 -3.764434041508368800e+00 3.760000000000000000e+02
4.016611862060381455e+00 -4.970587021040923759e+00 3.760000000000000000e+02
4.754985067129972265e+00 -6.176740000573477829e+00 3.760000000000000000e+02
5.493358272199563963e+00 -7.382892980106031899e+00 3.760000000000000000e+02
6.231731477269155661e+00 -8.589045959638585970e+00 3.760000000000000000e+02
1.063119041782015106e+00 -1.459751029107048126e-01 3.770000000000000000e+02
1.801492246851606360e+00 -1.352128082443260215e+00 3.770000000000000000e+02
2.539865451921198058e+00 -2.558281061975814730e+00 3.770000000000000000e+02
3.278238656990789757e+00 -3.764434041508368800e+00 3.770000000000000000e+02
4.016611862060381455e+00 -4.970587021040923759e+00 3.770000000000000000e+02
4.754985067129972265e+00 -6.176740000573477829e+00 3.770000000000000000e+02
5.493358272199563963e+00 -7.382892980106031899e+00 3.770000000000000000e+02
6.231731477269155661e+00 -8.589045959638585970e+00 3.770000000000000000e+02
6.970104682338747359e+00 -9.795198939171140040e+00 3.770000000000000000e+02
1.063119041782015106e+00 -1.459751029107048126e-01 3.780000000000000000e+02
1.801492246851606360e+00 -1.352128082443260215e+00 3.780000000000000000e+02
2.539865451921198058e+00 -2.558281061975814730e+00 3.780000000000000000e+02
3.278238656990789757e+00 -3.764434041508368800e+00 3.780000000000000000e+02
4.016611862060381455e+00 -4.970587021040923759e+00 3.780000000000000000e+02
4.754985067129972265e+00 -6.176740000573477829e+00 3.780000000000000000e+02
5.493358272199563963e+00 -7.382892980106031899e+00 3.780000000000000000e+02
6.231731477269155661e+00 -8.589045959638585970e+00 3.780000000000000000e+02
6.970104682338747359e+00 -9.795198939171140040e+00 3.780000000000000000e+02
1.063119041782015106e+00 -1.459751029107048126e-01 3.790000000000000000e+02
1.801492246851606360e+00 -1.352128082443260215e+00 3.790000000000000000e+02
2.539865451921198058e+00 -2.558281061975814730e+00 3.790000000000000000e+02
3.278238656990789757e+00 -3.764434041508368800e+00 3.790000000000000000e+02
4.016611862060381455e+00 -4.970587021040923759e+00 3.790000000000000000e+02
4.754985067129972265e+00 -6.176740000573477829e+00 3.790000000000000000e+02
5.493358272199563963e+00 -7.382892980106031899e+00 3.790000000000000000e+02
6.231731477269155661e+00 -8.589045959638585970e+00 3.790000000000000000e+02
6.970104682338747359e+00 -9.795198939171140040e+00 3.790000000000000000e+02
1.063119041782015106e+00 -1.459751029107048126e-01 3.800000000000000000e+02
1.801492246851606360e+00 -1.352128082443260215e+00 3.800000000000000000e+02
2.539865451921198058e+00 -2.558281061975814730e+00 3.800000000000000000e+02
3.278238656990789757e+00 -3.764434041508368800e+00 3.800000000000000000e+02
4.016611862060381455e+00 -4.970587021040923759e+00 3.800000000000000000e+02
4.754985067129972265e+00 -6.176740000573477829e+00 3.800000000000000000e+02
5.493358272199563963e+00 -7.382892980106031899e+00 3.800000000000000000e+02
6.231731477269155661e+00 -8.589045959638585970e+00 3.800000000000000000e+02
6.970104682338747359e+00 -9.795198939171140040e+00 3.800000000000000000e+02
1.063119041782015106e+00 -1.459751029107048126e-01 3.810000000000000000e+02
1.801492246851606360e+00 -1.352128082443260215e+00 3.810000000000000000e+02
2.539865451921198058e+00 -2.558281061975814730e+00 3.810000000000000000e+02
3.278238656990789757e+00 -3.764434041508368800e+00 3.810000000000000000e+02
4.016611862060381455e+00 -4.970587021040923759e+00 3.810000000000000000e+02
4.754985067129972265e+00 -6.176740000573477829e+00 3.810000000000000000e+02
5.493358272199563963e+00 -7.382892980106031899e+00 3.810000000000000000e+02
6.231731477269155661e+00 -8.589045959638585970e+00 3.810000000000000000e+02
6.970104682338747359e+00 -9.795198939171140040e+00 3.810000000000000000e+02
1.063119041782015106e+00 -1.459751029107048126e-01 3.820000000000000000e+02
1.801492246851606360e+00 -1.352128082443260215e+00 3.820000000000000000e+02
2.539865451921198058e+00 -2.558281061975814730e+00 3.820000000000000000e+02
3.278238656990789757e+00 -3.764434041508368800e+00 3.820000000000000000e+02
4.016611862060381455e+00 -4.970587021040923759e+00 3.820000000000000000e+02
4.754985067129972265e+00 -6.176740000573477829e+00 3.820000000000000000e+02
5.493358272199563963e+00 -7.382892980106031899e+00 3.820000000000000000e+02
6.231731477269155661e+00 -8.589045959638585970e+00 3.820000000000000000e+02
6.970104682338747359e+00 -9.795198939171140040e+00 3.820000000000000000e+02
1.063119041782015106e+00 -1.459751029107048126e-01 3.830000000000000000e+02
1.801492246851606360e+00 -1.352128082443260215e+00 3.830000000000000000e+02
2.539865451921198058e+00 -2.558281061975814730e+00 3.830000000000000000e+02
3.278238656990789757e+00 -3.764434041508368800e+00 3.830000000000000000e+02
4.016611862060381455e+00 -4.970587021040923759e+00 3.830000000000000000e+02
4.754985067129972265e+00 -6.176740000573477829e+00 3.830000000000000000e+02
5.493358272199563963e+00 -7.382892980106031899e+00 3.830000000000000000e+02
6.231731477269155661e+00 -8.589045959638585970e+00 3.830000000000000000e+02
6.970104682338747359e+00 -9.795198939171140040e+00 3.830000000000000000e+02
1.063119041782015106e+00 -1.459751029107048126e-01 3.840000000000000000e+02
1.801492246851606360e+00 -1.352128082443260215e+00 3.840000000000000000e+02
2.539865451921198058e+00 -2.558281061975814730e+00 3.840000000000000000e+02
3.278238656990789757e+00 -3.764434041508368800e+00 3.840000000000000000e+02
4.016611862060381455e+00 -4.970587021040923759e+00 3.840000000000000000e+02
4.754985067129972265e+00 -6.176740000573477829e+00 3.840000000000000000e+02
5.493358272199563963e+00 -7.382892980106031899e+00 3.840000000000000000e+02
6.231731477269155661e+00 -8.589045959638585970e+00 3.840000000000000000e+02
6.970104682338747359e+00 -9.795198939171140040e+00 3.840000000000000000e+02
1.063119041782015106e+00 -1.459751029107048126e-01 3.850000000000000000e+02
1.801492246851606360e+00 -1.352128082443260215e+00 3.850000000000000000e+02
2.539865451921198058e+00 -2.558281061975814730e+00 3.850000000000000000e+02
3.278238656990789757e+00 -3.764434041508368800e+00 3.850000000000000000e+02
4.016611862060381455e+00 -4.970587021040923759e+00 3.850000000000000000e+02
4.754985067129972265e+00 -6.176740000573477829e+00 3.850000000000000000e+02
5.493358272199563963e+00 -7.382892980106031899e+00 3.850000000000000000e+02
6.231731477269155661e+00 -8.589045959638585970e+00 3.850000000000000000e+02
6.970104682338747359e+00 -9.795198939171140040e+00 3.850000000000000000e+02
1.063119041782015106e+00 -1.459751029107048126e-01 3.860000000000000000e+02
1.801492246851606360e+00 -1.352128082443260215e+00 3.860000000000000000e+02
2.539865451921198058e+00 -2.558281061975814730e+00 3.860000000000000000e+02
3.278238656990789757e+00 -3.764434041508368800e+00 3.860000000000000000e+02
4.016611862060381455e+00 -4.970587021040923759e+00 3.860000000000000000e+02
4.754985067129972265e+00 -6.176740000573477829e+00 3.860000000000000000e+02
5.493358272199563963e+00 -7.382892980106031899e+00 3.860000000000000000e+02
6.231731477269155661e+00 -8.589045959638585970e+00 3.860000000000000000e+02
6.970104682338747359e+00 -9.795198939171140040e+00 3.860000000000000000e+02
1.063119041782015106e+00 -1.459751029107048126e-01 3.870000000000000000e+02
1.801492246851606360e+00 -1.352128082443260215e+00 3.870000000000000000e+02
2.539865451921198058e+00 -2.558281061975814730e+00 3.870000000000000000e+02
3.278238656990789757e+00 -3.764434041508368800e+00 3.870000000000000000e+02
4.016611862060381455e+00 -4.970587021040923759e+00 3.870000000000000000e+02
4.754985067129972265e+00 -6.176740000573477829e+00 3.870000000000000000e+02
5.493358272199563963e+00 -7.382892980106031899e+00 3.870000000000000000e+02
6.231731477269155661e+00 -8.589045959638585970e+00 3.870000000000000000e+02
6.970104682338747359e+00 -9.795198939171140040e+00 3.870000000000000000e+02
1.063119041782015106e+00 -1.459751029107048126e-01 3.880000000000000000e+02
1.801492246851606360e+00 -1.352128082443260215e+00 3.880000000000000000e+02
2.539865451921198058e+00 -2.558281061975814730e+00 3.880000000000000000e+02
3.278238656990789757e+00 -3.764434041508368800e+00 3.880000000000000000e+02
4.016611862060381455e+00 -4.970587021040923759e+00 3.880000000000000000e+02
4.754985067129972265e+00 -6.176740000573477829e+00 3.880000000000000000e+02
5.493358272199563963e+00 -7.382892980106031899e+00 3.880000000000000000e+02
6.231731477269155661e+00 -8.589045959638585970e+00 3.880000000000000000e+02
6.970104682338747359e+00 -9.795198939171140040e+00 3.880000000000000000e+02
1.063119041782015106e+00 -1.459751029107048126e-01 3.890000000000000000e+02
1.801492246851606360e+00 -1.352128082443260215e+00 3.890000000000000000e+02
2.539865451921198058e+00 -2.558281061975814730e+00 3.890000000000000000e+02
3.278238656990789757e+00 -3.764434041508368800e+00 3.890000000000000000e+02
4.016611862060381455e+00 -4.970587021040923759e+00 3.890000000000000000e+02
4.754985067129972265e+00 -6.176740000573477829e+00 3.890000000000000000e+02
5.493358272199563963e+00 -7.382892980106031899e+00 3.890000000000000000e+02
6.231731477269155661e+00 -8.589045959638585970e+00 3.890000000000000000e+02
6.970104682338747359e+00 -9.795198939171140040e+00 3.890000000000000000e+02
1.063119041782015106e+00 -1.459751029107048126e-01 3.900000000000000000e+02
1.801492246851606360e+00 -1.352128082443260215e+00 3.900000000000000000e+02
2.539865451921198058e+00 -2.558281061975814730e+00 3.900000000000000000e+02
3.278238656990789757e+00 -3.764434041508368800e+00 3.900000000000000000e+02
4.016611862060381455e+00 -4.970587021040923759e+00 3.900000000000000000e+02
4.754985067129972265e+00 -6.176740000573477829e+00 3.900000000000000000e+02
5.493358272199563963e+00 -7.382892980106031899e+00 3.900000000000000000e+02
6.231731477269155661e+00 -8.589045959638585970e+00 3.900000000000000000e+02
6.970104682338747359e+00 -9.795198939171140040e+00 3.900000000000000000e+02
1.063119041782015106e+00 -1.459751029107048126e-01 3.910000000000000000e+02
1.801492246851606360e+00 -1.352128082443260215e+00 3.910000000000000000e+02
2.539865451921198058e+00 -2.558281061975814730e+00 3.910000000000000000e+02
3.278238656990789757e+00 -3.764434041508368800e+00 3.910000000000000000e+02
4.016611862060381455e+00 -4.970587021040923759e+00 3.910000000000000000e+02
4.754985067129972265e+00 -6.176740000573477829e+00 3.910000000000000000e+02
5.493358272199563963e+00 -7.382892980106031899e+00 3.910000000000000000e+02
6.231731477269155661e+00 -8.589045959638585970e+00 3.910000000000000000e+02
6.970104682338747359e+00 -9.795198939171140040e+00 3.910000000000000000e+02
7.708477887408339058e+00 -1.100135191870369589e+01 3.910000000000000000e+02
1.063119041782015106e+00 -1.459751029107048126e-01 3.920000000000000000e+02
1.801492246851606360e+00 -1.352128082443260215e+00 3.920000000000000000e+02
2.539865451921198058e+00 -2.558281061975814730e+00 3.920000000000000000e+02
3.278238656990789757e+00 -3.764434041508368800e+00 3.920000000000000000e+02
4.016611862060381455e+00 -4.970587021040923759e+00 3.920000000000000000e+02
4.754985067129972265e+00 -6.176740000573477829e+00 3.920000000000000000e+02
5.493358272199563963e+00 -7.382892980106031899e+00 3.920000000000000000e+02
6.231731477269155661e+00 -8.589045959638585970e+00 3.920000000000000000e+02
6.970104682338747359e+00 -9.795198939171140040e+00 3.920000000000000000e+02
7.708477887408339058e+00 -1.100135191870369589e+01 3.920000000000000000e+02
1.063119041782015106e+00 -1.459751029107048126e-01 3.930000000000000000e+02
1.801492246851606360e+00 -1.352128082443260215e+00 3.930000000000000000e+02
2.539865451921198058e+00 -2.558281061975814730e+00 3.930000000000000000e+02
3.278238656990789757e+00 -3.764434041508368800e+00 3.930000000000000000e+02
4.016611862060381455e+00 -4.970587021040923759e+00 3.930000000000000000e+02
4.754985067129972265e+00 -6.176740000573477829e+00 3.930000000000000000e+02
5.493358272199563963e+00 -7.382892980106031899e+00 3.930000000000000000e+02
6.231731477269155661e+00 -8.589045959638585970e+00 3.930000000000000000e+02
6.970104682338747359e+00 -9.795198939171140040e+00 3.930000000000000000e+02
7.708477887408339058e+00 -1.100135191870369589e+01 3.930000000000000000e+02
1.063119041782015106e+00 -1.459751029107048126e-01 3.940000000000000000e+02
1.801492246851606360e+00 -1.352128082443260215e+00 3.940000000000000000e+02
2.539865451921198058e+00 -2.558281061975814730e+00 3.940000000000000000e+02
3.278238656990789757e+00 -3.764434041508368800e+00 3.940000000000000000e+02
4.016611862060381455e+00 -4.970587021040923759e+00 3.940000000000000000e+02
4.754985067129972265e+00 -6.176740000573477829e+00 3.940000000000000000e+02
5.493358272199563963e+00 -7.382892980106031899e+00 3.940000000000000000e+02
6.231731477269155661e+00 -8.589045959638585970e+00 3.940000000000000000e+02
6.970104682338747359e+00 -9.795198939171140040e+00 3.940000000000000000e+02
1.063119041782015106e+00 -1.459751029107048126e-01 3.950000000000000000e+02
1.801492246851606360e+00 -1.352128082443260215e+00 3.950000000000000000e+02
2.539865451921198058e+00 -2.558281061975814730e+00 3.950000000000000000e+02
3.278238656990789757e+00 -3.764434041508368800e+00 3.950000000000000000e+02
4.016611862060381455e+00 -4.970587021040923759e+00 3.950000000000000000e+02
4.754985067129972265e+00 -6.176740000573477829e+00 3.950000000000000000e+02
5.493358272199563963e+00 -7.382892980106031899e+00 3.950000000000000000e+02
6.231731477269155661e+00 -8.589045959638585970e+00 3.950000000000000000e+02
6.970104682338747359e+00 -9.795198939171140040e+00 3.950000000000000000e+02
1.063119041782015106e+00 -1.459751029107048126e-01 3.960000000000000000e+02
1.801492246851606360e+00 -1.352128082443260215e+00 3.960000000000000000e+02
2.539865451921198058e+00 -2.558281061975814730e+00 3.960000000000000000e+02
3.278238656990789757e+00 -3.764434041508368800e+00 3.960000000000000000e+02
4.016611862060381455e+00 -4.970587021040923759e+00 3.960000000000000000e+02
4.754985067129972265e+00 -6.176740000573477829e+00 3.960000000000000000e+02
5.493358272199563963e+00 -7.382892980106031899e+00 3.960000000000000000e+02
6.231731477269155661e+00 -8.589045959638585970e+00 3.960000000000000000e+02
6.970104682338747359e+00 -9.795198939171140040e+00 3.960000000000000000e+02
8.292291545505339201e-01 -1.118238195211778585e+00 3.970000000000000000e+02
1.567602359620125174e+00 -2.324391174744333100e+00 3.970000000000000000e+02
2.305975564689716428e+00 -3.530544154276887170e+00 3.970000000000000000e+02
3.044348769759308126e+00 -4.736697133809442128e+00 3.970000000000000000e+02
3.782721974828899825e+00 -5.942850113341996199e+00 3.970000000000000000e+02
4.521095179898491523e+00 -7.149003092874551157e+00 3.970000000000000000e+02
5.259468384968082333e+00 -8.355156072407105228e+00 3.970000000000000000e+02
5.997841590037674919e+00 -9.561309051939659298e+00 3.970000000000000000e+02
1.063119041782015106e+00 -1.459751029107048126e-01 3.980000000000000000e+02
1.801492246851606360e+00 -1.352128082443260215e+00 3.980000000000000000e+02
2.539865451921198058e+00 -2.558281061975814730e+00 3.980000000000000000e+02
3.278238656990789757e+00 -3.764434041508368800e+00 3.980000000000000000e+02
4.016611862060381455e+00 -4.970587021040923759e+00 3.980000000000000000e+02
4.754985067129972265e+00 -6.176740000573477829e+00 3.980000000000000000e+02
5.493358272199563963e+00 -7.382892980106031899e+00 3.980000000000000000e+02
6.231731477269155661e+00 -8.589045959638585970e+00 3.980000000000000000e+02
6.970104682338747359e+00 -9.795198939171140040e+00 3.980000000000000000e+02
1.063119041782015106e+00 -1.459751029107048126e-01 3.990000000000000000e+02
1.801492246851606360e+00 -1.352128082443260215e+00 3.990000000000000000e+02
2.539865451921198058e+00 -2.558281061975814730e+00 3.990000000000000000e+02
3.278238656990789757e+00 -3.764434041508368800e+00 3.990000000000000000e+02
4.016611862060381455e+00 -4.970587021040923759e+00 3.990000000000000000e+02
4.754985067129972265e+00 -6.176740000573477829e+00 3.990000000000000000e+02
5.493358272199563963e+00 -7.382892980106031899e+00 3.990000000000000000e+02
6.231731477269155661e+00 -8.589045959638585970e+00 3.990000000000000000e+02
6.970104682338747359e+00 -9.795198939171140040e+00 3.990000000000000000e+02
7.708477887408339058e+00 -1.100135191870369589e+01 3.990000000000000000e+02
1.063119041782015106e+00 -1.459751029107048126e-01 4.000000000000000000e+02
1.801492246851606360e+00 -1.352128082443260215e+00 4.000000000000000000e+02
2.539865451921198058e+00 -2.558281061975814730e+00 4.000000000000000000e+02
3.278238656990789757e+00 -3.764434041508368800e+00 4.000000000000000000e+02
4.016611862060381455e+00 -4.970587021040923759e+00 4.000000000000000000e+02
4.754985067129972265e+00 -6.176740000573477829e+00 4.000000000000000000e+02
5.493358272199563963e+00 -7.382892980106031899e+00 4.000000000000000000e+02
6.231731477269155661e+00 -8.589045959638585970e+00 4.000000000000000000e+02
6.970104682338747359e+00 -9.795198939171140040e+00 4.000000000000000000e+02
