-1.228946140766756301e+01 2.559607856661834191e+01 2.240000000000000000e+02
-1.185055207167943614e+01 2.520458792026739303e+01 2.240000000000000000e+02
-1.141164273569130927e+01 2.481309727391643705e+01 2.240000000000000000e+02
-1.097273339970318240e+01 2.442160662756548462e+01 2.240000000000000000e+02
-1.053382406371505375e+01 2.403011598121453218e+01 2.240000000000000000e+02
-1.272837074365568988e+01 2.598756921296929789e+01 2.250000000000000000e+02
-1.228946140766756301e+01 2.559607856661834191e+01 2.250000000000000000e+02
-1.185055207167943614e+01 2.520458792026739303e+01 2.250000000000000000e+02
-1.141164273569130927e+01 2.481309727391643705e+01 2.250000000000000000e+02
-1.097273339970318240e+01 2.442160662756548462e+01 2.250000000000000000e+02
-1.053382406371505375e+01 2.403011598121453218e+01 2.250000000000000000e+02
-1.272837074365568988e+01 2.598756921296929789e+01 2.260000000000000000e+02
-1.228946140766756301e+01 2.559607856661834191e+01 2.260000000000000000e+02
-1.185055207167943614e+01 2.520458792026739303e+01 2.260000000000000000e+02
-1.141164273569130927e+01 2.481309727391643705e+01 2.260000000000000000e+02
-1.097273339970318240e+01 2.442160662756548462e+01 2.260000000000000000e+02
-1.053382406371505375e+01 2.403011598121453218e+01 2.260000000000000000e+02
-1.272837074365568988e+01 2.598756921296929789e+01 2.270000000000000000e+02
-1.228946140766756301e+01 2.559607856661834191e+01 2.270000000000000000e+02
-1.185055207167943614e+01 2.520458792026739303e+01 2.270000000000000000e+02
-1.141164273569130927e+01 2.481309727391643705e+01 2.270000000000000000e+02
-1.097273339970318240e+01 2.442160662756548462e+01 2.270000000000000000e+02
-1.053382406371505375e+01 2.403011598121453218e+01 2.270000000000000000e+02
-1.272837074365568988e+01 2.598756921296929789e+01 2.280000000000000000e+02
-1.228946140766756301e+01 2.559607856661834191e+01 2.280000000000000000e+02
-1.185055207167943614e+01 2.520458792026739303e+01 2.280000000000000000e+02
-1.141164273569130927e+01 2.481309727391643705e+01 2.280000000000000000e+02
-1.097273339970318240e+01 2.442160662756548462e+01 2.280000000000000000e+02
-1.053382406371505375e+01 2.403011598121453218e+01 2.280000000000000000e+02
-1.272837074365568988e+01 2.598756921296929789e+01 2.290000000000000000e+02
-1.228946140766756301e+01 2.559607856661834191e+01 2.290000000000000000e+02
-1.185055207167943614e+01 2.520458792026739303e+01 2.290000000000000000e+02
-1.141164273569130927e+01 2.481309727391643705e+01 2.290000000000000000e+02
-1.097273339970318240e+01 2.442160662756548462e+01 2.290000000000000000e+02
-1.053382406371505375e+01 2.403011598121453218e+01 2.290000000000000000e+02
-1.272837074365568988e+01 2.598756921296929789e+01 2.300000000000000000e+02
-1.228946140766756301e+01 2.559607856661834191e+01 2.300000000000000000e+02
-1.185055207167943614e+01 2.520458792026739303e+01 2.300000000000000000e+02
-1.141164273569130927e+01 2.481309727391643705e+01 2.300000000000000000e+02
-1.097273339970318240e+01 2.442160662756548462e+01 2.300000000000000000e+02
-1.053382406371505375e+01 2.403011598121453218e+01 2.300000000000000000e+02
-1.272837074365568988e+01 2.598756921296929789e+01 2.310000000000000000e+02
-1.228946140766756301e+01 2.559607856661834191e+01 2.310000000000000000e+02
-1.185055207167943614e+01 2.520458792026739303e+01 2.310000000000000000e+02
-1.141164273569130927e+01 2.481309727391643705e+01 2.310000000000000000e+02
-1.097273339970318240e+01 2.442160662756548462e+01 2.310000000000000000e+02
-1.053382406371505375e+01 2.403011598121453218e+01 2.310000000000000000e+02
-1.272837074365568988e+01 2.598756921296929789e+01 2.320000000000000000e+02
-1.228946140766756301e+01 2.559607856661834191e+01 2.320000000000000000e+02
-1.185055207167943614e+01 2.520458792026739303e+01 2.320000000000000000e+02
-1.141164273569130927e+01 2.481309727391643705e+01 2.320000000000000000e+02
-1.097273339970318240e+01 2.442160662756548462e+01 2.320000000000000000e+02
-1.053382406371505375e+01 2.403011598121453218e+01 2.320000000000000000e+02
-1.009491472772692688e+01 2.363862533486357975e+01 2.320000000000000000e+02
-1.272837074365568988e+01 2.598756921296929789e+01 2.330000000000000000e+02
-1.228946140766756301e+01 2.559607856661834191e+01 2.330000000000000000e+02
-1.185055207167943614e+01 2.520458792026739303e+01 2.330000000000000000e+02
-1.141164273569130927e+01 2.481309727391643705e+01 2.330000000000000000e+02
-1.097273339970318240e+01 2.442160662756548462e+01 2.330000000000000000e+02
-1.053382406371505375e+01 2.403011598121453218e+01 2.330000000000000000e+02
-1.009491472772692688e+01 2.363862533486357975e+01 2.330000000000000000e+02
-1.294782541164975420e+01 2.642722021062463256e+01 2.340000000000000000e+02
-1.250891607566162733e+01 2.603572956427368013e+01 2.340000000000000000e+02
-1.207000673967349869e+01 2.564423891792272769e+01 2.340000000000000000e+02
-1.163109740368537359e+01 2.525274827157177526e+01 2.340000000000000000e+02
-1.119218806769724495e+01 2.486125762522082283e+01 2.340000000000000000e+02
-1.075327873170911808e+01 2.446976697886987040e+01 2.340000000000000000e+02
-1.031436939572099121e+01 2.407827633251891442e+01 2.340000000000000000e+02
-9.875460059732862561e+00 2.368678568616796554e+01 2.340000000000000000e+02
-1.294782541164975420e+01 2.642722021062463256e+01 2.350000000000000000e+02
-1.250891607566162733e+01 2.603572956427368013e+01 2.350000000000000000e+02
-1.207000673967349869e+01 2.564423891792272769e+01 2.350000000000000000e+02
-1.163109740368537359e+01 2.525274827157177526e+01 2.350000000000000000e+02
-1.119218806769724495e+01 2.486125762522082283e+01 2.350000000000000000e+02
-1.075327873170911808e+01 2.446976697886987040e+01 2.350000000000000000e+02
-1.031436939572099121e+01 2.407827633251891442e+01 2.350000000000000000e+02
-9.875460059732862561e+00 2.368678568616796554e+01 2.350000000000000000e+02
-1.294782541164975420e+01 2.642722021062463256e+01 2.360000000000000000e+02
-1.250891607566162733e+01 2.603572956427368013e+01 2.360000000000000000e+02
-1.207000673967349869e+01 2.564423891792272769e+01 2.360000000000000000e+02
-1.163109740368537359e+01 2.525274827157177526e+01 2.360000000000000000e+02
-1.119218806769724495e+01 2.486125762522082283e+01 2.360000000000000000e+02
-1.075327873170911808e+01 2.446976697886987040e+01 2.360000000000000000e+02
-1.031436939572099121e+01 2.407827633251891442e+01 2.360000000000000000e+02
-9.875460059732862561e+00 2.368678568616796554e+01 2.360000000000000000e+02
-1.294782541164975420e+01 2.642722021062463256e+01 2.370000000000000000e+02
-1.250891607566162733e+01 2.603572956427368013e+01 2.370000000000000000e+02
-1.207000673967349869e+01 2.564423891792272769e+01 2.370000000000000000e+02
-1.163109740368537359e+01 2.525274827157177526e+01 2.370000000000000000e+02
-1.119218806769724495e+01 2.486125762522082283e+01 2.370000000000000000e+02
-1.075327873170911808e+01 2.446976697886987040e+01 2.370000000000000000e+02
-1.031436939572099121e+01 2.407827633251891442e+01 2.370000000000000000e+02
-9.875460059732862561e+00 2.368678568616796554e+01 2.370000000000000000e+02
-1.294782541164975420e+01 2.642722021062463256e+01 2.380000000000000000e+02
-1.250891607566162733e+01 2.603572956427368013e+01 2.380000000000000000e+02
-1.207000673967349869e+01 2.564423891792272769e+01 2.380000000000000000e+02
-1.163109740368537359e+01 2.525274827157177526e+01 2.380000000000000000e+02
-1.119218806769724495e+01 2.486125762522082283e+01 2.380000000000000000e+02
-1.075327873170911808e+01 2.446976697886987040e+01 2.380000000000000000e+02
-1.031436939572099121e+01 2.407827633251891442e+01 2.380000000000000000e+02
-9.875460059732862561e+00 2.368678568616796554e+01 2.380000000000000000e+02
-1.294782541164975420e+01 2.642722021062463256e+01 2.390000000000000000e+02
-1.250891607566162733e+01 2.603572956427368013e+01 2.390000000000000000e+02
-1.207000673967349869e+01 2.564423891792272769e+01 2.390000000000000000e+02
-1.163109740368537359e+01 2.525274827157177526e+01 2.390000000000000000e+02
-1.119218806769724495e+01 2.486125762522082283e+01 2.390000000000000000e+02
-1.075327873170911808e+01 2.446976697886987040e+01 2.390000000000000000e+02
-1.031436939572099121e+01 2.407827633251891442e+01 2.390000000000000000e+02
-9.875460059732862561e+00 2.368678568616796554e+01 2.390000000000000000e+02
-1.294782541164975420e+01 2.642722021062463256e+01 2.400000000000000000e+02
-1.250891607566162733e+01 2.603572956427368013e+01 2.400000000000000000e+02
-1.207000673967349869e+01 2.564423891792272769e+01 2.400000000000000000e+02
-1.163109740368537359e+01 2.525274827157177526e+01 2.400000000000000000e+02
-1.119218806769724495e+01 2.486125762522082283e+01 2.400000000000000000e+02
-1.075327873170911808e+01 2.446976697886987040e+01 2.400000000000000000e+02
-1.031436939572099121e+01 2.407827633251891442e+01 2.400000000000000000e+02
-9.875460059732862561e+00 2.368678568616796554e+01 2.400000000000000000e+02
-1.294782541164975420e+01 2.642722021062463256e+01 2.410000000000000000e+02
-1.250891607566162733e+01 2.603572956427368013e+01 2.410000000000000000e+02
-1.207000673967349869e+01 2.564423891792272769e+01 2.410000000000000000e+02
-1.163109740368537359e+01 2.525274827157177526e+01 2.410000000000000000e+02
-1.119218806769724495e+01 2.486125762522082283e+01 2.410000000000000000e+02
-1.075327873170911808e+01 2.446976697886987040e+01 2.410000000000000000e+02
-1.031436939572099121e+01 2.407827633251891442e+01 2.410000000000000000e+02
-9.875460059732862561e+00 2.368678568616796554e+01 2.410000000000000000e+02
-1.272837074365568988e+01 2.598756921296929789e+01 2.420000000000000000e+02
-1.228946140766756301e+01 2.559607856661834191e+01 2.420000000000000000e+02
-1.185055207167943614e+01 2.520458792026739303e+01 2.420000000000000000e+02
-1.141164273569130927e+01 2.481309727391643705e+01 2.420000000000000000e+02
-1.097273339970318240e+01 2.442160662756548462e+01 2.420000000000000000e+02
-1.053382406371505375e+01 2.403011598121453218e+01 2.420000000000000000e+02
-1.009491472772692688e+01 2.363862533486357975e+01 2.420000000000000000e+02
-1.272837074365568988e+01 2.598756921296929789e+01 2.430000000000000000e+02
-1.228946140766756301e+01 2.559607856661834191e+01 2.430000000000000000e+02
-1.185055207167943614e+01 2.520458792026739303e+01 2.430000000000000000e+02
-1.141164273569130927e+01 2.481309727391643705e+01 2.430000000000000000e+02
-1.097273339970318240e+01 2.442160662756548462e+01 2.430000000000000000e+02
-1.053382406371505375e+01 2.403011598121453218e+01 2.430000000000000000e+02
-1.250891607566162556e+01 2.554791821531395613e+01 2.440000000000000000e+02
-1.207000673967350046e+01 2.515642756896300725e+01 2.440000000000000000e+02
-1.163109740368537182e+01 2.476493692261205126e+01 2.440000000000000000e+02
-1.119218806769724672e+01 2.437344627626109883e+01 2.440000000000000000e+02
-1.075327873170911808e+01 2.398195562991014640e+01 2.440000000000000000e+02
-1.250891607566162556e+01 2.554791821531395613e+01 2.450000000000000000e+02
-1.207000673967350046e+01 2.515642756896300725e+01 2.450000000000000000e+02
-1.163109740368537182e+01 2.476493692261205126e+01 2.450000000000000000e+02
-1.119218806769724672e+01 2.437344627626109883e+01 2.450000000000000000e+02
-1.075327873170911808e+01 2.398195562991014640e+01 2.450000000000000000e+02
-1.250891607566162556e+01 2.554791821531395613e+01 2.460000000000000000e+02
-1.207000673967350046e+01 2.515642756896300725e+01 2.460000000000000000e+02
-1.163109740368537182e+01 2.476493692261205126e+01 2.460000000000000000e+02
-1.119218806769724672e+01 2.437344627626109883e+01 2.460000000000000000e+02
-1.075327873170911808e+01 2.398195562991014640e+01 2.460000000000000000e+02
-1.250891607566162556e+01 2.554791821531395613e+01 2.470000000000000000e+02
-1.207000673967350046e+01 2.515642756896300725e+01 2.470000000000000000e+02
-1.163109740368537182e+01 2.476493692261205126e+01 2.470000000000000000e+02
-1.119218806769724672e+01 2.437344627626109883e+01 2.470000000000000000e+02
-1.075327873170911808e+01 2.398195562991014640e+01 2.470000000000000000e+02
-1.272837074365568988e+01 2.598756921296929789e+01 2.480000000000000000e+02
-1.228946140766756301e+01 2.559607856661834191e+01 2.480000000000000000e+02
-1.185055207167943614e+01 2.520458792026739303e+01 2.480000000000000000e+02
-1.141164273569130927e+01 2.481309727391643705e+01 2.480000000000000000e+02
-1.097273339970318240e+01 2.442160662756548462e+01 2.480000000000000000e+02
-1.053382406371505375e+01 2.403011598121453218e+01 2.480000000000000000e+02
-1.272837074365568988e+01 2.598756921296929789e+01 2.490000000000000000e+02
-1.228946140766756301e+01 2.559607856661834191e+01 2.490000000000000000e+02
-1.185055207167943614e+01 2.520458792026739303e+01 2.490000000000000000e+02
-1.141164273569130927e+01 2.481309727391643705e+01 2.490000000000000000e+02
-1.097273339970318240e+01 2.442160662756548462e+01 2.490000000000000000e+02
-1.053382406371505375e+01 2.403011598121453218e+01 2.490000000000000000e+02
-1.009491472772692688e+01 2.363862533486357975e+01 2.490000000000000000e+02
-1.272837074365568988e+01 2.598756921296929789e+01 2.500000000000000000e+02
-1.228946140766756301e+01 2.559607856661834191e+01 2.500000000000000000e+02
-1.185055207167943614e+01 2.520458792026739303e+01 2.500000000000000000e+02
-1.141164273569130927e+01 2.481309727391643705e+01 2.500000000000000000e+02
-1.097273339970318240e+01 2.442160662756548462e+01 2.500000000000000000e+02
-1.053382406371505375e+01 2.403011598121453218e+01 2.500000000000000000e+02
-1.009491472772692688e+01 2.363862533486357975e+01 2.500000000000000000e+02
-1.294782541164975420e+01 2.642722021062463256e+01 2.510000000000000000e+02
-1.250891607566162733e+01 2.603572956427368013e+01 2.510000000000000000e+02
-1.207000673967349869e+01 2.564423891792272769e+01 2.510000000000000000e+02
-1.163109740368537359e+01 2.525274827157177526e+01 2.510000000000000000e+02
-1.119218806769724495e+01 2.486125762522082283e+01 2.510000000000000000e+02
-1.075327873170911808e+01 2.446976697886987040e+01 2.510000000000000000e+02
-1.031436939572099121e+01 2.407827633251891442e+01 2.510000000000000000e+02
-9.875460059732862561e+00 2.368678568616796554e+01 2.510000000000000000e+02
-1.294782541164975420e+01 2.642722021062463256e+01 2.520000000000000000e+02
-1.250891607566162733e+01 2.603572956427368013e+01 2.520000000000000000e+02
-1.207000673967349869e+01 2.564423891792272769e+01 2.520000000000000000e+02
-1.163109740368537359e+01 2.525274827157177526e+01 2.520000000000000000e+02
-1.119218806769724495e+01 2.486125762522082283e+01 2.520000000000000000e+02
-1.075327873170911808e+01 2.446976697886987040e+01 2.520000000000000000e+02
-1.031436939572099121e+01 2.407827633251891442e+01 2.520000000000000000e+02
-9.875460059732862561e+00 2.368678568616796554e+01 2.520000000000000000e+02
-1.294782541164975420e+01 2.642722021062463256e+01 2.530000000000000000e+02
-1.250891607566162733e+01 2.603572956427368013e+01 2.530000000000000000e+02
-1.207000673967349869e+01 2.564423891792272769e+01 2.530000000000000000e+02
-1.163109740368537359e+01 2.525274827157177526e+01 2.530000000000000000e+02
-1.119218806769724495e+01 2.486125762522082283e+01 2.530000000000000000e+02
-1.075327873170911808e+01 2.446976697886987040e+01 2.530000000000000000e+02
-1.031436939572099121e+01 2.407827633251891442e+01 2.530000000000000000e+02
-9.875460059732862561e+00 2.368678568616796554e+01 2.530000000000000000e+02
-1.294782541164975420e+01 2.642722021062463256e+01 2.540000000000000000e+02
-1.250891607566162733e+01 2.603572956427368013e+01 2.540000000000000000e+02
-1.207000673967349869e+01 2.564423891792272769e+01 2.540000000000000000e+02
-1.163109740368537359e+01 2.525274827157177526e+01 2.540000000000000000e+02
-1.119218806769724495e+01 2.486125762522082283e+01 2.540000000000000000e+02
-1.075327873170911808e+01 2.446976697886987040e+01 2.540000000000000000e+02
-1.031436939572099121e+01 2.407827633251891442e+01 2.540000000000000000e+02
-9.875460059732862561e+00 2.368678568616796554e+01 2.540000000000000000e+02
-1.294782541164975420e+01 2.642722021062463256e+01 2.550000000000000000e+02
-1.250891607566162733e+01 2.603572956427368013e+01 2.550000000000000000e+02
-1.207000673967349869e+01 2.564423891792272769e+01 2.550000000000000000e+02
-1.163109740368537359e+01 2.525274827157177526e+01 2.550000000000000000e+02
-1.119218806769724495e+01 2.486125762522082283e+01 2.550000000000000000e+02
-1.075327873170911808e+01 2.446976697886987040e+01 2.550000000000000000e+02
-1.031436939572099121e+01 2.407827633251891442e+01 2.550000000000000000e+02
-9.875460059732862561e+00 2.368678568616796554e+01 2.550000000000000000e+02
-1.272837074365568988e+01 2.598756921296929789e+01 2.560000000000000000e+02
-1.228946140766756301e+01 2.559607856661834191e+01 2.560000000000000000e+02
-1.185055207167943614e+01 2.520458792026739303e+01 2.560000000000000000e+02
-1.141164273569130927e+01 2.481309727391643705e+01 2.560000000000000000e+02
-1.097273339970318240e+01 2.442160662756548462e+01 2.560000000000000000e+02
-1.053382406371505375e+01 2.403011598121453218e+01 2.560000000000000000e+02
-1.009491472772692688e+01 2.363862533486357975e+01 2.560000000000000000e+02
-1.272837074365568988e+01 2.598756921296929789e+01 2.570000000000000000e+02
-1.228946140766756301e+01 2.559607856661834191e+01 2.570000000000000000e+02
-1.185055207167943614e+01 2.520458792026739303e+01 2.570000000000000000e+02
-1.141164273569130927e+01 2.481309727391643705e+01 2.570000000000000000e+02
-1.097273339970318240e+01 2.442160662756548462e+01 2.570000000000000000e+02
-1.053382406371505375e+01 2.403011598121453218e+01 2.570000000000000000e+02
-1.272837074365568988e+01 2.598756921296929789e+01 2.580000000000000000e+02
-1.228946140766756301e+01 2.559607856661834191e+01 2.580000000000000000e+02
-1.185055207167943614e+01 2.520458792026739303e+01 2.580000000000000000e+02
-1.141164273569130927e+01 2.481309727391643705e+01 2.580000000000000000e+02
-1.097273339970318240e+01 2.442160662756548462e+01 2.580000000000000000e+02
-1.053382406371505375e+01 2.403011598121453218e+01 2.580000000000000000e+02
-1.272837074365568988e+01 2.598756921296929789e+01 2.590000000000000000e+02
-1.228946140766756301e+01 2.559607856661834191e+01 2.590000000000000000e+02
-1.185055207167943614e+01 2.520458792026739303e+01 2.590000000000000000e+02
-1.141164273569130927e+01 2.481309727391643705e+01 2.590000000000000000e+02
-1.097273339970318240e+01 2.442160662756548462e+01 2.590000000000000000e+02
-1.053382406371505375e+01 2.403011598121453218e+01 2.590000000000000000e+02
-1.272837074365568988e+01 2.598756921296929789e+01 2.600000000000000000e+02
-1.228946140766756301e+01 2.559607856661834191e+01 2.600000000000000000e+02
-1.185055207167943614e+01 2.520458792026739303e+01 2.600000000000000000e+02
-1.141164273569130927e+01 2.481309727391643705e+01 2.600000000000000000e+02
-1.097273339970318240e+01 2.442160662756548462e+01 2.600000000000000000e+02
-1.053382406371505375e+01 2.403011598121453218e+01 2.600000000000000000e+02
-1.272837074365568988e+01 2.598756921296929789e+01 2.610000000000000000e+02
-1.228946140766756301e+01 2.559607856661834191e+01 2.610000000000000000e+02
-1.185055207167943614e+01 2.520458792026739303e+01 2.610000000000000000e+02
-1.141164273569130927e+01 2.481309727391643705e+01 2.610000000000000000e+02
-1.097273339970318240e+01 2.442160662756548462e+01 2.610000000000000000e+02
-1.053382406371505375e+01 2.403011598121453218e+01 2.610000000000000000e+02
-1.272837074365568988e+01 2.598756921296929789e+01 2.620000000000000000e+02
-1.228946140766756301e+01 2.559607856661834191e+01 2.620000000000000000e+02
-1.185055207167943614e+01 2.520458792026739303e+01 2.620000000000000000e+02
-1.141164273569130927e+01 2.481309727391643705e+01 2.620000000000000000e+02
-1.097273339970318240e+01 2.442160662756548462e+01 2.620000000000000000e+02
-1.053382406371505375e+01 2.403011598121453218e+01 2.620000000000000000e+02
-1.272837074365568988e+01 2.598756921296929789e+01 2.630000000000000000e+02
-1.228946140766756301e+01 2.559607856661834191e+01 2.630000000000000000e+02
-1.185055207167943614e+01 2.520458792026739303e+01 2.630000000000000000e+02
-1.141164273569130927e+01 2.481309727391643705e+01 2.630000000000000000e+02
-1.097273339970318240e+01 2.442160662756548462e+01 2.630000000000000000e+02
-1.053382406371505375e+01 2.403011598121453218e+01 2.630000000000000000e+02
-1.272837074365568988e+01 2.598756921296929789e+01 2.640000000000000000e+02
-1.228946140766756301e+01 2.559607856661834191e+01 2.640000000000000000e+02
-1.185055207167943614e+01 2.520458792026739303e+01 2.640000000000000000e+02
-1.141164273569130927e+01 2.481309727391643705e+01 2.640000000000000000e+02
-1.097273339970318240e+01 2.442160662756548462e+01 2.640000000000000000e+02
-1.053382406371505375e+01 2.403011598121453218e+01 2.640000000000000000e+02
-1.272837074365568988e+01 2.598756921296929789e+01 2.650000000000000000e+02
-1.228946140766756301e+01 2.559607856661834191e+01 2.650000000000000000e+02
-1.185055207167943614e+01 2.520458792026739303e+01 2.650000000000000000e+02
-1.141164273569130927e+01 2.481309727391643705e+01 2.650000000000000000e+02
-1.097273339970318240e+01 2.442160662756548462e+01 2.650000000000000000e+02
-1.053382406371505375e+01 2.403011598121453218e+01 2.650000000000000000e+02
-1.272837074365568988e+01 2.598756921296929789e+01 2.660000000000000000e+02
-1.228946140766756301e+01 2.559607856661834191e+01 2.660000000000000000e+02
-1.185055207167943614e+01 2.520458792026739303e+01 2.660000000000000000e+02
-1.141164273569130927e+01 2.481309727391643705e+01 2.660000000000000000e+02
-1.097273339970318240e+01 2.442160662756548462e+01 2.660000000000000000e+02
-1.053382406371505375e+01 2.403011598121453218e+01 2.660000000000000000e+02
-1.272837074365568988e+01 2.598756921296929789e+01 2.670000000000000000e+02
-1.228946140766756301e+01 2.559607856661834191e+01 2.670000000000000000e+02
-1.185055207167943614e+01 2.520458792026739303e+01 2.670000000000000000e+02
-1.141164273569130927e+01 2.481309727391643705e+01 2.670000000000000000e+02
-1.097273339970318240e+01 2.442160662756548462e+01 2.670000000000000000e+02
-1.053382406371505375e+01 2.403011598121453218e+01 2.670000000000000000e+02
-1.272837074365568988e+01 2.598756921296929789e+01 2.680000000000000000e+02
-1.228946140766756301e+01 2.559607856661834191e+01 2.680000000000000000e+02
-1.185055207167943614e+01 2.520458792026739303e+01 2.680000000000000000e+02
-1.141164273569130927e+01 2.481309727391643705e+01 2.680000000000000000e+02
-1.097273339970318240e+01 2.442160662756548462e+01 2.680000000000000000e+02
-1.053382406371505375e+01 2.403011598121453218e+01 2.680000000000000000e+02
-1.272837074365568988e+01 2.598756921296929789e+01 2.690000000000000000e+02
-1.228946140766756301e+01 2.559607856661834191e+01 2.690000000000000000e+02
-1.185055207167943614e+01 2.520458792026739303e+01 2.690000000000000000e+02
-1.141164273569130927e+01 2.481309727391643705e+01 2.690000000000000000e+02
-1.097273339970318240e+01 2.442160662756548462e+01 2.690000000000000000e+02
-1.053382406371505375e+01 2.403011598121453218e+01 2.690000000000000000e+02
-1.272837074365568988e+01 2.598756921296929789e+01 2.700000000000000000e+02
-1.228946140766756301e+01 2.559607856661834191e+01 2.700000000000000000e+02
-1.185055207167943614e+01 2.520458792026739303e+01 2.700000000000000000e+02
-1.141164273569130927e+01 2.481309727391643705e+01 2.700000000000000000e+02
-1.097273339970318240e+01 2.442160662756548462e+01 2.700000000000000000e+02
-1.053382406371505375e+01 2.403011598121453218e+01 2.700000000000000000e+02
-1.272837074365568988e+01 2.598756921296929789e+01 2.710000000000000000e+02
-1.228946140766756301e+01 2.559607856661834191e+01 2.710000000000000000e+02
-1.185055207167943614e+01 2.520458792026739303e+01 2.710000000000000000e+02
-1.141164273569130927e+01 2.481309727391643705e+01 2.710000000000000000e+02
-1.097273339970318240e+01 2.442160662756548462e+01 2.710000000000000000e+02
-1.053382406371505375e+01 2.403011598121453218e+01 2.710000000000000000e+02
-1.272837074365568988e+01 2.598756921296929789e+01 2.720000000000000000e+02
-1.228946140766756301e+01 2.559607856661834191e+01 2.720000000000000000e+02
-1.185055207167943614e+01 2.520458792026739303e+01 2.720000000000000000e+02
-1.141164273569130927e+01 2.481309727391643705e+01 2.720000000000000000e+02
-1.097273339970318240e+01 2.442160662756548462e+01 2.720000000000000000e+02
-1.053382406371505375e+01 2.403011598121453218e+01 2.720000000000000000e+02
-1.272837074365568988e+01 2.598756921296929789e+01 2.730000000000000000e+02
-1.228946140766756301e+01 2.559607856661834191e+01 2.730000000000000000e+02
-1.185055207167943614e+01 2.520458792026739303e+01 2.730000000000000000e+02
-1.141164273569130927e+01 2.481309727391643705e+01 2.730000000000000000e+02
-1.097273339970318240e+01 2.442160662756548462e+01 2.730000000000000000e+02
-1.053382406371505375e+01 2.403011598121453218e+01 2.730000000000000000e+02
-1.009491472772692688e+01 2.363862533486357975e+01 2.730000000000000000e+02
-1.294782541164975420e+01 2.642722021062463256e+01 2.740000000000000000e+02
-1.250891607566162733e+01 2.603572956427368013e+01 2.740000000000000000e+02
-1.207000673967349869e+01 2.564423891792272769e+01 2.740000000000000000e+02
-1.163109740368537359e+01 2.525274827157177526e+01 2.740000000000000000e+02
-1.119218806769724495e+01 2.486125762522082283e+01 2.740000000000000000e+02
-1.075327873170911808e+01 2.446976697886987040e+01 2.740000000000000000e+02
-1.031436939572099121e+01 2.407827633251891442e+01 2.740000000000000000e+02
-9.875460059732862561e+00 2.368678568616796554e+01 2.740000000000000000e+02
-1.294782541164975420e+01 2.642722021062463256e+01 2.750000000000000000e+02
-1.250891607566162733e+01 2.603572956427368013e+01 2.750000000000000000e+02
-1.207000673967349869e+01 2.564423891792272769e+01 2.750000000000000000e+02
-1.163109740368537359e+01 2.525274827157177526e+01 2.750000000000000000e+02
-1.119218806769724495e+01 2.486125762522082283e+01 2.750000000000000000e+02
-1.075327873170911808e+01 2.446976697886987040e+01 2.750000000000000000e+02
-1.031436939572099121e+01 2.407827633251891442e+01 2.750000000000000000e+02
-9.875460059732862561e+00 2.368678568616796554e+01 2.750000000000000000e+02
-1.294782541164975420e+01 2.642722021062463256e+01 2.760000000000000000e+02
-1.250891607566162733e+01 2.603572956427368013e+01 2.760000000000000000e+02
-1.207000673967349869e+01 2.564423891792272769e+01 2.760000000000000000e+02
-1.163109740368537359e+01 2.525274827157177526e+01 2.760000000000000000e+02
-1.119218806769724495e+01 2.486125762522082283e+01 2.760000000000000000e+02
-1.075327873170911808e+01 2.446976697886987040e+01 2.760000000000000000e+02
-1.031436939572099121e+01 2.407827633251891442e+01 2.760000000000000000e+02
-9.875460059732862561e+00 2.368678568616796554e+01 2.760000000000000000e+02
-1.294782541164975420e+01 2.642722021062463256e+01 2.770000000000000000e+02
-1.250891607566162733e+01 2.603572956427368013e+01 2.770000000000000000e+02
-1.207000673967349869e+01 2.564423891792272769e+01 2.770000000000000000e+02
-1.163109740368537359e+01 2.525274827157177526e+01 2.770000000000000000e+02
-1.119218806769724495e+01 2.486125762522082283e+01 2.770000000000000000e+02
-1.075327873170911808e+01 2.446976697886987040e+01 2.770000000000000000e+02
-1.031436939572099121e+01 2.407827633251891442e+01 2.770000000000000000e+02
-9.875460059732862561e+00 2.368678568616796554e+01 2.770000000000000000e+02
-1.272837074365568988e+01 2.598756921296929789e+01 2.780000000000000000e+02
-1.228946140766756301e+01 2.559607856661834191e+01 2.780000000000000000e+02
-1.185055207167943614e+01 2.520458792026739303e+01 2.780000000000000000e+02
-1.141164273569130927e+01 2.481309727391643705e+01 2.780000000000000000e+02
-1.097273339970318240e+01 2.442160662756548462e+01 2.780000000000000000e+02
-1.053382406371505375e+01 2.403011598121453218e+01 2.780000000000000000e+02
-1.272837074365568988e+01 2.598756921296929789e+01 2.790000000000000000e+02
-1.228946140766756301e+01 2.559607856661834191e+01 2.790000000000000000e+02
-1.185055207167943614e+01 2.520458792026739303e+01 2.790000000000000000e+02
-1.141164273569130927e+01 2.481309727391643705e+01 2.790000000000000000e+02
-1.097273339970318240e+01 2.442160662756548462e+01 2.790000000000000000e+02
-1.053382406371505375e+01 2.403011598121453218e+01 2.790000000000000000e+02
-1.272837074365568988e+01 2.598756921296929789e+01 2.800000000000000000e+02
-1.228946140766756301e+01 2.559607856661834191e+01 2.800000000000000000e+02
-1.185055207167943614e+01 2.520458792026739303e+01 2.800000000000000000e+02
-1.141164273569130927e+01 2.481309727391643705e+01 2.800000000000000000e+02
-1.097273339970318240e+01 2.442160662756548462e+01 2.800000000000000000e+02
-1.053382406371505375e+01 2.403011598121453218e+01 2.800000000000000000e+02
-1.250891607566162556e+01 2.554791821531395613e+01 2.810000000000000000e+02
-1.207000673967350046e+01 2.515642756896300725e+01 2.810000000000000000e+02
-1.163109740368537182e+01 2.476493692261205126e+01 2.810000000000000000e+02
-1.119218806769724672e+01 2.437344627626109883e+01 2.810000000000000000e+02
-1.075327873170911808e+01 2.398195562991014640e+01 2.810000000000000000e+02
-1.250891607566162556e+01 2.554791821531395613e+01 2.820000000000000000e+02
-1.207000673967350046e+01 2.515642756896300725e+01 2.820000000000000000e+02
-1.163109740368537182e+01 2.476493692261205126e+01 2.820000000000000000e+02
-1.119218806769724672e+01 2.437344627626109883e+01 2.820000000000000000e+02
-1.075327873170911808e+01 2.398195562991014640e+01 2.820000000000000000e+02
-1.272837074365568988e+01 2.598756921296929789e+01 2.830000000000000000e+02
-1.228946140766756301e+01 2.559607856661834191e+01 2.830000000000000000e+02
-1.185055207167943614e+01 2.520458792026739303e+01 2.830000000000000000e+02
-1.141164273569130927e+01 2.481309727391643705e+01 2.830000000000000000e+02
-1.097273339970318240e+01 2.442160662756548462e+01 2.830000000000000000e+02
-1.053382406371505375e+01 2.403011598121453218e+01 2.830000000000000000e+02
-1.272837074365568988e+01 2.598756921296929789e+01 2.840000000000000000e+02
-1.228946140766756301e+01 2.559607856661834191e+01 2.840000000000000000e+02
-1.185055207167943614e+01 2.520458792026739303e+01 2.840000000000000000e+02
-1.141164273569130927e+01 2.481309727391643705e+01 2.840000000000000000e+02
-1.097273339970318240e+01 2.442160662756548462e+01 2.840000000000000000e+02
-1.053382406371505375e+01 2.403011598121453218e+01 2.840000000000000000e+02
-1.272837074365568988e+01 2.598756921296929789e+01 2.850000000000000000e+02
-1.228946140766756301e+01 2.559607856661834191e+01 2.850000000000000000e+02
-1.185055207167943614e+01 2.520458792026739303e+01 2.850000000000000000e+02
-1.141164273569130927e+01 2.481309727391643705e+01 2.850000000000000000e+02
-1.097273339970318240e+01 2.442160662756548462e+01 2.850000000000000000e+02
-1.053382406371505375e+01 2.403011598121453218e+01 2.850000000000000000e+02
-1.272837074365568988e+01 2.598756921296929789e+01 2.860000000000000000e+02
-1.228946140766756301e+01 2.559607856661834191e+01 2.860000000000000000e+02
-1.185055207167943614e+01 2.520458792026739303e+01 2.860000000000000000e+02
-1.141164273569130927e+01 2.481309727391643705e+01 2.860000000000000000e+02
-1.097273339970318240e+01 2.442160662756548462e+01 2.860000000000000000e+02
-1.053382406371505375e+01 2.403011598121453218e+01 2.860000000000000000e+02
-1.272837074365568988e+01 2.598756921296929789e+01 2.870000000000000000e+02
-1.228946140766756301e+01 2.559607856661834191e+01 2.870000000000000000e+02
-1.185055207167943614e+01 2.520458792026739303e+01 2.870000000000000000e+02
-1.141164273569130927e+01 2.481309727391643705e+01 2.870000000000000000e+02
-1.097273339970318240e+01 2.442160662756548462e+01 2.870000000000000000e+02
-1.053382406371505375e+01 2.403011598121453218e+01 2.870000000000000000e+02
-1.272837074365568988e+01 2.598756921296929789e+01 2.880000000000000000e+02
-1.228946140766756301e+01 2.559607856661834191e+01 2.880000000000000000e+02
-1.185055207167943614e+01 2.520458792026739303e+01 2.880000000000000000e+02
-1.141164273569130927e+01 2.481309727391643705e+01 2.880000000000000000e+02
-1.097273339970318240e+01 2.442160662756548462e+01 2.880000000000000000e+02
-1.053382406371505375e+01 2.403011598121453218e+01 2.880000000000000000e+02
-1.272837074365568988e+01 2.598756921296929789e+01 2.890000000000000000e+02
-1.228946140766756301e+01 2.559607856661834191e+01 2.890000000000000000e+02
-1.185055207167943614e+01 2.520458792026739303e+01 2.890000000000000000e+02
-1.141164273569130927e+01 2.481309727391643705e+01 2.890000000000000000e+02
-1.097273339970318240e+01 2.442160662756548462e+01 2.890000000000000000e+02
-1.053382406371505375e+01 2.403011598121453218e+01 2.890000000000000000e+02
-1.272837074365568988e+01 2.598756921296929789e+01 2.900000000000000000e+02
-1.228946140766756301e+01 2.559607856661834191e+01 2.900000000000000000e+02
-1.185055207167943614e+01 2.520458792026739303e+01 2.900000000000000000e+02
-1.141164273569130927e+01 2.481309727391643705e+01 2.900000000000000000e+02
-1.097273339970318240e+01 2.442160662756548462e+01 2.900000000000000000e+02
-1.053382406371505375e+01 2.403011598121453218e+01 2.900000000000000000e+02
-1.272837074365568988e+01 2.598756921296929789e+01 2.910000000000000000e+02
-1.228946140766756301e+01 2.559607856661834191e+01 2.910000000000000000e+02
-1.185055207167943614e+01 2.520458792026739303e+01 2.910000000000000000e+02
-1.141164273569130927e+01 2.481309727391643705e+01 2.910000000000000000e+02
-1.097273339970318240e+01 2.442160662756548462e+01 2.910000000000000000e+02
-1.053382406371505375e+01 2.403011598121453218e+01 2.910000000000000000e+02
-1.272837074365568988e+01 2.598756921296929789e+01 2.920000000000000000e+02
-1.228946140766756301e+01 2.559607856661834191e+01 2.920000000000000000e+02
-1.185055207167943614e+01 2.520458792026739303e+01 2.920000000000000000e+02
-1.141164273569130927e+01 2.481309727391643705e+01 2.920000000000000000e+02
-1.097273339970318240e+01 2.442160662756548462e+01 2.920000000000000000e+02
-1.053382406371505375e+01 2.403011598121453218e+01 2.920000000000000000e+02
-1.272837074365568988e+01 2.598756921296929789e+01 2.930000000000000000e+02
-1.228946140766756301e+01 2.559607856661834191e+01 2.930000000000000000e+02
-1.185055207167943614e+01 2.520458792026739303e+01 2.930000000000000000e+02
-1.141164273569130927e+01 2.481309727391643705e+01 2.930000000000000000e+02
-1.097273339970318240e+01 2.442160662756548462e+01 2.930000000000000000e+02
-1.053382406371505375e+01 2.403011598121453218e+01 2.930000000000000000e+02
-1.272837074365568988e+01 2.598756921296929789e+01 2.940000000000000000e+02
-1.228946140766756301e+01 2.559607856661834191e+01 2.940000000000000000e+02
-1.185055207167943614e+01 2.520458792026739303e+01 2.940000000000000000e+02
-1.141164273569130927e+01 2.481309727391643705e+01 2.940000000000000000e+02
-1.097273339970318240e+01 2.442160662756548462e+01 2.940000000000000000e+02
-1.053382406371505375e+01 2.403011598121453218e+01 2.940000000000000000e+02
-1.294782541164975420e+01 2.642722021062463256e+01 2.950000000000000000e+02
-1.250891607566162733e+01 2.603572956427368013e+01 2.950000000000000000e+02
-1.207000673967349869e+01 2.564423891792272769e+01 2.950000000000000000e+02
-1.163109740368537359e+01 2.525274827157177526e+01 2.950000000000000000e+02
-1.119218806769724495e+01 2.486125762522082283e+01 2.950000000000000000e+02
-1.075327873170911808e+01 2.446976697886987040e+01 2.950000000000000000e+02
-1.031436939572099121e+01 2.407827633251891442e+01 2.950000000000000000e+02
-1.294782541164975420e+01 2.642722021062463256e+01 2.960000000000000000e+02
-1.250891607566162733e+01 2.603572956427368013e+01 2.960000000000000000e+02
-1.207000673967349869e+01 2.564423891792272769e+01 2.960000000000000000e+02
-1.163109740368537359e+01 2.525274827157177526e+01 2.960000000000000000e+02
-1.119218806769724495e+01 2.486125762522082283e+01 2.960000000000000000e+02
-1.075327873170911808e+01 2.446976697886987040e+01 2.960000000000000000e+02
-1.031436939572099121e+01 2.407827633251891442e+01 2.960000000000000000e+02
-1.294782541164975420e+01 2.642722021062463256e+01 2.970000000000000000e+02
-1.250891607566162733e+01 2.603572956427368013e+01 2.970000000000000000e+02
-1.207000673967349869e+01 2.564423891792272769e+01 2.970000000000000000e+02
-1.163109740368537359e+01 2.525274827157177526e+01 2.970000000000000000e+02
-1.119218806769724495e+01 2.486125762522082283e+01 2.970000000000000000e+02
-1.075327873170911808e+01 2.446976697886987040e+01 2.970000000000000000e+02
-1.031436939572099121e+01 2.407827633251891442e+01 2.970000000000000000e+02
-1.272837074365568988e+01 2.598756921296929789e+01 2.980000000000000000e+02
-1.228946140766756301e+01 2.559607856661834191e+01 2.980000000000000000e+02
-1.185055207167943614e+01 2.520458792026739303e+01 2.980000000000000000e+02
-1.141164273569130927e+01 2.481309727391643705e+01 2.980000000000000000e+02
-1.097273339970318240e+01 2.442160662756548462e+01 2.980000000000000000e+02
-1.053382406371505375e+01 2.403011598121453218e+01 2.980000000000000000e+02
-1.272837074365568988e+01 2.598756921296929789e+01 2.990000000000000000e+02
-1.228946140766756301e+01 2.559607856661834191e+01 2.990000000000000000e+02
-1.185055207167943614e+01 2.520458792026739303e+01 2.990000000000000000e+02
-1.141164273569130927e+01 2.481309727391643705e+01 2.990000000000000000e+02
-1.097273339970318240e+01 2.442160662756548462e+01 2.990000000000000000e+02
-1.053382406371505375e+01 2.403011598121453218e+01 2.990000000000000000e+02
-1.272837074365568988e+01 2.598756921296929789e+01 3.000000000000000000e+02
-1.228946140766756301e+01 2.559607856661834191e+01 3.000000000000000000e+02
-1.185055207167943614e+01 2.520458792026739303e+01 3.000000000000000000e+02
-1.141164273569130927e+01 2.481309727391643705e+01 3.000000000000000000e+02
-1.097273339970318240e+01 2.442160662756548462e+01 3.000000000000000000e+02
-1.053382406371505375e+01 2.403011598121453218e+01 3.000000000000000000e+02
-1.272837074365568988e+01 2.598756921296929789e+01 3.010000000000000000e+02
-1.228946140766756301e+01 2.559607856661834191e+01 3.010000000000000000e+02
-1.185055207167943614e+01 2.520458792026739303e+01 3.010000000000000000e+02
-1.141164273569130927e+01 2.481309727391643705e+01 3.010000000000000000e+02
-1.097273339970318240e+01 2.442160662756548462e+01 3.010000000000000000e+02
-1.053382406371505375e+01 2.403011598121453218e+01 3.010000000000000000e+02
-1.272837074365568988e+01 2.598756921296929789e+01 3.020000000000000000e+02
-1.228946140766756301e+01 2.559607856661834191e+01 3.020000000000000000e+02
-1.185055207167943614e+01 2.520458792026739303e+01 3.020000000000000000e+02
-1.141164273569130927e+01 2.481309727391643705e+01 3.020000000000000000e+02
-1.097273339970318240e+01 2.442160662756548462e+01 3.020000000000000000e+02
-1.053382406371505375e+01 2.403011598121453218e+01 3.020000000000000000e+02
-1.272837074365568988e+01 2.598756921296929789e+01 3.030000000000000000e+02
-1.228946140766756301e+01 2.559607856661834191e+01 3.030000000000000000e+02
-1.185055207167943614e+01 2.520458792026739303e+01 3.030000000000000000e+02
-1.141164273569130927e+01 2.481309727391643705e+01 3.030000000000000000e+02
-1.097273339970318240e+01 2.442160662756548462e+01 3.030000000000000000e+02
-1.053382406371505375e+01 2.403011598121453218e+01 3.030000000000000000e+02
-1.294782541164975420e+01 2.642722021062463256e+01 3.040000000000000000e+02
-1.250891607566162733e+01 2.603572956427368013e+01 3.040000000000000000e+02
-1.207000673967349869e+01 2.564423891792272769e+01 3.040000000000000000e+02
-1.163109740368537359e+01 2.525274827157177526e+01 3.040000000000000000e+02
-1.119218806769724495e+01 2.486125762522082283e+01 3.040000000000000000e+02
-1.075327873170911808e+01 2.446976697886987040e+01 3.040000000000000000e+02
-1.031436939572099121e+01 2.407827633251891442e+01 3.040000000000000000e+02
-1.272837074365568988e+01 2.598756921296929789e+01 3.050000000000000000e+02
-1.228946140766756301e+01 2.559607856661834191e+01 3.050000000000000000e+02
-1.185055207167943614e+01 2.520458792026739303e+01 3.050000000000000000e+02
-1.141164273569130927e+01 2.481309727391643705e+01 3.050000000000000000e+02
-1.097273339970318240e+01 2.442160662756548462e+01 3.050000000000000000e+02
-1.053382406371505375e+01 2.403011598121453218e+01 3.050000000000000000e+02
-1.272837074365568988e+01 2.598756921296929789e+01 3.060000000000000000e+02
-1.228946140766756301e+01 2.559607856661834191e+01 3.060000000000000000e+02
-1.185055207167943614e+01 2.520458792026739303e+01 3.060000000000000000e+02
-1.141164273569130927e+01 2.481309727391643705e+01 3.060000000000000000e+02
-1.097273339970318240e+01 2.442160662756548462e+01 3.060000000000000000e+02
-1.053382406371505375e+01 2.403011598121453218e+01 3.060000000000000000e+02
-1.272837074365568988e+01 2.598756921296929789e+01 3.070000000000000000e+02
-1.228946140766756301e+01 2.559607856661834191e+01 3.070000000000000000e+02
-1.185055207167943614e+01 2.520458792026739303e+01 3.070000000000000000e+02
-1.141164273569130927e+01 2.481309727391643705e+01 3.070000000000000000e+02
-1.097273339970318240e+01 2.442160662756548462e+01 3.070000000000000000e+02
-1.053382406371505375e+01 2.403011598121453218e+01 3.070000000000000000e+02
-1.272837074365568988e+01 2.598756921296929789e+01 3.080000000000000000e+02
-1.228946140766756301e+01 2.559607856661834191e+01 3.080000000000000000e+02
-1.185055207167943614e+01 2.520458792026739303e+01 3.080000000000000000e+02
-1.141164273569130927e+01 2.481309727391643705e+01 3.080000000000000000e+02
-1.097273339970318240e+01 2.442160662756548462e+01 3.080000000000000000e+02
-1.053382406371505375e+01 2.403011598121453218e+01 3.080000000000000000e+02
-1.272837074365568988e+01 2.598756921296929789e+01 3.090000000000000000e+02
-1.228946140766756301e+01 2.559607856661834191e+01 3.090000000000000000e+02
-1.185055207167943614e+01 2.520458792026739303e+01 3.090000000000000000e+02
-1.141164273569130927e+01 2.481309727391643705e+01 3.090000000000000000e+02
-1.097273339970318240e+01 2.442160662756548462e+01 3.090000000000000000e+02
-1.053382406371505375e+01 2.403011598121453218e+01 3.090000000000000000e+02
-1.272837074365568988e+01 2.598756921296929789e+01 3.100000000000000000e+02
-1.228946140766756301e+01 2.559607856661834191e+01 3.100000000000000000e+02
-1.185055207167943614e+01 2.520458792026739303e+01 3.100000000000000000e+02
-1.141164273569130927e+01 2.481309727391643705e+01 3.100000000000000000e+02
-1.097273339970318240e+01 2.442160662756548462e+01 3.100000000000000000e+02
-1.053382406371505375e+01 2.403011598121453218e+01 3.100000000000000000e+02
-1.272837074365568988e+01 2.598756921296929789e+01 3.110000000000000000e+02
-1.228946140766756301e+01 2.559607856661834191e+01 3.110000000000000000e+02
-1.185055207167943614e+01 2.520458792026739303e+01 3.110000000000000000e+02
-1.141164273569130927e+01 2.481309727391643705e+01 3.110000000000000000e+02
-1.097273339970318240e+01 2.442160662756548462e+01 3.110000000000000000e+02
-1.053382406371505375e+01 2.403011598121453218e+01 3.110000000000000000e+02
-1.272837074365568988e+01 2.598756921296929789e+01 3.120000000000000000e+02
-1.228946140766756301e+01 2.559607856661834191e+01 3.120000000000000000e+02
-1.185055207167943614e+01 2.520458792026739303e+01 3.120000000000000000e+02
-1.141164273569130927e+01 2.481309727391643705e+01 3.120000000000000000e+02
-1.097273339970318240e+01 2.442160662756548462e+01 3.120000000000000000e+02
-1.053382406371505375e+01 2.403011598121453218e+01 3.120000000000000000e+02
-1.294782541164975420e+01 2.642722021062463256e+01 3.130000000000000000e+02
-1.250891607566162733e+01 2.603572956427368013e+01 3.130000000000000000e+02
-1.207000673967349869e+01 2.564423891792272769e+01 3.130000000000000000e+02
-1.163109740368537359e+01 2.525274827157177526e+01 3.130000000000000000e+02
-1.119218806769724495e+01 2.486125762522082283e+01 3.130000000000000000e+02
-1.075327873170911808e+01 2.446976697886987040e+01 3.130000000000000000e+02
-1.031436939572099121e+01 2.407827633251891442e+01 3.130000000000000000e+02
-1.272837074365568988e+01 2.598756921296929789e+01 3.140000000000000000e+02
-1.228946140766756301e+01 2.559607856661834191e+01 3.140000000000000000e+02
-1.185055207167943614e+01 2.520458792026739303e+01 3.140000000000000000e+02
-1.141164273569130927e+01 2.481309727391643705e+01 3.140000000000000000e+02
-1.097273339970318240e+01 2.442160662756548462e+01 3.140000000000000000e+02
-1.053382406371505375e+01 2.403011598121453218e+01 3.140000000000000000e+02
-1.272837074365568988e+01 2.598756921296929789e+01 3.150000000000000000e+02
-1.228946140766756301e+01 2.559607856661834191e+01 3.150000000000000000e+02
-1.185055207167943614e+01 2.520458792026739303e+01 3.150000000000000000e+02
-1.141164273569130927e+01 2.481309727391643705e+01 3.150000000000000000e+02
-1.097273339970318240e+01 2.442160662756548462e+01 3.150000000000000000e+02
-1.053382406371505375e+01 2.403011598121453218e+01 3.150000000000000000e+02
-1.272837074365568988e+01 2.598756921296929789e+01 3.160000000000000000e+02
-1.228946140766756301e+01 2.559607856661834191e+01 3.160000000000000000e+02
-1.185055207167943614e+01 2.520458792026739303e+01 3.160000000000000000e+02
-1.141164273569130927e+01 2.481309727391643705e+01 3.160000000000000000e+02
-1.097273339970318240e+01 2.442160662756548462e+01 3.160000000000000000e+02
-1.053382406371505375e+01 2.403011598121453218e+01 3.160000000000000000e+02
-1.272837074365568988e+01 2.598756921296929789e+01 3.170000000000000000e+02
-1.228946140766756301e+01 2.559607856661834191e+01 3.170000000000000000e+02
-1.185055207167943614e+01 2.520458792026739303e+01 3.170000000000000000e+02
-1.141164273569130927e+01 2.481309727391643705e+01 3.170000000000000000e+02
-1.097273339970318240e+01 2.442160662756548462e+01 3.170000000000000000e+02
-1.053382406371505375e+01 2.403011598121453218e+01 3.170000000000000000e+02
-1.272837074365568988e+01 2.598756921296929789e+01 3.180000000000000000e+02
-1.228946140766756301e+01 2.559607856661834191e+01 3.180000000000000000e+02
-1.185055207167943614e+01 2.520458792026739303e+01 3.180000000000000000e+02
-1.141164273569130927e+01 2.481309727391643705e+01 3.180000000000000000e+02
-1.097273339970318240e+01 2.442160662756548462e+01 3.180000000000000000e+02
-1.053382406371505375e+01 2.403011598121453218e+01 3.180000000000000000e+02
-1.272837074365568988e+01 2.598756921296929789e+01 3.190000000000000000e+02
-1.228946140766756301e+01 2.559607856661834191e+01 3.190000000000000000e+02
-1.185055207167943614e+01 2.520458792026739303e+01 3.190000000000000000e+02
-1.141164273569130927e+01 2.481309727391643705e+01 3.190000000000000000e+02
-1.097273339970318240e+01 2.442160662756548462e+01 3.190000000000000000e+02
-1.053382406371505375e+01 2.403011598121453218e+01 3.190000000000000000e+02
-1.294782541164975420e+01 2.642722021062463256e+01 3.200000000000000000e+02
-1.250891607566162733e+01 2.603572956427368013e+01 3.200000000000000000e+02
-1.207000673967349869e+01 2.564423891792272769e+01 3.200000000000000000e+02
-1.163109740368537359e+01 2.525274827157177526e+01 3.200000000000000000e+02
-1.119218806769724495e+01 2.486125762522082283e+01 3.200000000000000000e+02
-1.075327873170911808e+01 2.446976697886987040e+01 3.200000000000000000e+02
-1.031436939572099121e+01 2.407827633251891442e+01 3.200000000000000000e+02
-1.294782541164975420e+01 2.642722021062463256e+01 3.210000000000000000e+02
-1.250891607566162733e+01 2.603572956427368013e+01 3.210000000000000000e+02
-1.207000673967349869e+01 2.564423891792272769e+01 3.210000000000000000e+02
-1.163109740368537359e+01 2.525274827157177526e+01 3.210000000000000000e+02
-1.119218806769724495e+01 2.486125762522082283e+01 3.210000000000000000e+02
-1.075327873170911808e+01 2.446976697886987040e+01 3.210000000000000000e+02
-1.031436939572099121e+01 2.407827633251891442e+01 3.210000000000000000e+02
-1.294782541164975420e+01 2.642722021062463256e+01 3.220000000000000000e+02
-1.250891607566162733e+01 2.603572956427368013e+01 3.220000000000000000e+02
