8.071202486208564508e+00 -6.054039087961731269e+01 4.410000000000000000e+02
7.936682444771754774e+00 -5.953138436495702734e+01 4.410000000000000000e+02
7.802162403334945040e+00 -5.852237785029673489e+01 4.410000000000000000e+02
7.667642361898136194e+00 -5.751337133563644954e+01 4.410000000000000000e+02
7.533122320461326460e+00 -5.650436482097615709e+01 4.410000000000000000e+02
8.609282651955801668e+00 -6.457641693825847540e+01 4.420000000000000000e+02
8.474762610518991934e+00 -6.356741042359818294e+01 4.420000000000000000e+02
8.340242569082182200e+00 -6.255840390893789049e+01 4.420000000000000000e+02
8.205722527645374242e+00 -6.154939739427760514e+01 4.420000000000000000e+02
8.071202486208564508e+00 -6.054039087961731269e+01 4.420000000000000000e+02
7.936682444771754774e+00 -5.953138436495702734e+01 4.420000000000000000e+02
7.802162403334945040e+00 -5.852237785029673489e+01 4.420000000000000000e+02
7.667642361898136194e+00 -5.751337133563644954e+01 4.420000000000000000e+02
7.533122320461326460e+00 -5.650436482097615709e+01 4.420000000000000000e+02
8.609282651955801668e+00 -6.457641693825847540e+01 4.430000000000000000e+02
8.474762610518991934e+00 -6.356741042359818294e+01 4.430000000000000000e+02
8.340242569082182200e+00 -6.255840390893789049e+01 4.430000000000000000e+02
8.205722527645374242e+00 -6.154939739427760514e+01 4.430000000000000000e+02
8.071202486208564508e+00 -6.054039087961731269e+01 4.430000000000000000e+02
7.936682444771754774e+00 -5.953138436495702734e+01 4.430000000000000000e+02
7.802162403334945040e+00 -5.852237785029673489e+01 4.430000000000000000e+02
7.667642361898136194e+00 -5.751337133563644954e+01 4.430000000000000000e+02
7.533122320461326460e+00 -5.650436482097615709e+01 4.430000000000000000e+02
8.609282651955801668e+00 -6.457641693825847540e+01 4.440000000000000000e+02
8.474762610518991934e+00 -6.356741042359818294e+01 4.440000000000000000e+02
8.340242569082182200e+00 -6.255840390893789049e+01 4.440000000000000000e+02
8.205722527645374242e+00 -6.154939739427760514e+01 4.440000000000000000e+02
8.071202486208564508e+00 -6.054039087961731269e+01 4.440000000000000000e+02
7.936682444771754774e+00 -5.953138436495702734e+01 4.440000000000000000e+02
7.802162403334945040e+00 -5.852237785029673489e+01 4.440000000000000000e+02
7.667642361898136194e+00 -5.751337133563644954e+01 4.440000000000000000e+02
8.609282651955801668e+00 -6.457641693825847540e+01 4.450000000000000000e+02
8.474762610518991934e+00 -6.356741042359818294e+01 4.450000000000000000e+02
8.340242569082182200e+00 -6.255840390893789049e+01 4.450000000000000000e+02
8.205722527645374242e+00 -6.154939739427760514e+01 4.450000000000000000e+02
8.071202486208564508e+00 -6.054039087961731269e+01 4.450000000000000000e+02
7.936682444771754774e+00 -5.953138436495702734e+01 4.450000000000000000e+02
7.802162403334945040e+00 -5.852237785029673489e+01 4.450000000000000000e+02
7.667642361898136194e+00 -5.751337133563644954e+01 4.450000000000000000e+02
8.609282651955801668e+00 -6.457641693825847540e+01 4.460000000000000000e+02
8.474762610518991934e+00 -6.356741042359818294e+01 4.460000000000000000e+02
8.340242569082182200e+00 -6.255840390893789049e+01 4.460000000000000000e+02
8.205722527645374242e+00 -6.154939739427760514e+01 4.460000000000000000e+02
8.071202486208564508e+00 -6.054039087961731269e+01 4.460000000000000000e+02
7.936682444771754774e+00 -5.953138436495702734e+01 4.460000000000000000e+02
7.802162403334945040e+00 -5.852237785029673489e+01 4.460000000000000000e+02
8.609282651955801668e+00 -6.457641693825847540e+01 4.470000000000000000e+02
8.474762610518991934e+00 -6.356741042359818294e+01 4.470000000000000000e+02
8.340242569082182200e+00 -6.255840390893789049e+01 4.470000000000000000e+02
8.205722527645374242e+00 -6.154939739427760514e+01 4.470000000000000000e+02
8.071202486208564508e+00 -6.054039087961731269e+01 4.470000000000000000e+02
7.936682444771754774e+00 -5.953138436495702734e+01 4.470000000000000000e+02
7.802162403334945040e+00 -5.852237785029673489e+01 4.470000000000000000e+02
8.474762610518991934e+00 -6.356741042359818294e+01 4.480000000000000000e+02
8.340242569082182200e+00 -6.255840390893789049e+01 4.480000000000000000e+02
8.205722527645374242e+00 -6.154939739427760514e+01 4.480000000000000000e+02
8.071202486208564508e+00 -6.054039087961731269e+01 4.480000000000000000e+02
2.690400828736188021e-01 -2.018013029320577356e+00 4.540000000000000000e+02
1.345200414368094011e-01 -1.009006514660288678e+00 4.540000000000000000e+02
2.690400828736188021e-01 -2.018013029320577356e+00 4.550000000000000000e+02
1.345200414368094011e-01 -1.009006514660288678e+00 4.550000000000000000e+02
2.690400828736188021e-01 -2.018013029320577356e+00 4.560000000000000000e+02
1.345200414368094011e-01 -1.009006514660288678e+00 4.560000000000000000e+02
2.690400828736188021e-01 -2.018013029320577356e+00 4.570000000000000000e+02
1.345200414368094011e-01 -1.009006514660288678e+00 4.570000000000000000e+02
1.345200414368094011e-01 -1.009006514660288678e+00 4.580000000000000000e+02
1.345200414368094011e-01 -1.009006514660288678e+00 4.590000000000000000e+02
1.345200414368094011e-01 -1.009006514660288678e+00 4.690000000000000000e+02
1.345200414368094011e-01 -1.009006514660288678e+00 4.700000000000000000e+02
2.690400828736188021e-01 -2.018013029320577356e+00 4.710000000000000000e+02
1.345200414368094011e-01 -1.009006514660288678e+00 4.710000000000000000e+02
2.690400828736188021e-01 -2.018013029320577356e+00 4.720000000000000000e+02
1.345200414368094011e-01 -1.009006514660288678e+00 4.720000000000000000e+02
4.035601243104282032e-01 -3.027019543980865368e+00 4.730000000000000000e+02
2.690400828736188021e-01 -2.018013029320577356e+00 4.730000000000000000e+02
1.345200414368094011e-01 -1.009006514660288678e+00 4.730000000000000000e+02
2.690400828736188021e-01 -2.018013029320577356e+00 4.740000000000000000e+02
1.345200414368094011e-01 -1.009006514660288678e+00 4.740000000000000000e+02
2.690400828736188021e-01 -2.018013029320577356e+00 4.750000000000000000e+02
1.345200414368094011e-01 -1.009006514660288678e+00 4.750000000000000000e+02
2.690400828736188021e-01 -2.018013029320577356e+00 4.760000000000000000e+02
1.345200414368094011e-01 -1.009006514660288678e+00 4.760000000000000000e+02
2.690400828736188021e-01 -2.018013029320577356e+00 4.770000000000000000e+02
1.345200414368094011e-01 -1.009006514660288678e+00 4.770000000000000000e+02
2.658219010619768596e+01 -7.204757534811672315e+01 1.180000000000000000e+02
2.618544100013503240e+01 -7.097223840262245176e+01 1.180000000000000000e+02
2.578869189407238238e+01 -6.989690145712816616e+01 1.180000000000000000e+02
2.539194278800972882e+01 -6.882156451163389477e+01 1.180000000000000000e+02
2.697893921226033598e+01 -7.312291229361100875e+01 1.190000000000000000e+02
2.658219010619768596e+01 -7.204757534811672315e+01 1.190000000000000000e+02
2.618544100013503240e+01 -7.097223840262245176e+01 1.190000000000000000e+02
2.578869189407238238e+01 -6.989690145712816616e+01 1.190000000000000000e+02
2.539194278800972882e+01 -6.882156451163389477e+01 1.190000000000000000e+02
2.697893921226033598e+01 -7.312291229361100875e+01 1.200000000000000000e+02
2.658219010619768596e+01 -7.204757534811672315e+01 1.200000000000000000e+02
2.618544100013503240e+01 -7.097223840262245176e+01 1.200000000000000000e+02
2.578869189407238238e+01 -6.989690145712816616e+01 1.200000000000000000e+02
2.539194278800972882e+01 -6.882156451163389477e+01 1.200000000000000000e+02
2.499519368194707525e+01 -6.774622756613960917e+01 1.200000000000000000e+02
2.697893921226033598e+01 -7.312291229361100875e+01 1.210000000000000000e+02
2.658219010619768596e+01 -7.204757534811672315e+01 1.210000000000000000e+02
2.618544100013503240e+01 -7.097223840262245176e+01 1.210000000000000000e+02
2.578869189407238238e+01 -6.989690145712816616e+01 1.210000000000000000e+02
2.539194278800972882e+01 -6.882156451163389477e+01 1.210000000000000000e+02
2.499519368194707525e+01 -6.774622756613960917e+01 1.210000000000000000e+02
2.697893921226033598e+01 -7.312291229361100875e+01 1.220000000000000000e+02
2.658219010619768596e+01 -7.204757534811672315e+01 1.220000000000000000e+02
2.618544100013503240e+01 -7.097223840262245176e+01 1.220000000000000000e+02
2.578869189407238238e+01 -6.989690145712816616e+01 1.220000000000000000e+02
2.539194278800972882e+01 -6.882156451163389477e+01 1.220000000000000000e+02
2.499519368194707525e+01 -6.774622756613960917e+01 1.220000000000000000e+02
2.459844457588442523e+01 -6.667089062064532357e+01 1.220000000000000000e+02
2.697893921226033598e+01 -7.312291229361100875e+01 1.230000000000000000e+02
2.658219010619768596e+01 -7.204757534811672315e+01 1.230000000000000000e+02
2.618544100013503240e+01 -7.097223840262245176e+01 1.230000000000000000e+02
2.578869189407238238e+01 -6.989690145712816616e+01 1.230000000000000000e+02
2.539194278800972882e+01 -6.882156451163389477e+01 1.230000000000000000e+02
2.499519368194707525e+01 -6.774622756613960917e+01 1.230000000000000000e+02
2.459844457588442523e+01 -6.667089062064532357e+01 1.230000000000000000e+02
2.737568831832298955e+01 -7.419824923910529435e+01 1.240000000000000000e+02
2.697893921226033598e+01 -7.312291229361100875e+01 1.240000000000000000e+02
2.658219010619768596e+01 -7.204757534811672315e+01 1.240000000000000000e+02
2.618544100013503240e+01 -7.097223840262245176e+01 1.240000000000000000e+02
2.578869189407238238e+01 -6.989690145712816616e+01 1.240000000000000000e+02
2.539194278800972882e+01 -6.882156451163389477e+01 1.240000000000000000e+02
2.499519368194707525e+01 -6.774622756613960917e+01 1.240000000000000000e+02
2.459844457588442523e+01 -6.667089062064532357e+01 1.240000000000000000e+02
2.737568831832298955e+01 -7.419824923910529435e+01 1.250000000000000000e+02
2.697893921226033598e+01 -7.312291229361100875e+01 1.250000000000000000e+02
2.658219010619768596e+01 -7.204757534811672315e+01 1.250000000000000000e+02
2.618544100013503240e+01 -7.097223840262245176e+01 1.250000000000000000e+02
2.578869189407238238e+01 -6.989690145712816616e+01 1.250000000000000000e+02
2.539194278800972882e+01 -6.882156451163389477e+01 1.250000000000000000e+02
2.499519368194707525e+01 -6.774622756613960917e+01 1.250000000000000000e+02
2.459844457588442523e+01 -6.667089062064532357e+01 1.250000000000000000e+02
2.737568831832298955e+01 -7.419824923910529435e+01 1.260000000000000000e+02
2.697893921226033598e+01 -7.312291229361100875e+01 1.260000000000000000e+02
2.658219010619768596e+01 -7.204757534811672315e+01 1.260000000000000000e+02
2.618544100013503240e+01 -7.097223840262245176e+01 1.260000000000000000e+02
2.578869189407238238e+01 -6.989690145712816616e+01 1.260000000000000000e+02
2.539194278800972882e+01 -6.882156451163389477e+01 1.260000000000000000e+02
2.499519368194707525e+01 -6.774622756613960917e+01 1.260000000000000000e+02
2.459844457588442523e+01 -6.667089062064532357e+01 1.260000000000000000e+02
2.737568831832298955e+01 -7.419824923910529435e+01 1.270000000000000000e+02
2.697893921226033598e+01 -7.312291229361100875e+01 1.270000000000000000e+02
2.658219010619768596e+01 -7.204757534811672315e+01 1.270000000000000000e+02
2.618544100013503240e+01 -7.097223840262245176e+01 1.270000000000000000e+02
2.578869189407238238e+01 -6.989690145712816616e+01 1.270000000000000000e+02
2.539194278800972882e+01 -6.882156451163389477e+01 1.270000000000000000e+02
2.499519368194707525e+01 -6.774622756613960917e+01 1.270000000000000000e+02
2.459844457588442523e+01 -6.667089062064532357e+01 1.270000000000000000e+02
2.737568831832298955e+01 -7.419824923910529435e+01 1.280000000000000000e+02
2.697893921226033598e+01 -7.312291229361100875e+01 1.280000000000000000e+02
2.658219010619768596e+01 -7.204757534811672315e+01 1.280000000000000000e+02
2.618544100013503240e+01 -7.097223840262245176e+01 1.280000000000000000e+02
2.578869189407238238e+01 -6.989690145712816616e+01 1.280000000000000000e+02
2.539194278800972882e+01 -6.882156451163389477e+01 1.280000000000000000e+02
2.499519368194707525e+01 -6.774622756613960917e+01 1.280000000000000000e+02
2.459844457588442523e+01 -6.667089062064532357e+01 1.280000000000000000e+02
2.777243742438563956e+01 -7.527358618459956574e+01 1.290000000000000000e+02
2.737568831832298955e+01 -7.419824923910529435e+01 1.290000000000000000e+02
2.697893921226033598e+01 -7.312291229361100875e+01 1.290000000000000000e+02
2.658219010619768596e+01 -7.204757534811672315e+01 1.290000000000000000e+02
2.618544100013503240e+01 -7.097223840262245176e+01 1.290000000000000000e+02
2.578869189407238238e+01 -6.989690145712816616e+01 1.290000000000000000e+02
2.539194278800972882e+01 -6.882156451163389477e+01 1.290000000000000000e+02
2.499519368194707525e+01 -6.774622756613960917e+01 1.290000000000000000e+02
2.459844457588442523e+01 -6.667089062064532357e+01 1.290000000000000000e+02
2.777243742438563956e+01 -7.527358618459956574e+01 1.300000000000000000e+02
2.737568831832298955e+01 -7.419824923910529435e+01 1.300000000000000000e+02
2.697893921226033598e+01 -7.312291229361100875e+01 1.300000000000000000e+02
2.658219010619768596e+01 -7.204757534811672315e+01 1.300000000000000000e+02
2.618544100013503240e+01 -7.097223840262245176e+01 1.300000000000000000e+02
2.578869189407238238e+01 -6.989690145712816616e+01 1.300000000000000000e+02
2.539194278800972882e+01 -6.882156451163389477e+01 1.300000000000000000e+02
2.499519368194707525e+01 -6.774622756613960917e+01 1.300000000000000000e+02
2.777243742438563956e+01 -7.527358618459956574e+01 1.310000000000000000e+02
2.737568831832298955e+01 -7.419824923910529435e+01 1.310000000000000000e+02
2.697893921226033598e+01 -7.312291229361100875e+01 1.310000000000000000e+02
2.658219010619768596e+01 -7.204757534811672315e+01 1.310000000000000000e+02
2.618544100013503240e+01 -7.097223840262245176e+01 1.310000000000000000e+02
2.578869189407238238e+01 -6.989690145712816616e+01 1.310000000000000000e+02
2.539194278800972882e+01 -6.882156451163389477e+01 1.310000000000000000e+02
2.499519368194707525e+01 -6.774622756613960917e+01 1.310000000000000000e+02
2.777243742438563956e+01 -7.527358618459956574e+01 1.320000000000000000e+02
2.737568831832298955e+01 -7.419824923910529435e+01 1.320000000000000000e+02
2.697893921226033598e+01 -7.312291229361100875e+01 1.320000000000000000e+02
2.658219010619768596e+01 -7.204757534811672315e+01 1.320000000000000000e+02
2.618544100013503240e+01 -7.097223840262245176e+01 1.320000000000000000e+02
2.578869189407238238e+01 -6.989690145712816616e+01 1.320000000000000000e+02
2.539194278800972882e+01 -6.882156451163389477e+01 1.320000000000000000e+02
2.499519368194707525e+01 -6.774622756613960917e+01 1.320000000000000000e+02
2.737568831832298955e+01 -7.419824923910529435e+01 1.330000000000000000e+02
2.697893921226033598e+01 -7.312291229361100875e+01 1.330000000000000000e+02
2.658219010619768596e+01 -7.204757534811672315e+01 1.330000000000000000e+02
2.618544100013503240e+01 -7.097223840262245176e+01 1.330000000000000000e+02
2.578869189407238238e+01 -6.989690145712816616e+01 1.330000000000000000e+02
2.539194278800972882e+01 -6.882156451163389477e+01 1.330000000000000000e+02
2.499519368194707525e+01 -6.774622756613960917e+01 1.330000000000000000e+02
2.737568831832298955e+01 -7.419824923910529435e+01 1.340000000000000000e+02
2.697893921226033598e+01 -7.312291229361100875e+01 1.340000000000000000e+02
2.658219010619768596e+01 -7.204757534811672315e+01 1.340000000000000000e+02
2.618544100013503240e+01 -7.097223840262245176e+01 1.340000000000000000e+02
2.578869189407238238e+01 -6.989690145712816616e+01 1.340000000000000000e+02
2.539194278800972882e+01 -6.882156451163389477e+01 1.340000000000000000e+02
2.499519368194707525e+01 -6.774622756613960917e+01 1.340000000000000000e+02
2.737568831832298955e+01 -7.419824923910529435e+01 1.350000000000000000e+02
2.697893921226033598e+01 -7.312291229361100875e+01 1.350000000000000000e+02
2.658219010619768596e+01 -7.204757534811672315e+01 1.350000000000000000e+02
2.618544100013503240e+01 -7.097223840262245176e+01 1.350000000000000000e+02
2.578869189407238238e+01 -6.989690145712816616e+01 1.350000000000000000e+02
2.539194278800972882e+01 -6.882156451163389477e+01 1.350000000000000000e+02
2.499519368194707525e+01 -6.774622756613960917e+01 1.350000000000000000e+02
2.737568831832298955e+01 -7.419824923910529435e+01 1.360000000000000000e+02
2.697893921226033598e+01 -7.312291229361100875e+01 1.360000000000000000e+02
2.658219010619768596e+01 -7.204757534811672315e+01 1.360000000000000000e+02
2.618544100013503240e+01 -7.097223840262245176e+01 1.360000000000000000e+02
2.578869189407238238e+01 -6.989690145712816616e+01 1.360000000000000000e+02
2.539194278800972882e+01 -6.882156451163389477e+01 1.360000000000000000e+02
2.499519368194707525e+01 -6.774622756613960917e+01 1.360000000000000000e+02
2.737568831832298955e+01 -7.419824923910529435e+01 1.370000000000000000e+02
2.697893921226033598e+01 -7.312291229361100875e+01 1.370000000000000000e+02
2.658219010619768596e+01 -7.204757534811672315e+01 1.370000000000000000e+02
2.618544100013503240e+01 -7.097223840262245176e+01 1.370000000000000000e+02
2.578869189407238238e+01 -6.989690145712816616e+01 1.370000000000000000e+02
2.539194278800972882e+01 -6.882156451163389477e+01 1.370000000000000000e+02
2.499519368194707525e+01 -6.774622756613960917e+01 1.370000000000000000e+02
2.737568831832298955e+01 -7.419824923910529435e+01 1.380000000000000000e+02
2.697893921226033598e+01 -7.312291229361100875e+01 1.380000000000000000e+02
2.658219010619768596e+01 -7.204757534811672315e+01 1.380000000000000000e+02
2.618544100013503240e+01 -7.097223840262245176e+01 1.380000000000000000e+02
2.578869189407238238e+01 -6.989690145712816616e+01 1.380000000000000000e+02
2.539194278800972882e+01 -6.882156451163389477e+01 1.380000000000000000e+02
2.499519368194707525e+01 -6.774622756613960917e+01 1.380000000000000000e+02
2.459844457588442523e+01 -6.667089062064532357e+01 1.380000000000000000e+02
2.697893921226033598e+01 -7.312291229361100875e+01 1.390000000000000000e+02
2.658219010619768596e+01 -7.204757534811672315e+01 1.390000000000000000e+02
2.618544100013503240e+01 -7.097223840262245176e+01 1.390000000000000000e+02
2.578869189407238238e+01 -6.989690145712816616e+01 1.390000000000000000e+02
2.539194278800972882e+01 -6.882156451163389477e+01 1.390000000000000000e+02
2.499519368194707525e+01 -6.774622756613960917e+01 1.390000000000000000e+02
2.459844457588442523e+01 -6.667089062064532357e+01 1.390000000000000000e+02
2.697893921226033598e+01 -7.312291229361100875e+01 1.400000000000000000e+02
2.658219010619768596e+01 -7.204757534811672315e+01 1.400000000000000000e+02
2.618544100013503240e+01 -7.097223840262245176e+01 1.400000000000000000e+02
2.578869189407238238e+01 -6.989690145712816616e+01 1.400000000000000000e+02
2.539194278800972882e+01 -6.882156451163389477e+01 1.400000000000000000e+02
2.499519368194707525e+01 -6.774622756613960917e+01 1.400000000000000000e+02
2.459844457588442523e+01 -6.667089062064532357e+01 1.400000000000000000e+02
2.697893921226033598e+01 -7.312291229361100875e+01 1.410000000000000000e+02
2.658219010619768596e+01 -7.204757534811672315e+01 1.410000000000000000e+02
2.618544100013503240e+01 -7.097223840262245176e+01 1.410000000000000000e+02
2.578869189407238238e+01 -6.989690145712816616e+01 1.410000000000000000e+02
2.539194278800972882e+01 -6.882156451163389477e+01 1.410000000000000000e+02
2.499519368194707525e+01 -6.774622756613960917e+01 1.410000000000000000e+02
2.459844457588442523e+01 -6.667089062064532357e+01 1.410000000000000000e+02
2.658219010619768596e+01 -7.204757534811672315e+01 1.420000000000000000e+02
2.618544100013503240e+01 -7.097223840262245176e+01 1.420000000000000000e+02
2.578869189407238238e+01 -6.989690145712816616e+01 1.420000000000000000e+02
2.539194278800972882e+01 -6.882156451163389477e+01 1.420000000000000000e+02
2.499519368194707525e+01 -6.774622756613960917e+01 1.420000000000000000e+02
2.459844457588442523e+01 -6.667089062064532357e+01 1.420000000000000000e+02
2.658219010619768596e+01 -7.204757534811672315e+01 1.430000000000000000e+02
2.618544100013503240e+01 -7.097223840262245176e+01 1.430000000000000000e+02
2.578869189407238238e+01 -6.989690145712816616e+01 1.430000000000000000e+02
2.539194278800972882e+01 -6.882156451163389477e+01 1.430000000000000000e+02
2.499519368194707525e+01 -6.774622756613960917e+01 1.430000000000000000e+02
2.459844457588442523e+01 -6.667089062064532357e+01 1.430000000000000000e+02
2.420169546982177167e+01 -6.559555367515105218e+01 1.430000000000000000e+02
2.658219010619768596e+01 -7.204757534811672315e+01 1.440000000000000000e+02
2.618544100013503240e+01 -7.097223840262245176e+01 1.440000000000000000e+02
2.578869189407238238e+01 -6.989690145712816616e+01 1.440000000000000000e+02
2.539194278800972882e+01 -6.882156451163389477e+01 1.440000000000000000e+02
2.499519368194707525e+01 -6.774622756613960917e+01 1.440000000000000000e+02
2.459844457588442523e+01 -6.667089062064532357e+01 1.440000000000000000e+02
2.420169546982177167e+01 -6.559555367515105218e+01 1.440000000000000000e+02
2.618544100013503240e+01 -7.097223840262245176e+01 1.450000000000000000e+02
2.578869189407238238e+01 -6.989690145712816616e+01 1.450000000000000000e+02
2.539194278800972882e+01 -6.882156451163389477e+01 1.450000000000000000e+02
2.499519368194707525e+01 -6.774622756613960917e+01 1.450000000000000000e+02
2.459844457588442523e+01 -6.667089062064532357e+01 1.450000000000000000e+02
2.420169546982177167e+01 -6.559555367515105218e+01 1.450000000000000000e+02
2.380494636375912165e+01 -6.452021672965676657e+01 1.450000000000000000e+02
2.578869189407238238e+01 -6.989690145712816616e+01 1.460000000000000000e+02
2.539194278800972882e+01 -6.882156451163389477e+01 1.460000000000000000e+02
2.499519368194707525e+01 -6.774622756613960917e+01 1.460000000000000000e+02
2.459844457588442523e+01 -6.667089062064532357e+01 1.460000000000000000e+02
2.420169546982177167e+01 -6.559555367515105218e+01 1.460000000000000000e+02
2.380494636375912165e+01 -6.452021672965676657e+01 1.460000000000000000e+02
2.578869189407238238e+01 -6.989690145712816616e+01 1.470000000000000000e+02
2.539194278800972882e+01 -6.882156451163389477e+01 1.470000000000000000e+02
2.499519368194707525e+01 -6.774622756613960917e+01 1.470000000000000000e+02
2.459844457588442523e+01 -6.667089062064532357e+01 1.470000000000000000e+02
2.420169546982177167e+01 -6.559555367515105218e+01 1.470000000000000000e+02
2.380494636375912165e+01 -6.452021672965676657e+01 1.470000000000000000e+02
2.340819725769646809e+01 -6.344487978416248808e+01 1.470000000000000000e+02
2.539194278800972882e+01 -6.882156451163389477e+01 1.480000000000000000e+02
2.499519368194707525e+01 -6.774622756613960917e+01 1.480000000000000000e+02
2.459844457588442523e+01 -6.667089062064532357e+01 1.480000000000000000e+02
2.420169546982177167e+01 -6.559555367515105218e+01 1.480000000000000000e+02
2.380494636375912165e+01 -6.452021672965676657e+01 1.480000000000000000e+02
2.340819725769646809e+01 -6.344487978416248808e+01 1.480000000000000000e+02
2.539194278800972882e+01 -6.882156451163389477e+01 1.490000000000000000e+02
2.499519368194707525e+01 -6.774622756613960917e+01 1.490000000000000000e+02
2.459844457588442523e+01 -6.667089062064532357e+01 1.490000000000000000e+02
2.420169546982177167e+01 -6.559555367515105218e+01 1.490000000000000000e+02
2.380494636375912165e+01 -6.452021672965676657e+01 1.490000000000000000e+02
2.340819725769646809e+01 -6.344487978416248808e+01 1.490000000000000000e+02
2.301144815163381807e+01 -6.236954283866821669e+01 1.490000000000000000e+02
2.499519368194707525e+01 -6.774622756613960917e+01 1.500000000000000000e+02
2.459844457588442523e+01 -6.667089062064532357e+01 1.500000000000000000e+02
2.420169546982177167e+01 -6.559555367515105218e+01 1.500000000000000000e+02
2.380494636375912165e+01 -6.452021672965676657e+01 1.500000000000000000e+02
2.340819725769646809e+01 -6.344487978416248808e+01 1.500000000000000000e+02
2.301144815163381807e+01 -6.236954283866821669e+01 1.500000000000000000e+02
2.499519368194707525e+01 -6.774622756613960917e+01 1.510000000000000000e+02
2.459844457588442523e+01 -6.667089062064532357e+01 1.510000000000000000e+02
2.420169546982177167e+01 -6.559555367515105218e+01 1.510000000000000000e+02
2.380494636375912165e+01 -6.452021672965676657e+01 1.510000000000000000e+02
2.340819725769646809e+01 -6.344487978416248808e+01 1.510000000000000000e+02
2.301144815163381807e+01 -6.236954283866821669e+01 1.510000000000000000e+02
2.499519368194707525e+01 -6.774622756613960917e+01 1.520000000000000000e+02
2.459844457588442523e+01 -6.667089062064532357e+01 1.520000000000000000e+02
2.420169546982177167e+01 -6.559555367515105218e+01 1.520000000000000000e+02
2.380494636375912165e+01 -6.452021672965676657e+01 1.520000000000000000e+02
2.340819725769646809e+01 -6.344487978416248808e+01 1.520000000000000000e+02
2.301144815163381807e+01 -6.236954283866821669e+01 1.520000000000000000e+02
2.261469904557116450e+01 -6.129420589317393819e+01 1.520000000000000000e+02
2.499519368194707525e+01 -6.774622756613960917e+01 1.530000000000000000e+02
2.459844457588442523e+01 -6.667089062064532357e+01 1.530000000000000000e+02
2.420169546982177167e+01 -6.559555367515105218e+01 1.530000000000000000e+02
2.380494636375912165e+01 -6.452021672965676657e+01 1.530000000000000000e+02
2.340819725769646809e+01 -6.344487978416248808e+01 1.530000000000000000e+02
2.301144815163381807e+01 -6.236954283866821669e+01 1.530000000000000000e+02
2.261469904557116450e+01 -6.129420589317393819e+01 1.530000000000000000e+02
2.221794993950851449e+01 -6.021886894767965259e+01 1.530000000000000000e+02
2.499519368194707525e+01 -6.774622756613960917e+01 1.540000000000000000e+02
2.459844457588442523e+01 -6.667089062064532357e+01 1.540000000000000000e+02
2.420169546982177167e+01 -6.559555367515105218e+01 1.540000000000000000e+02
2.380494636375912165e+01 -6.452021672965676657e+01 1.540000000000000000e+02
2.340819725769646809e+01 -6.344487978416248808e+01 1.540000000000000000e+02
2.301144815163381807e+01 -6.236954283866821669e+01 1.540000000000000000e+02
2.261469904557116450e+01 -6.129420589317393819e+01 1.540000000000000000e+02
2.221794993950851449e+01 -6.021886894767965259e+01 1.540000000000000000e+02
2.499519368194707525e+01 -6.774622756613960917e+01 1.550000000000000000e+02
2.459844457588442523e+01 -6.667089062064532357e+01 1.550000000000000000e+02
2.420169546982177167e+01 -6.559555367515105218e+01 1.550000000000000000e+02
2.380494636375912165e+01 -6.452021672965676657e+01 1.550000000000000000e+02
2.340819725769646809e+01 -6.344487978416248808e+01 1.550000000000000000e+02
2.301144815163381807e+01 -6.236954283866821669e+01 1.550000000000000000e+02
2.261469904557116450e+01 -6.129420589317393819e+01 1.550000000000000000e+02
2.221794993950851449e+01 -6.021886894767965259e+01 1.550000000000000000e+02
2.459844457588442523e+01 -6.667089062064532357e+01 1.560000000000000000e+02
2.420169546982177167e+01 -6.559555367515105218e+01 1.560000000000000000e+02
2.380494636375912165e+01 -6.452021672965676657e+01 1.560000000000000000e+02
2.340819725769646809e+01 -6.344487978416248808e+01 1.560000000000000000e+02
2.301144815163381807e+01 -6.236954283866821669e+01 1.560000000000000000e+02
2.261469904557116450e+01 -6.129420589317393819e+01 1.560000000000000000e+02
2.221794993950851449e+01 -6.021886894767965259e+01 1.560000000000000000e+02
2.459844457588442523e+01 -6.667089062064532357e+01 1.570000000000000000e+02
2.420169546982177167e+01 -6.559555367515105218e+01 1.570000000000000000e+02
2.380494636375912165e+01 -6.452021672965676657e+01 1.570000000000000000e+02
2.340819725769646809e+01 -6.344487978416248808e+01 1.570000000000000000e+02
2.301144815163381807e+01 -6.236954283866821669e+01 1.570000000000000000e+02
2.261469904557116450e+01 -6.129420589317393819e+01 1.570000000000000000e+02
2.221794993950851449e+01 -6.021886894767965259e+01 1.570000000000000000e+02
2.182120083344586092e+01 -5.914353200218537410e+01 1.570000000000000000e+02
2.420169546982177167e+01 -6.559555367515105218e+01 1.580000000000000000e+02
2.380494636375912165e+01 -6.452021672965676657e+01 1.580000000000000000e+02
2.340819725769646809e+01 -6.344487978416248808e+01 1.580000000000000000e+02
2.301144815163381807e+01 -6.236954283866821669e+01 1.580000000000000000e+02
2.261469904557116450e+01 -6.129420589317393819e+01 1.580000000000000000e+02
2.221794993950851449e+01 -6.021886894767965259e+01 1.580000000000000000e+02
2.182120083344586092e+01 -5.914353200218537410e+01 1.580000000000000000e+02
2.420169546982177167e+01 -6.559555367515105218e+01 1.590000000000000000e+02
2.380494636375912165e+01 -6.452021672965676657e+01 1.590000000000000000e+02
2.340819725769646809e+01 -6.344487978416248808e+01 1.590000000000000000e+02
2.301144815163381807e+01 -6.236954283866821669e+01 1.590000000000000000e+02
2.261469904557116450e+01 -6.129420589317393819e+01 1.590000000000000000e+02
2.221794993950851449e+01 -6.021886894767965259e+01 1.590000000000000000e+02
2.182120083344586092e+01 -5.914353200218537410e+01 1.590000000000000000e+02
2.420169546982177167e+01 -6.559555367515105218e+01 1.600000000000000000e+02
2.380494636375912165e+01 -6.452021672965676657e+01 1.600000000000000000e+02
2.340819725769646809e+01 -6.344487978416248808e+01 1.600000000000000000e+02
2.301144815163381807e+01 -6.236954283866821669e+01 1.600000000000000000e+02
2.261469904557116450e+01 -6.129420589317393819e+01 1.600000000000000000e+02
2.221794993950851449e+01 -6.021886894767965259e+01 1.600000000000000000e+02
2.182120083344586092e+01 -5.914353200218537410e+01 1.600000000000000000e+02
2.142445172738320736e+01 -5.806819505669108850e+01 1.600000000000000000e+02
2.420169546982177167e+01 -6.559555367515105218e+01 1.610000000000000000e+02
2.380494636375912165e+01 -6.452021672965676657e+01 1.610000000000000000e+02
2.340819725769646809e+01 -6.344487978416248808e+01 1.610000000000000000e+02
2.301144815163381807e+01 -6.236954283866821669e+01 1.610000000000000000e+02
2.261469904557116450e+01 -6.129420589317393819e+01 1.610000000000000000e+02
2.221794993950851449e+01 -6.021886894767965259e+01 1.610000000000000000e+02
2.182120083344586092e+01 -5.914353200218537410e+01 1.610000000000000000e+02
2.142445172738320736e+01 -5.806819505669108850e+01 1.610000000000000000e+02
2.420169546982177167e+01 -6.559555367515105218e+01 1.620000000000000000e+02
2.380494636375912165e+01 -6.452021672965676657e+01 1.620000000000000000e+02
2.340819725769646809e+01 -6.344487978416248808e+01 1.620000000000000000e+02
2.301144815163381807e+01 -6.236954283866821669e+01 1.620000000000000000e+02
2.261469904557116450e+01 -6.129420589317393819e+01 1.620000000000000000e+02
2.221794993950851449e+01 -6.021886894767965259e+01 1.620000000000000000e+02
2.182120083344586092e+01 -5.914353200218537410e+01 1.620000000000000000e+02
2.142445172738320736e+01 -5.806819505669108850e+01 1.620000000000000000e+02
2.420169546982177167e+01 -6.559555367515105218e+01 1.630000000000000000e+02
2.380494636375912165e+01 -6.452021672965676657e+01 1.630000000000000000e+02
2.340819725769646809e+01 -6.344487978416248808e+01 1.630000000000000000e+02
2.301144815163381807e+01 -6.236954283866821669e+01 1.630000000000000000e+02
2.261469904557116450e+01 -6.129420589317393819e+01 1.630000000000000000e+02
2.221794993950851449e+01 -6.021886894767965259e+01 1.630000000000000000e+02
2.182120083344586092e+01 -5.914353200218537410e+01 1.630000000000000000e+02
2.142445172738320736e+01 -5.806819505669108850e+01 1.630000000000000000e+02
2.420169546982177167e+01 -6.559555367515105218e+01 1.640000000000000000e+02
2.380494636375912165e+01 -6.452021672965676657e+01 1.640000000000000000e+02
2.340819725769646809e+01 -6.344487978416248808e+01 1.640000000000000000e+02
2.301144815163381807e+01 -6.236954283866821669e+01 1.640000000000000000e+02
2.261469904557116450e+01 -6.129420589317393819e+01 1.640000000000000000e+02
2.221794993950851449e+01 -6.021886894767965259e+01 1.640000000000000000e+02
2.182120083344586092e+01 -5.914353200218537410e+01 1.640000000000000000e+02
2.142445172738320736e+01 -5.806819505669108850e+01 1.640000000000000000e+02
2.380494636375912165e+01 -6.452021672965676657e+01 1.650000000000000000e+02
2.340819725769646809e+01 -6.344487978416248808e+01 1.650000000000000000e+02
2.301144815163381807e+01 -6.236954283866821669e+01 1.650000000000000000e+02
2.261469904557116450e+01 -6.129420589317393819e+01 1.650000000000000000e+02
2.221794993950851449e+01 -6.021886894767965259e+01 1.650000000000000000e+02
2.182120083344586092e+01 -5.914353200218537410e+01 1.650000000000000000e+02
2.142445172738320736e+01 -5.806819505669108850e+01 1.650000000000000000e+02
2.380494636375912165e+01 -6.452021672965676657e+01 1.660000000000000000e+02
2.340819725769646809e+01 -6.344487978416248808e+01 1.660000000000000000e+02
2.301144815163381807e+01 -6.236954283866821669e+01 1.660000000000000000e+02
2.261469904557116450e+01 -6.129420589317393819e+01 1.660000000000000000e+02
2.221794993950851449e+01 -6.021886894767965259e+01 1.660000000000000000e+02
2.182120083344586092e+01 -5.914353200218537410e+01 1.660000000000000000e+02
2.142445172738320736e+01 -5.806819505669108850e+01 1.660000000000000000e+02
2.380494636375912165e+01 -6.452021672965676657e+01 1.670000000000000000e+02
2.340819725769646809e+01 -6.344487978416248808e+01 1.670000000000000000e+02
2.301144815163381807e+01 -6.236954283866821669e+01 1.670000000000000000e+02
2.261469904557116450e+01 -6.129420589317393819e+01 1.670000000000000000e+02
2.221794993950851449e+01 -6.021886894767965259e+01 1.670000000000000000e+02
2.182120083344586092e+01 -5.914353200218537410e+01 1.670000000000000000e+02
2.142445172738320736e+01 -5.806819505669108850e+01 1.670000000000000000e+02
2.102770262132055734e+01 -5.699285811119681711e+01 1.670000000000000000e+02
2.380494636375912165e+01 -6.452021672965676657e+01 1.680000000000000000e+02
2.340819725769646809e+01 -6.344487978416248808e+01 1.680000000000000000e+02
2.301144815163381807e+01 -6.236954283866821669e+01 1.680000000000000000e+02
2.261469904557116450e+01 -6.129420589317393819e+01 1.680000000000000000e+02
2.221794993950851449e+01 -6.021886894767965259e+01 1.680000000000000000e+02
2.182120083344586092e+01 -5.914353200218537410e+01 1.680000000000000000e+02
2.142445172738320736e+01 -5.806819505669108850e+01 1.680000000000000000e+02
2.102770262132055734e+01 -5.699285811119681711e+01 1.680000000000000000e+02
2.380494636375912165e+01 -6.452021672965676657e+01 1.690000000000000000e+02
2.340819725769646809e+01 -6.344487978416248808e+01 1.690000000000000000e+02
2.301144815163381807e+01 -6.236954283866821669e+01 1.690000000000000000e+02
2.261469904557116450e+01 -6.129420589317393819e+01 1.690000000000000000e+02
2.221794993950851449e+01 -6.021886894767965259e+01 1.690000000000000000e+02
2.182120083344586092e+01 -5.914353200218537410e+01 1.690000000000000000e+02
2.142445172738320736e+01 -5.806819505669108850e+01 1.690000000000000000e+02
2.102770262132055734e+01 -5.699285811119681711e+01 1.690000000000000000e+02
2.380494636375912165e+01 -6.452021672965676657e+01 1.700000000000000000e+02
2.340819725769646809e+01 -6.344487978416248808e+01 1.700000000000000000e+02
2.301144815163381807e+01 -6.236954283866821669e+01 1.700000000000000000e+02
2.261469904557116450e+01 -6.129420589317393819e+01 1.700000000000000000e+02
2.221794993950851449e+01 -6.021886894767965259e+01 1.700000000000000000e+02
2.182120083344586092e+01 -5.914353200218537410e+01 1.700000000000000000e+02
2.142445172738320736e+01 -5.806819505669108850e+01 1.700000000000000000e+02
2.102770262132055734e+01 -5.699285811119681711e+01 1.700000000000000000e+02
2.380494636375912165e+01 -6.452021672965676657e+01 1.710000000000000000e+02
2.340819725769646809e+01 -6.344487978416248808e+01 1.710000000000000000e+02
2.301144815163381807e+01 -6.236954283866821669e+01 1.710000000000000000e+02
2.261469904557116450e+01 -6.129420589317393819e+01 1.710000000000000000e+02
2.221794993950851449e+01 -6.021886894767965259e+01 1.710000000000000000e+02
2.182120083344586092e+01 -5.914353200218537410e+01 1.710000000000000000e+02
2.142445172738320736e+01 -5.806819505669108850e+01 1.710000000000000000e+02
2.102770262132055734e+01 -5.699285811119681711e+01 1.710000000000000000e+02
2.340819725769646809e+01 -6.344487978416248808e+01 1.720000000000000000e+02
2.301144815163381807e+01 -6.236954283866821669e+01 1.720000000000000000e+02
2.261469904557116450e+01 -6.129420589317393819e+01 1.720000000000000000e+02
2.221794993950851449e+01 -6.021886894767965259e+01 1.720000000000000000e+02
2.182120083344586092e+01 -5.914353200218537410e+01 1.720000000000000000e+02
2.142445172738320736e+01 -5.806819505669108850e+01 1.720000000000000000e+02
2.102770262132055734e+01 -5.699285811119681711e+01 1.720000000000000000e+02
2.340819725769646809e+01 -6.344487978416248808e+01 1.730000000000000000e+02
2.301144815163381807e+01 -6.236954283866821669e+01 1.730000000000000000e+02
2.261469904557116450e+01 -6.129420589317393819e+01 1.730000000000000000e+02
2.221794993950851449e+01 -6.021886894767965259e+01 1.730000000000000000e+02
2.182120083344586092e+01 -5.914353200218537410e+01 1.730000000000000000e+02
2.142445172738320736e+01 -5.806819505669108850e+01 1.730000000000000000e+02
2.102770262132055734e+01 -5.699285811119681711e+01 1.730000000000000000e+02
2.340819725769646809e+01 -6.344487978416248808e+01 1.740000000000000000e+02
2.301144815163381807e+01 -6.236954283866821669e+01 1.740000000000000000e+02
2.261469904557116450e+01 -6.129420589317393819e+01 1.740000000000000000e+02
2.221794993950851449e+01 -6.021886894767965259e+01 1.740000000000000000e+02
2.182120083344586092e+01 -5.914353200218537410e+01 1.740000000000000000e+02
2.142445172738320736e+01 -5.806819505669108850e+01 1.740000000000000000e+02
2.102770262132055734e+01 -5.699285811119681711e+01 1.740000000000000000e+02
2.340819725769646809e+01 -6.344487978416248808e+01 1.750000000000000000e+02
2.301144815163381807e+01 -6.236954283866821669e+01 1.750000000000000000e+02
2.261469904557116450e+01 -6.129420589317393819e+01 1.750000000000000000e+02
2.221794993950851449e+01 -6.021886894767965259e+01 1.750000000000000000e+02
2.182120083344586092e+01 -5.914353200218537410e+01 1.750000000000000000e+02
2.142445172738320736e+01 -5.806819505669108850e+01 1.750000000000000000e+02
2.102770262132055734e+01 -5.699285811119681711e+01 1.750000000000000000e+02
2.340819725769646809e+01 -6.344487978416248808e+01 1.760000000000000000e+02
2.301144815163381807e+01 -6.236954283866821669e+01 1.760000000000000000e+02
2.261469904557116450e+01 -6.129420589317393819e+01 1.760000000000000000e+02
2.221794993950851449e+01 -6.021886894767965259e+01 1.760000000000000000e+02
2.182120083344586092e+01 -5.914353200218537410e+01 1.760000000000000000e+02
2.142445172738320736e+01 -5.806819505669108850e+01 1.760000000000000000e+02
2.102770262132055734e+01 -5.699285811119681711e+01 1.760000000000000000e+02
2.340819725769646809e+01 -6.344487978416248808e+01 1.770000000000000000e+02
2.301144815163381807e+01 -6.236954283866821669e+01 1.770000000000000000e+02
2.261469904557116450e+01 -6.129420589317393819e+01 1.770000000000000000e+02
2.221794993950851449e+01 -6.021886894767965259e+01 1.770000000000000000e+02
2.182120083344586092e+01 -5.914353200218537410e+01 1.770000000000000000e+02
2.142445172738320736e+01 -5.806819505669108850e+01 1.770000000000000000e+02
2.102770262132055734e+01 -5.699285811119681711e+01 1.770000000000000000e+02
2.340819725769646809e+01 -6.344487978416248808e+01 1.780000000000000000e+02
2.301144815163381807e+01 -6.236954283866821669e+01 1.780000000000000000e+02
2.261469904557116450e+01 -6.129420589317393819e+01 1.780000000000000000e+02
2.221794993950851449e+01 -6.021886894767965259e+01 1.780000000000000000e+02
2.182120083344586092e+01 -5.914353200218537410e+01 1.780000000000000000e+02
2.142445172738320736e+01 -5.806819505669108850e+01 1.780000000000000000e+02
2.102770262132055734e+01 -5.699285811119681711e+01 1.780000000000000000e+02
2.063095351525790377e+01 -5.591752116570253861e+01 1.780000000000000000e+02
2.340819725769646809e+01 -6.344487978416248808e+01 1.790000000000000000e+02
2.301144815163381807e+01 -6.236954283866821669e+01 1.790000000000000000e+02
2.261469904557116450e+01 -6.129420589317393819e+01 1.790000000000000000e+02
2.221794993950851449e+01 -6.021886894767965259e+01 1.790000000000000000e+02
2.182120083344586092e+01 -5.914353200218537410e+01 1.790000000000000000e+02
2.142445172738320736e+01 -5.806819505669108850e+01 1.790000000000000000e+02
2.102770262132055734e+01 -5.699285811119681711e+01 1.790000000000000000e+02
2.063095351525790377e+01 -5.591752116570253861e+01 1.790000000000000000e+02
2.340819725769646809e+01 -6.344487978416248808e+01 1.800000000000000000e+02
2.301144815163381807e+01 -6.236954283866821669e+01 1.800000000000000000e+02
2.261469904557116450e+01 -6.129420589317393819e+01 1.800000000000000000e+02
2.221794993950851449e+01 -6.021886894767965259e+01 1.800000000000000000e+02
2.182120083344586092e+01 -5.914353200218537410e+01 1.800000000000000000e+02
2.142445172738320736e+01 -5.806819505669108850e+01 1.800000000000000000e+02
2.102770262132055734e+01 -5.699285811119681711e+01 1.800000000000000000e+02
2.063095351525790377e+01 -5.591752116570253861e+01 1.800000000000000000e+02
2.340819725769646809e+01 -6.344487978416248808e+01 1.810000000000000000e+02
2.301144815163381807e+01 -6.236954283866821669e+01 1.810000000000000000e+02
2.261469904557116450e+01 -6.129420589317393819e+01 1.810000000000000000e+02
2.221794993950851449e+01 -6.021886894767965259e+01 1.810000000000000000e+02
2.182120083344586092e+01 -5.914353200218537410e+01 1.810000000000000000e+02
2.142445172738320736e+01 -5.806819505669108850e+01 1.810000000000000000e+02
2.102770262132055734e+01 -5.699285811119681711e+01 1.810000000000000000e+02
2.340819725769646809e+01 -6.344487978416248808e+01 1.820000000000000000e+02
2.301144815163381807e+01 -6.236954283866821669e+01 1.820000000000000000e+02
2.261469904557116450e+01 -6.129420589317393819e+01 1.820000000000000000e+02
2.221794993950851449e+01 -6.021886894767965259e+01 1.820000000000000000e+02
2.182120083344586092e+01 -5.914353200218537410e+01 1.820000000000000000e+02
2.142445172738320736e+01 -5.806819505669108850e+01 1.820000000000000000e+02
2.102770262132055734e+01 -5.699285811119681711e+01 1.820000000000000000e+02
2.063095351525790377e+01 -5.591752116570253861e+01 1.820000000000000000e+02
2.340819725769646809e+01 -6.344487978416248808e+01 1.830000000000000000e+02
2.301144815163381807e+01 -6.236954283866821669e+01 1.830000000000000000e+02
2.261469904557116450e+01 -6.129420589317393819e+01 1.830000000000000000e+02
2.221794993950851449e+01 -6.021886894767965259e+01 1.830000000000000000e+02
2.182120083344586092e+01 -5.914353200218537410e+01 1.830000000000000000e+02
2.142445172738320736e+01 -5.806819505669108850e+01 1.830000000000000000e+02
2.102770262132055734e+01 -5.699285811119681711e+01 1.830000000000000000e+02
2.340819725769646809e+01 -6.344487978416248808e+01 1.840000000000000000e+02
2.301144815163381807e+01 -6.236954283866821669e+01 1.840000000000000000e+02
2.261469904557116450e+01 -6.129420589317393819e+01 1.840000000000000000e+02
2.221794993950851449e+01 -6.021886894767965259e+01 1.840000000000000000e+02
2.182120083344586092e+01 -5.914353200218537410e+01 1.840000000000000000e+02
2.142445172738320736e+01 -5.806819505669108850e+01 1.840000000000000000e+02
2.102770262132055734e+01 -5.699285811119681711e+01 1.840000000000000000e+02
2.340819725769646809e+01 -6.344487978416248808e+01 1.850000000000000000e+02
2.301144815163381807e+01 -6.236954283866821669e+01 1.850000000000000000e+02
2.261469904557116450e+01 -6.129420589317393819e+01 1.850000000000000000e+02
2.221794993950851449e+01 -6.021886894767965259e+01 1.850000000000000000e+02
2.182120083344586092e+01 -5.914353200218537410e+01 1.850000000000000000e+02
2.142445172738320736e+01 -5.806819505669108850e+01 1.850000000000000000e+02
2.102770262132055734e+01 -5.699285811119681711e+01 1.850000000000000000e+02
2.340819725769646809e+01 -6.344487978416248808e+01 1.860000000000000000e+02
2.301144815163381807e+01 -6.236954283866821669e+01 1.860000000000000000e+02
2.261469904557116450e+01 -6.129420589317393819e+01 1.860000000000000000e+02
2.221794993950851449e+01 -6.021886894767965259e+01 1.860000000000000000e+02
2.182120083344586092e+01 -5.914353200218537410e+01 1.860000000000000000e+02
2.142445172738320736e+01 -5.806819505669108850e+01 1.860000000000000000e+02
2.102770262132055734e+01 -5.699285811119681711e+01 1.860000000000000000e+02
2.340819725769646809e+01 -6.344487978416248808e+01 1.870000000000000000e+02
2.301144815163381807e+01 -6.236954283866821669e+01 1.870000000000000000e+02
2.261469904557116450e+01 -6.129420589317393819e+01 1.870000000000000000e+02
2.221794993950851449e+01 -6.021886894767965259e+01 1.870000000000000000e+02
2.182120083344586092e+01 -5.914353200218537410e+01 1.870000000000000000e+02
2.142445172738320736e+01 -5.806819505669108850e+01 1.870000000000000000e+02
2.102770262132055734e+01 -5.699285811119681711e+01 1.870000000000000000e+02
2.301144815163381807e+01 -6.236954283866821669e+01 1.880000000000000000e+02
2.261469904557116450e+01 -6.129420589317393819e+01 1.880000000000000000e+02
2.221794993950851449e+01 -6.021886894767965259e+01 1.880000000000000000e+02
2.182120083344586092e+01 -5.914353200218537410e+01 1.880000000000000000e+02
2.142445172738320736e+01 -5.806819505669108850e+01 1.880000000000000000e+02
2.102770262132055734e+01 -5.699285811119681711e+01 1.880000000000000000e+02
2.301144815163381807e+01 -6.236954283866821669e+01 1.890000000000000000e+02
2.261469904557116450e+01 -6.129420589317393819e+01 1.890000000000000000e+02
2.221794993950851449e+01 -6.021886894767965259e+01 1.890000000000000000e+02
2.182120083344586092e+01 -5.914353200218537410e+01 1.890000000000000000e+02
2.142445172738320736e+01 -5.806819505669108850e+01 1.890000000000000000e+02
2.102770262132055734e+01 -5.699285811119681711e+01 1.890000000000000000e+02
2.301144815163381807e+01 -6.236954283866821669e+01 1.900000000000000000e+02
2.261469904557116450e+01 -6.129420589317393819e+01 1.900000000000000000e+02
2.221794993950851449e+01 -6.021886894767965259e+01 1.900000000000000000e+02
2.182120083344586092e+01 -5.914353200218537410e+01 1.900000000000000000e+02
2.142445172738320736e+01 -5.806819505669108850e+01 1.900000000000000000e+02
2.102770262132055734e+01 -5.699285811119681711e+01 1.900000000000000000e+02
2.340819725769646809e+01 -6.344487978416248808e+01 1.910000000000000000e+02
2.301144815163381807e+01 -6.236954283866821669e+01 1.910000000000000000e+02
2.261469904557116450e+01 -6.129420589317393819e+01 1.910000000000000000e+02
2.221794993950851449e+01 -6.021886894767965259e+01 1.910000000000000000e+02
2.182120083344586092e+01 -5.914353200218537410e+01 1.910000000000000000e+02
2.142445172738320736e+01 -5.806819505669108850e+01 1.910000000000000000e+02
2.102770262132055734e+01 -5.699285811119681711e+01 1.910000000000000000e+02
2.340819725769646809e+01 -6.344487978416248808e+01 1.920000000000000000e+02
2.301144815163381807e+01 -6.236954283866821669e+01 1.920000000000000000e+02
2.261469904557116450e+01 -6.129420589317393819e+01 1.920000000000000000e+02
2.221794993950851449e+01 -6.021886894767965259e+01 1.920000000000000000e+02
2.182120083344586092e+01 -5.914353200218537410e+01 1.920000000000000000e+02
2.142445172738320736e+01 -5.806819505669108850e+01 1.920000000000000000e+02
2.102770262132055734e+01 -5.699285811119681711e+01 1.920000000000000000e+02
2.340819725769646809e+01 -6.344487978416248808e+01 1.930000000000000000e+02
2.301144815163381807e+01 -6.236954283866821669e+01 1.930000000000000000e+02
2.261469904557116450e+01 -6.129420589317393819e+01 1.930000000000000000e+02
2.221794993950851449e+01 -6.021886894767965259e+01 1.930000000000000000e+02
2.182120083344586092e+01 -5.914353200218537410e+01 1.930000000000000000e+02
2.142445172738320736e+01 -5.806819505669108850e+01 1.930000000000000000e+02
2.102770262132055734e+01 -5.699285811119681711e+01 1.930000000000000000e+02
2.340819725769646809e+01 -6.344487978416248808e+01 1.940000000000000000e+02
