2.543319677885132819e+02 4.525000000000000000e+02 1.436969893010441979e+02
2.473319677885132819e+02 4.535000000000000000e+02 1.506969893010441979e+02
2.483319677885132819e+02 4.535000000000000000e+02 1.496969893010441979e+02
2.493319677885132819e+02 4.535000000000000000e+02 1.486969893010441979e+02
2.503319677885132819e+02 4.535000000000000000e+02 1.476969893010441979e+02
2.513319677885132819e+02 4.535000000000000000e+02 1.466969893010441979e+02
2.523319677885132819e+02 4.535000000000000000e+02 1.456969893010441979e+02
2.533319677885132819e+02 4.535000000000000000e+02 1.446969893010441979e+02
2.543319677885132819e+02 4.535000000000000000e+02 1.436969893010441979e+02
2.473319677885132819e+02 4.545000000000000000e+02 1.506969893010441979e+02
2.483319677885132819e+02 4.545000000000000000e+02 1.496969893010441979e+02
2.493319677885132819e+02 4.545000000000000000e+02 1.486969893010441979e+02
2.503319677885132819e+02 4.545000000000000000e+02 1.476969893010441979e+02
2.513319677885132819e+02 4.545000000000000000e+02 1.466969893010441979e+02
2.523319677885132819e+02 4.545000000000000000e+02 1.456969893010441979e+02
2.533319677885132819e+02 4.545000000000000000e+02 1.446969893010441979e+02
2.483319677885132819e+02 4.555000000000000000e+02 1.496969893010441979e+02
2.493319677885132819e+02 4.555000000000000000e+02 1.486969893010441979e+02
2.503319677885132819e+02 4.555000000000000000e+02 1.476969893010441979e+02
2.513319677885132819e+02 4.555000000000000000e+02 1.466969893010441979e+02
2.523319677885132819e+02 4.555000000000000000e+02 1.456969893010441979e+02
3.153319677885132819e+02 4.625000000000000000e+02 8.269698930104421208e+01
3.143319677885132819e+02 4.635000000000000000e+02 8.369698930104421208e+01
3.153319677885132819e+02 4.635000000000000000e+02 8.269698930104421208e+01
3.143319677885132819e+02 4.645000000000000000e+02 8.369698930104421208e+01
3.153319677885132819e+02 4.645000000000000000e+02 8.269698930104421208e+01
3.143319677885132819e+02 4.655000000000000000e+02 8.369698930104421208e+01
3.153319677885132819e+02 4.655000000000000000e+02 8.269698930104421208e+01
3.143319677885132819e+02 4.665000000000000000e+02 8.369698930104421208e+01
3.153319677885132819e+02 4.665000000000000000e+02 8.269698930104421208e+01
3.133319677885132819e+02 4.675000000000000000e+02 8.469698930104421208e+01
3.143319677885132819e+02 4.675000000000000000e+02 8.369698930104421208e+01
3.153319677885132819e+02 4.675000000000000000e+02 8.269698930104421208e+01
3.133319677885132819e+02 4.685000000000000000e+02 8.469698930104421208e+01
3.143319677885132819e+02 4.685000000000000000e+02 8.369698930104421208e+01
3.153319677885132819e+02 4.685000000000000000e+02 8.269698930104421208e+01
3.133319677885132819e+02 4.695000000000000000e+02 8.469698930104421208e+01
3.143319677885132819e+02 4.695000000000000000e+02 8.369698930104421208e+01
3.153319677885132819e+02 4.695000000000000000e+02 8.269698930104421208e+01
3.133319677885132819e+02 4.705000000000000000e+02 8.469698930104421208e+01
3.143319677885132819e+02 4.705000000000000000e+02 8.369698930104421208e+01
3.153319677885132819e+02 4.705000000000000000e+02 8.269698930104421208e+01
3.133319677885132819e+02 4.715000000000000000e+02 8.469698930104421208e+01
3.143319677885132819e+02 4.715000000000000000e+02 8.369698930104421208e+01
3.153319677885132819e+02 4.715000000000000000e+02 8.269698930104421208e+01
3.123319677885132819e+02 4.725000000000000000e+02 8.569698930104421208e+01
3.133319677885132819e+02 4.725000000000000000e+02 8.469698930104421208e+01
3.143319677885132819e+02 4.725000000000000000e+02 8.369698930104421208e+01
3.153319677885132819e+02 4.725000000000000000e+02 8.269698930104421208e+01
3.123319677885132819e+02 4.735000000000000000e+02 8.569698930104421208e+01
3.133319677885132819e+02 4.735000000000000000e+02 8.469698930104421208e+01
3.143319677885132819e+02 4.735000000000000000e+02 8.369698930104421208e+01
3.153319677885132819e+02 4.735000000000000000e+02 8.269698930104421208e+01
3.123319677885132819e+02 4.745000000000000000e+02 8.569698930104421208e+01
3.133319677885132819e+02 4.745000000000000000e+02 8.469698930104421208e+01
3.143319677885132819e+02 4.745000000000000000e+02 8.369698930104421208e+01
3.153319677885132819e+02 4.745000000000000000e+02 8.269698930104421208e+01
3.123319677885132819e+02 4.755000000000000000e+02 8.569698930104421208e+01
3.133319677885132819e+02 4.755000000000000000e+02 8.469698930104421208e+01
3.143319677885132819e+02 4.755000000000000000e+02 8.369698930104421208e+01
3.153319677885132819e+02 4.755000000000000000e+02 8.269698930104421208e+01
3.123319677885132819e+02 4.765000000000000000e+02 8.569698930104421208e+01
3.133319677885132819e+02 4.765000000000000000e+02 8.469698930104421208e+01
3.143319677885132819e+02 4.765000000000000000e+02 8.369698930104421208e+01
3.153319677885132819e+02 4.765000000000000000e+02 8.269698930104421208e+01
3.123319677885132819e+02 4.775000000000000000e+02 8.569698930104421208e+01
3.133319677885132819e+02 4.775000000000000000e+02 8.469698930104421208e+01
3.143319677885132819e+02 4.775000000000000000e+02 8.369698930104421208e+01
3.153319677885132819e+02 4.775000000000000000e+02 8.269698930104421208e+01
3.123319677885132819e+02 4.785000000000000000e+02 8.569698930104421208e+01
3.133319677885132819e+02 4.785000000000000000e+02 8.469698930104421208e+01
3.143319677885132819e+02 4.785000000000000000e+02 8.369698930104421208e+01
3.153319677885132819e+02 4.785000000000000000e+02 8.269698930104421208e+01
3.123319677885132819e+02 4.795000000000000000e+02 8.569698930104421208e+01
3.133319677885132819e+02 4.795000000000000000e+02 8.469698930104421208e+01
3.143319677885132819e+02 4.795000000000000000e+02 8.369698930104421208e+01
3.153319677885132819e+02 4.795000000000000000e+02 8.269698930104421208e+01
3.123319677885132819e+02 4.805000000000000000e+02 8.569698930104421208e+01
3.133319677885132819e+02 4.805000000000000000e+02 8.469698930104421208e+01
3.143319677885132819e+02 4.805000000000000000e+02 8.369698930104421208e+01
3.153319677885132819e+02 4.805000000000000000e+02 8.269698930104421208e+01
3.123319677885132819e+02 4.815000000000000000e+02 8.569698930104421208e+01
3.133319677885132819e+02 4.815000000000000000e+02 8.469698930104421208e+01
3.143319677885132819e+02 4.815000000000000000e+02 8.369698930104421208e+01
3.153319677885132819e+02 4.815000000000000000e+02 8.269698930104421208e+01
3.133319677885132819e+02 4.825000000000000000e+02 8.469698930104421208e+01
3.143319677885132819e+02 4.825000000000000000e+02 8.369698930104421208e+01
3.153319677885132819e+02 4.825000000000000000e+02 8.269698930104421208e+01
3.133319677885132819e+02 4.835000000000000000e+02 8.469698930104421208e+01
3.143319677885132819e+02 4.835000000000000000e+02 8.369698930104421208e+01
3.153319677885132819e+02 4.835000000000000000e+02 8.269698930104421208e+01
3.133319677885132819e+02 4.845000000000000000e+02 8.469698930104421208e+01
3.143319677885132819e+02 4.845000000000000000e+02 8.369698930104421208e+01
3.153319677885132819e+02 4.845000000000000000e+02 8.269698930104421208e+01
3.153319677885132819e+02 4.855000000000000000e+02 8.269698930104421208e+01
2.377446856781346014e+02 1.270000000000000000e+02 1.400835964278124379e+02
2.367446856781346014e+02 1.280000000000000000e+02 1.410835964278124379e+02
2.377446856781346014e+02 1.280000000000000000e+02 1.400835964278124379e+02
2.387446856781346014e+02 1.280000000000000000e+02 1.390835964278124379e+02
2.397446856781346014e+02 1.280000000000000000e+02 1.380835964278124379e+02
2.357446856781346014e+02 1.290000000000000000e+02 1.420835964278124379e+02
2.367446856781346014e+02 1.290000000000000000e+02 1.410835964278124379e+02
2.377446856781346014e+02 1.290000000000000000e+02 1.400835964278124379e+02
2.387446856781346014e+02 1.290000000000000000e+02 1.390835964278124379e+02
2.397446856781346014e+02 1.290000000000000000e+02 1.380835964278124379e+02
2.407446856781346014e+02 1.290000000000000000e+02 1.370835964278124379e+02
2.357446856781346014e+02 1.300000000000000000e+02 1.420835964278124379e+02
2.367446856781346014e+02 1.300000000000000000e+02 1.410835964278124379e+02
2.377446856781346014e+02 1.300000000000000000e+02 1.400835964278124379e+02
2.387446856781346014e+02 1.300000000000000000e+02 1.390835964278124379e+02
2.397446856781346014e+02 1.300000000000000000e+02 1.380835964278124379e+02
2.407446856781346014e+02 1.300000000000000000e+02 1.370835964278124379e+02
2.357446856781346014e+02 1.310000000000000000e+02 1.420835964278124379e+02
2.367446856781346014e+02 1.310000000000000000e+02 1.410835964278124379e+02
2.377446856781346014e+02 1.310000000000000000e+02 1.400835964278124379e+02
2.387446856781346014e+02 1.310000000000000000e+02 1.390835964278124379e+02
2.397446856781346014e+02 1.310000000000000000e+02 1.380835964278124379e+02
2.407446856781346014e+02 1.310000000000000000e+02 1.370835964278124379e+02
2.357446856781346014e+02 1.320000000000000000e+02 1.420835964278124379e+02
2.367446856781346014e+02 1.320000000000000000e+02 1.410835964278124379e+02
2.377446856781346014e+02 1.320000000000000000e+02 1.400835964278124379e+02
2.387446856781346014e+02 1.320000000000000000e+02 1.390835964278124379e+02
2.397446856781346014e+02 1.320000000000000000e+02 1.380835964278124379e+02
2.407446856781346014e+02 1.320000000000000000e+02 1.370835964278124379e+02
2.417446856781346014e+02 1.320000000000000000e+02 1.360835964278124379e+02
2.357446856781346014e+02 1.330000000000000000e+02 1.420835964278124379e+02
2.367446856781346014e+02 1.330000000000000000e+02 1.410835964278124379e+02
2.377446856781346014e+02 1.330000000000000000e+02 1.400835964278124379e+02
2.387446856781346014e+02 1.330000000000000000e+02 1.390835964278124379e+02
2.397446856781346014e+02 1.330000000000000000e+02 1.380835964278124379e+02
2.407446856781346014e+02 1.330000000000000000e+02 1.370835964278124379e+02
2.417446856781346014e+02 1.330000000000000000e+02 1.360835964278124379e+02
2.357446856781346014e+02 1.340000000000000000e+02 1.420835964278124379e+02
2.367446856781346014e+02 1.340000000000000000e+02 1.410835964278124379e+02
2.377446856781346014e+02 1.340000000000000000e+02 1.400835964278124379e+02
2.387446856781346014e+02 1.340000000000000000e+02 1.390835964278124379e+02
2.397446856781346014e+02 1.340000000000000000e+02 1.380835964278124379e+02
2.407446856781346014e+02 1.340000000000000000e+02 1.370835964278124379e+02
2.417446856781346014e+02 1.340000000000000000e+02 1.360835964278124379e+02
2.427446856781346014e+02 1.340000000000000000e+02 1.350835964278124379e+02
2.357446856781346014e+02 1.350000000000000000e+02 1.420835964278124379e+02
2.367446856781346014e+02 1.350000000000000000e+02 1.410835964278124379e+02
2.377446856781346014e+02 1.350000000000000000e+02 1.400835964278124379e+02
2.387446856781346014e+02 1.350000000000000000e+02 1.390835964278124379e+02
2.397446856781346014e+02 1.350000000000000000e+02 1.380835964278124379e+02
2.407446856781346014e+02 1.350000000000000000e+02 1.370835964278124379e+02
2.417446856781346014e+02 1.350000000000000000e+02 1.360835964278124379e+02
2.427446856781346014e+02 1.350000000000000000e+02 1.350835964278124379e+02
2.347446856781346014e+02 1.360000000000000000e+02 1.430835964278124379e+02
2.357446856781346014e+02 1.360000000000000000e+02 1.420835964278124379e+02
2.367446856781346014e+02 1.360000000000000000e+02 1.410835964278124379e+02
2.377446856781346014e+02 1.360000000000000000e+02 1.400835964278124379e+02
2.387446856781346014e+02 1.360000000000000000e+02 1.390835964278124379e+02
2.397446856781346014e+02 1.360000000000000000e+02 1.380835964278124379e+02
2.407446856781346014e+02 1.360000000000000000e+02 1.370835964278124379e+02
2.417446856781346014e+02 1.360000000000000000e+02 1.360835964278124379e+02
2.347446856781346014e+02 1.370000000000000000e+02 1.430835964278124379e+02
2.357446856781346014e+02 1.370000000000000000e+02 1.420835964278124379e+02
2.367446856781346014e+02 1.370000000000000000e+02 1.410835964278124379e+02
2.377446856781346014e+02 1.370000000000000000e+02 1.400835964278124379e+02
2.387446856781346014e+02 1.370000000000000000e+02 1.390835964278124379e+02
2.397446856781346014e+02 1.370000000000000000e+02 1.380835964278124379e+02
2.407446856781346014e+02 1.370000000000000000e+02 1.370835964278124379e+02
2.417446856781346014e+02 1.370000000000000000e+02 1.360835964278124379e+02
2.347446856781346014e+02 1.380000000000000000e+02 1.430835964278124379e+02
2.357446856781346014e+02 1.380000000000000000e+02 1.420835964278124379e+02
2.367446856781346014e+02 1.380000000000000000e+02 1.410835964278124379e+02
2.377446856781346014e+02 1.380000000000000000e+02 1.400835964278124379e+02
2.387446856781346014e+02 1.380000000000000000e+02 1.390835964278124379e+02
2.397446856781346014e+02 1.380000000000000000e+02 1.380835964278124379e+02
2.407446856781346014e+02 1.380000000000000000e+02 1.370835964278124379e+02
2.417446856781346014e+02 1.380000000000000000e+02 1.360835964278124379e+02
2.347446856781346014e+02 1.390000000000000000e+02 1.430835964278124379e+02
2.357446856781346014e+02 1.390000000000000000e+02 1.420835964278124379e+02
2.367446856781346014e+02 1.390000000000000000e+02 1.410835964278124379e+02
2.377446856781346014e+02 1.390000000000000000e+02 1.400835964278124379e+02
2.387446856781346014e+02 1.390000000000000000e+02 1.390835964278124379e+02
2.397446856781346014e+02 1.390000000000000000e+02 1.380835964278124379e+02
2.407446856781346014e+02 1.390000000000000000e+02 1.370835964278124379e+02
2.347446856781346014e+02 1.400000000000000000e+02 1.430835964278124379e+02
2.357446856781346014e+02 1.400000000000000000e+02 1.420835964278124379e+02
2.367446856781346014e+02 1.400000000000000000e+02 1.410835964278124379e+02
2.377446856781346014e+02 1.400000000000000000e+02 1.400835964278124379e+02
2.387446856781346014e+02 1.400000000000000000e+02 1.390835964278124379e+02
2.397446856781346014e+02 1.400000000000000000e+02 1.380835964278124379e+02
2.407446856781346014e+02 1.400000000000000000e+02 1.370835964278124379e+02
2.347446856781346014e+02 1.410000000000000000e+02 1.430835964278124379e+02
2.357446856781346014e+02 1.410000000000000000e+02 1.420835964278124379e+02
2.367446856781346014e+02 1.410000000000000000e+02 1.410835964278124379e+02
2.377446856781346014e+02 1.410000000000000000e+02 1.400835964278124379e+02
2.387446856781346014e+02 1.410000000000000000e+02 1.390835964278124379e+02
2.397446856781346014e+02 1.410000000000000000e+02 1.380835964278124379e+02
2.407446856781346014e+02 1.410000000000000000e+02 1.370835964278124379e+02
2.347446856781346014e+02 1.420000000000000000e+02 1.430835964278124379e+02
2.357446856781346014e+02 1.420000000000000000e+02 1.420835964278124379e+02
2.367446856781346014e+02 1.420000000000000000e+02 1.410835964278124379e+02
2.377446856781346014e+02 1.420000000000000000e+02 1.400835964278124379e+02
2.387446856781346014e+02 1.420000000000000000e+02 1.390835964278124379e+02
2.397446856781346014e+02 1.420000000000000000e+02 1.380835964278124379e+02
2.407446856781346014e+02 1.420000000000000000e+02 1.370835964278124379e+02
2.347446856781346014e+02 1.430000000000000000e+02 1.430835964278124379e+02
2.357446856781346014e+02 1.430000000000000000e+02 1.420835964278124379e+02
2.367446856781346014e+02 1.430000000000000000e+02 1.410835964278124379e+02
2.377446856781346014e+02 1.430000000000000000e+02 1.400835964278124379e+02
2.387446856781346014e+02 1.430000000000000000e+02 1.390835964278124379e+02
2.397446856781346014e+02 1.430000000000000000e+02 1.380835964278124379e+02
2.407446856781346014e+02 1.430000000000000000e+02 1.370835964278124379e+02
2.357446856781346014e+02 1.440000000000000000e+02 1.420835964278124379e+02
2.367446856781346014e+02 1.440000000000000000e+02 1.410835964278124379e+02
2.377446856781346014e+02 1.440000000000000000e+02 1.400835964278124379e+02
2.387446856781346014e+02 1.440000000000000000e+02 1.390835964278124379e+02
2.397446856781346014e+02 1.440000000000000000e+02 1.380835964278124379e+02
2.407446856781346014e+02 1.440000000000000000e+02 1.370835964278124379e+02
2.357446856781346014e+02 1.450000000000000000e+02 1.420835964278124379e+02
2.367446856781346014e+02 1.450000000000000000e+02 1.410835964278124379e+02
2.377446856781346014e+02 1.450000000000000000e+02 1.400835964278124379e+02
2.387446856781346014e+02 1.450000000000000000e+02 1.390835964278124379e+02
2.397446856781346014e+02 1.450000000000000000e+02 1.380835964278124379e+02
2.407446856781346014e+02 1.450000000000000000e+02 1.370835964278124379e+02
2.357446856781346014e+02 1.460000000000000000e+02 1.420835964278124379e+02
2.367446856781346014e+02 1.460000000000000000e+02 1.410835964278124379e+02
2.377446856781346014e+02 1.460000000000000000e+02 1.400835964278124379e+02
2.387446856781346014e+02 1.460000000000000000e+02 1.390835964278124379e+02
2.397446856781346014e+02 1.460000000000000000e+02 1.380835964278124379e+02
2.407446856781346014e+02 1.460000000000000000e+02 1.370835964278124379e+02
2.357446856781346014e+02 1.470000000000000000e+02 1.420835964278124379e+02
2.367446856781346014e+02 1.470000000000000000e+02 1.410835964278124379e+02
2.377446856781346014e+02 1.470000000000000000e+02 1.400835964278124379e+02
2.387446856781346014e+02 1.470000000000000000e+02 1.390835964278124379e+02
2.397446856781346014e+02 1.470000000000000000e+02 1.380835964278124379e+02
2.407446856781346014e+02 1.470000000000000000e+02 1.370835964278124379e+02
2.357446856781346014e+02 1.480000000000000000e+02 1.420835964278124379e+02
2.367446856781346014e+02 1.480000000000000000e+02 1.410835964278124379e+02
2.377446856781346014e+02 1.480000000000000000e+02 1.400835964278124379e+02
2.387446856781346014e+02 1.480000000000000000e+02 1.390835964278124379e+02
2.397446856781346014e+02 1.480000000000000000e+02 1.380835964278124379e+02
2.407446856781346014e+02 1.480000000000000000e+02 1.370835964278124379e+02
2.417446856781346014e+02 1.480000000000000000e+02 1.360835964278124379e+02
2.357446856781346014e+02 1.490000000000000000e+02 1.420835964278124379e+02
2.367446856781346014e+02 1.490000000000000000e+02 1.410835964278124379e+02
2.377446856781346014e+02 1.490000000000000000e+02 1.400835964278124379e+02
2.387446856781346014e+02 1.490000000000000000e+02 1.390835964278124379e+02
2.397446856781346014e+02 1.490000000000000000e+02 1.380835964278124379e+02
2.407446856781346014e+02 1.490000000000000000e+02 1.370835964278124379e+02
2.417446856781346014e+02 1.490000000000000000e+02 1.360835964278124379e+02
2.367446856781346014e+02 1.500000000000000000e+02 1.410835964278124379e+02
2.377446856781346014e+02 1.500000000000000000e+02 1.400835964278124379e+02
2.387446856781346014e+02 1.500000000000000000e+02 1.390835964278124379e+02
2.397446856781346014e+02 1.500000000000000000e+02 1.380835964278124379e+02
2.407446856781346014e+02 1.500000000000000000e+02 1.370835964278124379e+02
2.417446856781346014e+02 1.500000000000000000e+02 1.360835964278124379e+02
2.367446856781346014e+02 1.510000000000000000e+02 1.410835964278124379e+02
2.377446856781346014e+02 1.510000000000000000e+02 1.400835964278124379e+02
2.387446856781346014e+02 1.510000000000000000e+02 1.390835964278124379e+02
2.397446856781346014e+02 1.510000000000000000e+02 1.380835964278124379e+02
2.407446856781346014e+02 1.510000000000000000e+02 1.370835964278124379e+02
2.417446856781346014e+02 1.510000000000000000e+02 1.360835964278124379e+02
2.427446856781346014e+02 1.510000000000000000e+02 1.350835964278124379e+02
2.377446856781346014e+02 1.520000000000000000e+02 1.400835964278124379e+02
2.387446856781346014e+02 1.520000000000000000e+02 1.390835964278124379e+02
2.397446856781346014e+02 1.520000000000000000e+02 1.380835964278124379e+02
2.407446856781346014e+02 1.520000000000000000e+02 1.370835964278124379e+02
2.417446856781346014e+02 1.520000000000000000e+02 1.360835964278124379e+02
2.427446856781346014e+02 1.520000000000000000e+02 1.350835964278124379e+02
2.377446856781346014e+02 1.530000000000000000e+02 1.400835964278124379e+02
2.387446856781346014e+02 1.530000000000000000e+02 1.390835964278124379e+02
2.397446856781346014e+02 1.530000000000000000e+02 1.380835964278124379e+02
2.407446856781346014e+02 1.530000000000000000e+02 1.370835964278124379e+02
2.417446856781346014e+02 1.530000000000000000e+02 1.360835964278124379e+02
2.427446856781346014e+02 1.530000000000000000e+02 1.350835964278124379e+02
2.377446856781346014e+02 1.540000000000000000e+02 1.400835964278124379e+02
2.387446856781346014e+02 1.540000000000000000e+02 1.390835964278124379e+02
2.397446856781346014e+02 1.540000000000000000e+02 1.380835964278124379e+02
2.407446856781346014e+02 1.540000000000000000e+02 1.370835964278124379e+02
2.417446856781346014e+02 1.540000000000000000e+02 1.360835964278124379e+02
2.427446856781346014e+02 1.540000000000000000e+02 1.350835964278124379e+02
2.387446856781346014e+02 1.550000000000000000e+02 1.390835964278124379e+02
2.397446856781346014e+02 1.550000000000000000e+02 1.380835964278124379e+02
2.407446856781346014e+02 1.550000000000000000e+02 1.370835964278124379e+02
2.417446856781346014e+02 1.550000000000000000e+02 1.360835964278124379e+02
2.427446856781346014e+02 1.550000000000000000e+02 1.350835964278124379e+02
2.437446856781346014e+02 1.550000000000000000e+02 1.340835964278124379e+02
2.387446856781346014e+02 1.560000000000000000e+02 1.390835964278124379e+02
2.397446856781346014e+02 1.560000000000000000e+02 1.380835964278124379e+02
2.407446856781346014e+02 1.560000000000000000e+02 1.370835964278124379e+02
2.417446856781346014e+02 1.560000000000000000e+02 1.360835964278124379e+02
2.427446856781346014e+02 1.560000000000000000e+02 1.350835964278124379e+02
2.437446856781346014e+02 1.560000000000000000e+02 1.340835964278124379e+02
2.447446856781346014e+02 1.560000000000000000e+02 1.330835964278124379e+02
2.387446856781346014e+02 1.570000000000000000e+02 1.390835964278124379e+02
2.397446856781346014e+02 1.570000000000000000e+02 1.380835964278124379e+02
2.407446856781346014e+02 1.570000000000000000e+02 1.370835964278124379e+02
2.417446856781346014e+02 1.570000000000000000e+02 1.360835964278124379e+02
2.427446856781346014e+02 1.570000000000000000e+02 1.350835964278124379e+02
2.437446856781346014e+02 1.570000000000000000e+02 1.340835964278124379e+02
2.447446856781346014e+02 1.570000000000000000e+02 1.330835964278124379e+02
2.397446856781346014e+02 1.580000000000000000e+02 1.380835964278124379e+02
2.407446856781346014e+02 1.580000000000000000e+02 1.370835964278124379e+02
2.417446856781346014e+02 1.580000000000000000e+02 1.360835964278124379e+02
2.427446856781346014e+02 1.580000000000000000e+02 1.350835964278124379e+02
2.437446856781346014e+02 1.580000000000000000e+02 1.340835964278124379e+02
2.447446856781346014e+02 1.580000000000000000e+02 1.330835964278124379e+02
2.397446856781346014e+02 1.590000000000000000e+02 1.380835964278124379e+02
2.407446856781346014e+02 1.590000000000000000e+02 1.370835964278124379e+02
2.417446856781346014e+02 1.590000000000000000e+02 1.360835964278124379e+02
2.427446856781346014e+02 1.590000000000000000e+02 1.350835964278124379e+02
2.437446856781346014e+02 1.590000000000000000e+02 1.340835964278124379e+02
2.447446856781346014e+02 1.590000000000000000e+02 1.330835964278124379e+02
2.397446856781346014e+02 1.600000000000000000e+02 1.380835964278124379e+02
2.407446856781346014e+02 1.600000000000000000e+02 1.370835964278124379e+02
2.417446856781346014e+02 1.600000000000000000e+02 1.360835964278124379e+02
2.427446856781346014e+02 1.600000000000000000e+02 1.350835964278124379e+02
2.437446856781346014e+02 1.600000000000000000e+02 1.340835964278124379e+02
2.447446856781346014e+02 1.600000000000000000e+02 1.330835964278124379e+02
2.457446856781346014e+02 1.600000000000000000e+02 1.320835964278124379e+02
2.407446856781346014e+02 1.610000000000000000e+02 1.370835964278124379e+02
2.417446856781346014e+02 1.610000000000000000e+02 1.360835964278124379e+02
2.427446856781346014e+02 1.610000000000000000e+02 1.350835964278124379e+02
2.437446856781346014e+02 1.610000000000000000e+02 1.340835964278124379e+02
2.447446856781346014e+02 1.610000000000000000e+02 1.330835964278124379e+02
2.457446856781346014e+02 1.610000000000000000e+02 1.320835964278124379e+02
2.467446856781346014e+02 1.610000000000000000e+02 1.310835964278124379e+02
2.407446856781346014e+02 1.620000000000000000e+02 1.370835964278124379e+02
2.417446856781346014e+02 1.620000000000000000e+02 1.360835964278124379e+02
2.427446856781346014e+02 1.620000000000000000e+02 1.350835964278124379e+02
2.437446856781346014e+02 1.620000000000000000e+02 1.340835964278124379e+02
2.447446856781346014e+02 1.620000000000000000e+02 1.330835964278124379e+02
2.457446856781346014e+02 1.620000000000000000e+02 1.320835964278124379e+02
2.467446856781346014e+02 1.620000000000000000e+02 1.310835964278124379e+02
2.407446856781346014e+02 1.630000000000000000e+02 1.370835964278124379e+02
2.417446856781346014e+02 1.630000000000000000e+02 1.360835964278124379e+02
2.427446856781346014e+02 1.630000000000000000e+02 1.350835964278124379e+02
2.437446856781346014e+02 1.630000000000000000e+02 1.340835964278124379e+02
2.447446856781346014e+02 1.630000000000000000e+02 1.330835964278124379e+02
2.457446856781346014e+02 1.630000000000000000e+02 1.320835964278124379e+02
2.467446856781346014e+02 1.630000000000000000e+02 1.310835964278124379e+02
2.477446856781346014e+02 1.630000000000000000e+02 1.300835964278124379e+02
2.417446856781346014e+02 1.640000000000000000e+02 1.360835964278124379e+02
2.427446856781346014e+02 1.640000000000000000e+02 1.350835964278124379e+02
2.437446856781346014e+02 1.640000000000000000e+02 1.340835964278124379e+02
2.447446856781346014e+02 1.640000000000000000e+02 1.330835964278124379e+02
2.457446856781346014e+02 1.640000000000000000e+02 1.320835964278124379e+02
2.467446856781346014e+02 1.640000000000000000e+02 1.310835964278124379e+02
2.477446856781346014e+02 1.640000000000000000e+02 1.300835964278124379e+02
2.417446856781346014e+02 1.650000000000000000e+02 1.360835964278124379e+02
2.427446856781346014e+02 1.650000000000000000e+02 1.350835964278124379e+02
2.437446856781346014e+02 1.650000000000000000e+02 1.340835964278124379e+02
2.447446856781346014e+02 1.650000000000000000e+02 1.330835964278124379e+02
2.457446856781346014e+02 1.650000000000000000e+02 1.320835964278124379e+02
2.467446856781346014e+02 1.650000000000000000e+02 1.310835964278124379e+02
2.477446856781346014e+02 1.650000000000000000e+02 1.300835964278124379e+02
2.487446856781346014e+02 1.650000000000000000e+02 1.290835964278124379e+02
2.417446856781346014e+02 1.660000000000000000e+02 1.360835964278124379e+02
2.427446856781346014e+02 1.660000000000000000e+02 1.350835964278124379e+02
2.437446856781346014e+02 1.660000000000000000e+02 1.340835964278124379e+02
2.447446856781346014e+02 1.660000000000000000e+02 1.330835964278124379e+02
2.457446856781346014e+02 1.660000000000000000e+02 1.320835964278124379e+02
2.467446856781346014e+02 1.660000000000000000e+02 1.310835964278124379e+02
2.477446856781346014e+02 1.660000000000000000e+02 1.300835964278124379e+02
2.487446856781346014e+02 1.660000000000000000e+02 1.290835964278124379e+02
2.417446856781346014e+02 1.670000000000000000e+02 1.360835964278124379e+02
2.427446856781346014e+02 1.670000000000000000e+02 1.350835964278124379e+02
2.437446856781346014e+02 1.670000000000000000e+02 1.340835964278124379e+02
2.447446856781346014e+02 1.670000000000000000e+02 1.330835964278124379e+02
2.457446856781346014e+02 1.670000000000000000e+02 1.320835964278124379e+02
2.467446856781346014e+02 1.670000000000000000e+02 1.310835964278124379e+02
2.477446856781346014e+02 1.670000000000000000e+02 1.300835964278124379e+02
2.487446856781346014e+02 1.670000000000000000e+02 1.290835964278124379e+02
2.427446856781346014e+02 1.680000000000000000e+02 1.350835964278124379e+02
2.437446856781346014e+02 1.680000000000000000e+02 1.340835964278124379e+02
2.447446856781346014e+02 1.680000000000000000e+02 1.330835964278124379e+02
2.457446856781346014e+02 1.680000000000000000e+02 1.320835964278124379e+02
2.467446856781346014e+02 1.680000000000000000e+02 1.310835964278124379e+02
2.477446856781346014e+02 1.680000000000000000e+02 1.300835964278124379e+02
2.487446856781346014e+02 1.680000000000000000e+02 1.290835964278124379e+02
2.427446856781346014e+02 1.690000000000000000e+02 1.350835964278124379e+02
2.437446856781346014e+02 1.690000000000000000e+02 1.340835964278124379e+02
2.447446856781346014e+02 1.690000000000000000e+02 1.330835964278124379e+02
2.457446856781346014e+02 1.690000000000000000e+02 1.320835964278124379e+02
2.467446856781346014e+02 1.690000000000000000e+02 1.310835964278124379e+02
2.477446856781346014e+02 1.690000000000000000e+02 1.300835964278124379e+02
2.487446856781346014e+02 1.690000000000000000e+02 1.290835964278124379e+02
2.427446856781346014e+02 1.700000000000000000e+02 1.350835964278124379e+02
2.437446856781346014e+02 1.700000000000000000e+02 1.340835964278124379e+02
2.447446856781346014e+02 1.700000000000000000e+02 1.330835964278124379e+02
2.457446856781346014e+02 1.700000000000000000e+02 1.320835964278124379e+02
2.467446856781346014e+02 1.700000000000000000e+02 1.310835964278124379e+02
2.477446856781346014e+02 1.700000000000000000e+02 1.300835964278124379e+02
2.487446856781346014e+02 1.700000000000000000e+02 1.290835964278124379e+02
2.437446856781346014e+02 1.710000000000000000e+02 1.340835964278124379e+02
2.447446856781346014e+02 1.710000000000000000e+02 1.330835964278124379e+02
2.457446856781346014e+02 1.710000000000000000e+02 1.320835964278124379e+02
2.467446856781346014e+02 1.710000000000000000e+02 1.310835964278124379e+02
2.477446856781346014e+02 1.710000000000000000e+02 1.300835964278124379e+02
2.487446856781346014e+02 1.710000000000000000e+02 1.290835964278124379e+02
2.497446856781346014e+02 1.710000000000000000e+02 1.280835964278124379e+02
2.437446856781346014e+02 1.720000000000000000e+02 1.340835964278124379e+02
2.447446856781346014e+02 1.720000000000000000e+02 1.330835964278124379e+02
2.457446856781346014e+02 1.720000000000000000e+02 1.320835964278124379e+02
2.467446856781346014e+02 1.720000000000000000e+02 1.310835964278124379e+02
2.477446856781346014e+02 1.720000000000000000e+02 1.300835964278124379e+02
2.487446856781346014e+02 1.720000000000000000e+02 1.290835964278124379e+02
2.497446856781346014e+02 1.720000000000000000e+02 1.280835964278124379e+02
2.437446856781346014e+02 1.730000000000000000e+02 1.340835964278124379e+02
2.447446856781346014e+02 1.730000000000000000e+02 1.330835964278124379e+02
2.457446856781346014e+02 1.730000000000000000e+02 1.320835964278124379e+02
2.467446856781346014e+02 1.730000000000000000e+02 1.310835964278124379e+02
2.477446856781346014e+02 1.730000000000000000e+02 1.300835964278124379e+02
2.487446856781346014e+02 1.730000000000000000e+02 1.290835964278124379e+02
2.497446856781346014e+02 1.730000000000000000e+02 1.280835964278124379e+02
2.437446856781346014e+02 1.740000000000000000e+02 1.340835964278124379e+02
2.447446856781346014e+02 1.740000000000000000e+02 1.330835964278124379e+02
2.457446856781346014e+02 1.740000000000000000e+02 1.320835964278124379e+02
2.467446856781346014e+02 1.740000000000000000e+02 1.310835964278124379e+02
2.477446856781346014e+02 1.740000000000000000e+02 1.300835964278124379e+02
2.487446856781346014e+02 1.740000000000000000e+02 1.290835964278124379e+02
2.497446856781346014e+02 1.740000000000000000e+02 1.280835964278124379e+02
2.437446856781346014e+02 1.750000000000000000e+02 1.340835964278124379e+02
2.447446856781346014e+02 1.750000000000000000e+02 1.330835964278124379e+02
2.457446856781346014e+02 1.750000000000000000e+02 1.320835964278124379e+02
2.467446856781346014e+02 1.750000000000000000e+02 1.310835964278124379e+02
2.477446856781346014e+02 1.750000000000000000e+02 1.300835964278124379e+02
2.487446856781346014e+02 1.750000000000000000e+02 1.290835964278124379e+02
2.497446856781346014e+02 1.750000000000000000e+02 1.280835964278124379e+02
2.507446856781346014e+02 1.750000000000000000e+02 1.270835964278124237e+02
2.437446856781346014e+02 1.760000000000000000e+02 1.340835964278124379e+02
2.447446856781346014e+02 1.760000000000000000e+02 1.330835964278124379e+02
2.457446856781346014e+02 1.760000000000000000e+02 1.320835964278124379e+02
2.467446856781346014e+02 1.760000000000000000e+02 1.310835964278124379e+02
2.477446856781346014e+02 1.760000000000000000e+02 1.300835964278124379e+02
2.487446856781346014e+02 1.760000000000000000e+02 1.290835964278124379e+02
2.497446856781346014e+02 1.760000000000000000e+02 1.280835964278124379e+02
2.507446856781346014e+02 1.760000000000000000e+02 1.270835964278124237e+02
2.437446856781346014e+02 1.770000000000000000e+02 1.340835964278124379e+02
2.447446856781346014e+02 1.770000000000000000e+02 1.330835964278124379e+02
2.457446856781346014e+02 1.770000000000000000e+02 1.320835964278124379e+02
2.467446856781346014e+02 1.770000000000000000e+02 1.310835964278124379e+02
2.477446856781346014e+02 1.770000000000000000e+02 1.300835964278124379e+02
2.487446856781346014e+02 1.770000000000000000e+02 1.290835964278124379e+02
2.497446856781346014e+02 1.770000000000000000e+02 1.280835964278124379e+02
2.507446856781346014e+02 1.770000000000000000e+02 1.270835964278124237e+02
2.437446856781346014e+02 1.780000000000000000e+02 1.340835964278124379e+02
2.447446856781346014e+02 1.780000000000000000e+02 1.330835964278124379e+02
2.457446856781346014e+02 1.780000000000000000e+02 1.320835964278124379e+02
2.467446856781346014e+02 1.780000000000000000e+02 1.310835964278124379e+02
2.477446856781346014e+02 1.780000000000000000e+02 1.300835964278124379e+02
2.487446856781346014e+02 1.780000000000000000e+02 1.290835964278124379e+02
2.497446856781346014e+02 1.780000000000000000e+02 1.280835964278124379e+02
2.507446856781346014e+02 1.780000000000000000e+02 1.270835964278124237e+02
2.437446856781346014e+02 1.790000000000000000e+02 1.340835964278124379e+02
2.447446856781346014e+02 1.790000000000000000e+02 1.330835964278124379e+02
2.457446856781346014e+02 1.790000000000000000e+02 1.320835964278124379e+02
2.467446856781346014e+02 1.790000000000000000e+02 1.310835964278124379e+02
2.477446856781346014e+02 1.790000000000000000e+02 1.300835964278124379e+02
2.487446856781346014e+02 1.790000000000000000e+02 1.290835964278124379e+02
2.497446856781346014e+02 1.790000000000000000e+02 1.280835964278124379e+02
2.507446856781346014e+02 1.790000000000000000e+02 1.270835964278124237e+02
2.437446856781346014e+02 1.800000000000000000e+02 1.340835964278124379e+02
2.447446856781346014e+02 1.800000000000000000e+02 1.330835964278124379e+02
2.457446856781346014e+02 1.800000000000000000e+02 1.320835964278124379e+02
2.467446856781346014e+02 1.800000000000000000e+02 1.310835964278124379e+02
2.477446856781346014e+02 1.800000000000000000e+02 1.300835964278124379e+02
2.487446856781346014e+02 1.800000000000000000e+02 1.290835964278124379e+02
2.497446856781346014e+02 1.800000000000000000e+02 1.280835964278124379e+02
2.507446856781346014e+02 1.800000000000000000e+02 1.270835964278124237e+02
2.437446856781346014e+02 1.810000000000000000e+02 1.340835964278124379e+02
2.447446856781346014e+02 1.810000000000000000e+02 1.330835964278124379e+02
2.457446856781346014e+02 1.810000000000000000e+02 1.320835964278124379e+02
2.467446856781346014e+02 1.810000000000000000e+02 1.310835964278124379e+02
2.477446856781346014e+02 1.810000000000000000e+02 1.300835964278124379e+02
2.487446856781346014e+02 1.810000000000000000e+02 1.290835964278124379e+02
2.497446856781346014e+02 1.810000000000000000e+02 1.280835964278124379e+02
2.507446856781346014e+02 1.810000000000000000e+02 1.270835964278124237e+02
2.437446856781346014e+02 1.820000000000000000e+02 1.340835964278124379e+02
2.447446856781346014e+02 1.820000000000000000e+02 1.330835964278124379e+02
2.457446856781346014e+02 1.820000000000000000e+02 1.320835964278124379e+02
2.467446856781346014e+02 1.820000000000000000e+02 1.310835964278124379e+02
2.477446856781346014e+02 1.820000000000000000e+02 1.300835964278124379e+02
2.487446856781346014e+02 1.820000000000000000e+02 1.290835964278124379e+02
2.497446856781346014e+02 1.820000000000000000e+02 1.280835964278124379e+02
2.507446856781346014e+02 1.820000000000000000e+02 1.270835964278124237e+02
2.437446856781346014e+02 1.830000000000000000e+02 1.340835964278124379e+02
2.447446856781346014e+02 1.830000000000000000e+02 1.330835964278124379e+02
2.457446856781346014e+02 1.830000000000000000e+02 1.320835964278124379e+02
2.467446856781346014e+02 1.830000000000000000e+02 1.310835964278124379e+02
2.477446856781346014e+02 1.830000000000000000e+02 1.300835964278124379e+02
2.487446856781346014e+02 1.830000000000000000e+02 1.290835964278124379e+02
2.497446856781346014e+02 1.830000000000000000e+02 1.280835964278124379e+02
2.507446856781346014e+02 1.830000000000000000e+02 1.270835964278124237e+02
2.437446856781346014e+02 1.840000000000000000e+02 1.340835964278124379e+02
2.447446856781346014e+02 1.840000000000000000e+02 1.330835964278124379e+02
2.457446856781346014e+02 1.840000000000000000e+02 1.320835964278124379e+02
2.467446856781346014e+02 1.840000000000000000e+02 1.310835964278124379e+02
2.477446856781346014e+02 1.840000000000000000e+02 1.300835964278124379e+02
2.487446856781346014e+02 1.840000000000000000e+02 1.290835964278124379e+02
2.497446856781346014e+02 1.840000000000000000e+02 1.280835964278124379e+02
2.507446856781346014e+02 1.840000000000000000e+02 1.270835964278124237e+02
2.437446856781346014e+02 1.850000000000000000e+02 1.340835964278124379e+02
2.447446856781346014e+02 1.850000000000000000e+02 1.330835964278124379e+02
2.457446856781346014e+02 1.850000000000000000e+02 1.320835964278124379e+02
2.467446856781346014e+02 1.850000000000000000e+02 1.310835964278124379e+02
2.477446856781346014e+02 1.850000000000000000e+02 1.300835964278124379e+02
2.487446856781346014e+02 1.850000000000000000e+02 1.290835964278124379e+02
2.497446856781346014e+02 1.850000000000000000e+02 1.280835964278124379e+02
2.507446856781346014e+02 1.850000000000000000e+02 1.270835964278124237e+02
2.437446856781346014e+02 1.860000000000000000e+02 1.340835964278124379e+02
2.447446856781346014e+02 1.860000000000000000e+02 1.330835964278124379e+02
2.457446856781346014e+02 1.860000000000000000e+02 1.320835964278124379e+02
2.467446856781346014e+02 1.860000000000000000e+02 1.310835964278124379e+02
2.477446856781346014e+02 1.860000000000000000e+02 1.300835964278124379e+02
2.487446856781346014e+02 1.860000000000000000e+02 1.290835964278124379e+02
2.497446856781346014e+02 1.860000000000000000e+02 1.280835964278124379e+02
2.507446856781346014e+02 1.860000000000000000e+02 1.270835964278124237e+02
2.437446856781346014e+02 1.870000000000000000e+02 1.340835964278124379e+02
2.447446856781346014e+02 1.870000000000000000e+02 1.330835964278124379e+02
2.457446856781346014e+02 1.870000000000000000e+02 1.320835964278124379e+02
2.467446856781346014e+02 1.870000000000000000e+02 1.310835964278124379e+02
2.477446856781346014e+02 1.870000000000000000e+02 1.300835964278124379e+02
2.487446856781346014e+02 1.870000000000000000e+02 1.290835964278124379e+02
2.497446856781346014e+02 1.870000000000000000e+02 1.280835964278124379e+02
2.507446856781346014e+02 1.870000000000000000e+02 1.270835964278124237e+02
2.447446856781346014e+02 1.880000000000000000e+02 1.330835964278124379e+02
2.457446856781346014e+02 1.880000000000000000e+02 1.320835964278124379e+02
2.467446856781346014e+02 1.880000000000000000e+02 1.310835964278124379e+02
2.477446856781346014e+02 1.880000000000000000e+02 1.300835964278124379e+02
2.487446856781346014e+02 1.880000000000000000e+02 1.290835964278124379e+02
2.497446856781346014e+02 1.880000000000000000e+02 1.280835964278124379e+02
2.507446856781346014e+02 1.880000000000000000e+02 1.270835964278124237e+02
2.447446856781346014e+02 1.890000000000000000e+02 1.330835964278124379e+02
2.457446856781346014e+02 1.890000000000000000e+02 1.320835964278124379e+02
2.467446856781346014e+02 1.890000000000000000e+02 1.310835964278124379e+02
2.477446856781346014e+02 1.890000000000000000e+02 1.300835964278124379e+02
2.487446856781346014e+02 1.890000000000000000e+02 1.290835964278124379e+02
2.497446856781346014e+02 1.890000000000000000e+02 1.280835964278124379e+02
2.507446856781346014e+02 1.890000000000000000e+02 1.270835964278124237e+02
2.447446856781346014e+02 1.900000000000000000e+02 1.330835964278124379e+02
2.457446856781346014e+02 1.900000000000000000e+02 1.320835964278124379e+02
2.467446856781346014e+02 1.900000000000000000e+02 1.310835964278124379e+02
2.477446856781346014e+02 1.900000000000000000e+02 1.300835964278124379e+02
2.487446856781346014e+02 1.900000000000000000e+02 1.290835964278124379e+02
2.497446856781346014e+02 1.900000000000000000e+02 1.280835964278124379e+02
2.507446856781346014e+02 1.900000000000000000e+02 1.270835964278124237e+02
2.437446856781346014e+02 1.910000000000000000e+02 1.340835964278124379e+02
2.447446856781346014e+02 1.910000000000000000e+02 1.330835964278124379e+02
2.457446856781346014e+02 1.910000000000000000e+02 1.320835964278124379e+02
2.467446856781346014e+02 1.910000000000000000e+02 1.310835964278124379e+02
2.477446856781346014e+02 1.910000000000000000e+02 1.300835964278124379e+02
2.487446856781346014e+02 1.910000000000000000e+02 1.290835964278124379e+02
2.497446856781346014e+02 1.910000000000000000e+02 1.280835964278124379e+02
2.507446856781346014e+02 1.910000000000000000e+02 1.270835964278124237e+02
2.437446856781346014e+02 1.920000000000000000e+02 1.340835964278124379e+02
2.447446856781346014e+02 1.920000000000000000e+02 1.330835964278124379e+02
2.457446856781346014e+02 1.920000000000000000e+02 1.320835964278124379e+02
2.467446856781346014e+02 1.920000000000000000e+02 1.310835964278124379e+02
2.477446856781346014e+02 1.920000000000000000e+02 1.300835964278124379e+02
2.487446856781346014e+02 1.920000000000000000e+02 1.290835964278124379e+02
2.497446856781346014e+02 1.920000000000000000e+02 1.280835964278124379e+02
2.507446856781346014e+02 1.920000000000000000e+02 1.270835964278124237e+02
2.437446856781346014e+02 1.930000000000000000e+02 1.340835964278124379e+02
2.447446856781346014e+02 1.930000000000000000e+02 1.330835964278124379e+02
2.457446856781346014e+02 1.930000000000000000e+02 1.320835964278124379e+02
2.467446856781346014e+02 1.930000000000000000e+02 1.310835964278124379e+02
2.477446856781346014e+02 1.930000000000000000e+02 1.300835964278124379e+02
2.487446856781346014e+02 1.930000000000000000e+02 1.290835964278124379e+02
2.497446856781346014e+02 1.930000000000000000e+02 1.280835964278124379e+02
2.507446856781346014e+02 1.930000000000000000e+02 1.270835964278124237e+02
2.447446856781346014e+02 1.940000000000000000e+02 1.330835964278124379e+02
2.457446856781346014e+02 1.940000000000000000e+02 1.320835964278124379e+02
2.467446856781346014e+02 1.940000000000000000e+02 1.310835964278124379e+02
2.477446856781346014e+02 1.940000000000000000e+02 1.300835964278124379e+02
2.487446856781346014e+02 1.940000000000000000e+02 1.290835964278124379e+02
2.497446856781346014e+02 1.940000000000000000e+02 1.280835964278124379e+02
2.507446856781346014e+02 1.940000000000000000e+02 1.270835964278124237e+02
2.447446856781346014e+02 1.950000000000000000e+02 1.330835964278124379e+02
2.457446856781346014e+02 1.950000000000000000e+02 1.320835964278124379e+02
2.467446856781346014e+02 1.950000000000000000e+02 1.310835964278124379e+02
2.477446856781346014e+02 1.950000000000000000e+02 1.300835964278124379e+02
2.487446856781346014e+02 1.950000000000000000e+02 1.290835964278124379e+02
2.497446856781346014e+02 1.950000000000000000e+02 1.280835964278124379e+02
2.507446856781346014e+02 1.950000000000000000e+02 1.270835964278124237e+02
2.447446856781346014e+02 1.960000000000000000e+02 1.330835964278124379e+02
2.457446856781346014e+02 1.960000000000000000e+02 1.320835964278124379e+02
2.467446856781346014e+02 1.960000000000000000e+02 1.310835964278124379e+02
2.477446856781346014e+02 1.960000000000000000e+02 1.300835964278124379e+02
2.487446856781346014e+02 1.960000000000000000e+02 1.290835964278124379e+02
2.497446856781346014e+02 1.960000000000000000e+02 1.280835964278124379e+02
2.507446856781346014e+02 1.960000000000000000e+02 1.270835964278124237e+02
2.447446856781346014e+02 1.970000000000000000e+02 1.330835964278124379e+02
2.457446856781346014e+02 1.970000000000000000e+02 1.320835964278124379e+02
2.467446856781346014e+02 1.970000000000000000e+02 1.310835964278124379e+02
2.477446856781346014e+02 1.970000000000000000e+02 1.300835964278124379e+02
2.487446856781346014e+02 1.970000000000000000e+02 1.290835964278124379e+02
2.497446856781346014e+02 1.970000000000000000e+02 1.280835964278124379e+02
2.507446856781346014e+02 1.970000000000000000e+02 1.270835964278124237e+02
2.447446856781346014e+02 1.980000000000000000e+02 1.330835964278124379e+02
2.457446856781346014e+02 1.980000000000000000e+02 1.320835964278124379e+02
2.467446856781346014e+02 1.980000000000000000e+02 1.310835964278124379e+02
2.477446856781346014e+02 1.980000000000000000e+02 1.300835964278124379e+02
2.487446856781346014e+02 1.980000000000000000e+02 1.290835964278124379e+02
2.497446856781346014e+02 1.980000000000000000e+02 1.280835964278124379e+02
2.507446856781346014e+02 1.980000000000000000e+02 1.270835964278124237e+02
2.447446856781346014e+02 1.990000000000000000e+02 1.330835964278124379e+02
2.457446856781346014e+02 1.990000000000000000e+02 1.320835964278124379e+02
2.467446856781346014e+02 1.990000000000000000e+02 1.310835964278124379e+02
2.477446856781346014e+02 1.990000000000000000e+02 1.300835964278124379e+02
2.487446856781346014e+02 1.990000000000000000e+02 1.290835964278124379e+02
2.497446856781346014e+02 1.990000000000000000e+02 1.280835964278124379e+02
2.507446856781346014e+02 1.990000000000000000e+02 1.270835964278124237e+02
2.447446856781346014e+02 2.000000000000000000e+02 1.330835964278124379e+02
2.457446856781346014e+02 2.000000000000000000e+02 1.320835964278124379e+02
2.467446856781346014e+02 2.000000000000000000e+02 1.310835964278124379e+02
2.477446856781346014e+02 2.000000000000000000e+02 1.300835964278124379e+02
2.487446856781346014e+02 2.000000000000000000e+02 1.290835964278124379e+02
2.497446856781346014e+02 2.000000000000000000e+02 1.280835964278124379e+02
2.507446856781346014e+02 2.000000000000000000e+02 1.270835964278124237e+02
2.447446856781346014e+02 2.010000000000000000e+02 1.330835964278124379e+02
2.457446856781346014e+02 2.010000000000000000e+02 1.320835964278124379e+02
2.467446856781346014e+02 2.010000000000000000e+02 1.310835964278124379e+02
2.477446856781346014e+02 2.010000000000000000e+02 1.300835964278124379e+02
2.487446856781346014e+02 2.010000000000000000e+02 1.290835964278124379e+02
2.497446856781346014e+02 2.010000000000000000e+02 1.280835964278124379e+02
2.507446856781346014e+02 2.010000000000000000e+02 1.270835964278124237e+02
2.447446856781346014e+02 2.020000000000000000e+02 1.330835964278124379e+02
2.457446856781346014e+02 2.020000000000000000e+02 1.320835964278124379e+02
2.467446856781346014e+02 2.020000000000000000e+02 1.310835964278124379e+02
2.477446856781346014e+02 2.020000000000000000e+02 1.300835964278124379e+02
2.487446856781346014e+02 2.020000000000000000e+02 1.290835964278124379e+02
2.497446856781346014e+02 2.020000000000000000e+02 1.280835964278124379e+02
2.507446856781346014e+02 2.020000000000000000e+02 1.270835964278124237e+02
2.447446856781346014e+02 2.030000000000000000e+02 1.330835964278124379e+02
2.457446856781346014e+02 2.030000000000000000e+02 1.320835964278124379e+02
2.467446856781346014e+02 2.030000000000000000e+02 1.310835964278124379e+02
2.477446856781346014e+02 2.030000000000000000e+02 1.300835964278124379e+02
2.487446856781346014e+02 2.030000000000000000e+02 1.290835964278124379e+02
2.497446856781346014e+02 2.030000000000000000e+02 1.280835964278124379e+02
2.507446856781346014e+02 2.030000000000000000e+02 1.270835964278124237e+02
2.447446856781346014e+02 2.040000000000000000e+02 1.330835964278124379e+02
2.457446856781346014e+02 2.040000000000000000e+02 1.320835964278124379e+02
2.467446856781346014e+02 2.040000000000000000e+02 1.310835964278124379e+02
2.477446856781346014e+02 2.040000000000000000e+02 1.300835964278124379e+02
