1.547169401510433033e+02 -2.308359642781245213e+01 -2.013263042028568179e+02
1.541402598289284356e+02 -2.408359642781245213e+01 -2.021432740958672696e+02
1.589939919767429330e+02 -1.708359642781245213e+01 -1.970011651669090327e+02
1.584173116546280653e+02 -1.808359642781245213e+01 -1.978181350599194843e+02
1.578406313325131975e+02 -1.908359642781245213e+01 -1.986351049529299075e+02
1.572639510103983298e+02 -2.008359642781245213e+01 -1.994520748459403592e+02
1.566872706882834621e+02 -2.108359642781245213e+01 -2.002690447389507824e+02
1.561105903661685943e+02 -2.208359642781245213e+01 -2.010860146319612340e+02
1.555339100440537266e+02 -2.308359642781245213e+01 -2.019029845249716857e+02
1.598109618697533847e+02 -1.708359642781245213e+01 -1.975778454890239004e+02
1.592342815476385169e+02 -1.808359642781245213e+01 -1.983948153820343521e+02
1.586576012255236492e+02 -1.908359642781245213e+01 -1.992117852750447753e+02
1.580809209034087814e+02 -2.008359642781245213e+01 -2.000287551680552269e+02
1.575042405812939137e+02 -2.108359642781245213e+01 -2.008457250610656502e+02
1.569275602591790459e+02 -2.208359642781245213e+01 -2.016626949540761018e+02
1.563508799370641782e+02 -2.308359642781245213e+01 -2.024796648470865534e+02
1.606279317627638079e+02 -1.708359642781245213e+01 -1.981545258111387682e+02
1.600512514406489402e+02 -1.808359642781245213e+01 -1.989714957041492198e+02
1.594745711185340724e+02 -1.908359642781245213e+01 -1.997884655971596430e+02
1.588978907964192047e+02 -2.008359642781245213e+01 -2.006054354901700947e+02
1.583212104743043369e+02 -2.108359642781245213e+01 -2.014224053831805179e+02
1.577445301521894976e+02 -2.208359642781245213e+01 -2.022393752761909695e+02
1.571678498300746298e+02 -2.308359642781245213e+01 -2.030563451692014212e+02
1.614449016557742596e+02 -1.708359642781245213e+01 -1.987312061332536359e+02
1.608682213336593918e+02 -1.808359642781245213e+01 -1.995481760262640876e+02
1.602915410115445241e+02 -1.908359642781245213e+01 -2.003651459192745108e+02
1.597148606894296563e+02 -2.008359642781245213e+01 -2.011821158122849624e+02
1.591381803673147886e+02 -2.108359642781245213e+01 -2.019990857052953857e+02
1.585615000451999208e+02 -2.208359642781245213e+01 -2.028160555983058373e+02
1.579848197230850531e+02 -2.308359642781245213e+01 -2.036330254913162889e+02
1.622618715487847112e+02 -1.708359642781245213e+01 -1.993078864553685037e+02
1.616851912266698434e+02 -1.808359642781245213e+01 -2.001248563483789553e+02
1.611085109045549757e+02 -1.908359642781245213e+01 -2.009418262413893785e+02
1.605318305824401079e+02 -2.008359642781245213e+01 -2.017587961343998302e+02
1.599551502603252402e+02 -2.108359642781245213e+01 -2.025757660274102534e+02
1.593784699382103724e+02 -2.208359642781245213e+01 -2.033927359204207050e+02
1.588017896160955047e+02 -2.308359642781245213e+01 -2.042097058134311567e+02
1.630788414417951344e+02 -1.708359642781245213e+01 -1.998845667774833714e+02
1.625021611196802667e+02 -1.808359642781245213e+01 -2.007015366704938231e+02
1.619254807975653989e+02 -1.908359642781245213e+01 -2.015185065635042463e+02
1.613488004754505312e+02 -2.008359642781245213e+01 -2.023354764565146979e+02
1.607721201533356634e+02 -2.108359642781245213e+01 -2.031524463495251211e+02
1.601954398312208241e+02 -2.208359642781245213e+01 -2.039694162425355728e+02
1.596187595091059563e+02 -2.308359642781245213e+01 -2.047863861355460244e+02
1.638958113348055861e+02 -1.808359642781245213e+01 -2.004612470995982392e+02
1.633191310126907183e+02 -1.908359642781245213e+01 -2.012782169926086908e+02
1.627424506905758506e+02 -2.008359642781245213e+01 -2.020951868856191140e+02
1.621657703684609828e+02 -2.108359642781245213e+01 -2.029121567786295657e+02
1.615890900463461151e+02 -2.208359642781245213e+01 -2.037291266716399889e+02
1.728824801579204404e+02 -1.808359642781245213e+01 -2.068047306428617844e+02
1.723057998358055727e+02 -1.908359642781245213e+01 -2.076217005358722076e+02
1.717291195136907049e+02 -2.008359642781245213e+01 -2.084386704288826593e+02
1.711524391915758372e+02 -2.108359642781245213e+01 -2.092556403218931109e+02
1.736994500509308921e+02 -1.708359642781245213e+01 -2.073814109649766522e+02
1.731227697288160243e+02 -1.808359642781245213e+01 -2.081983808579870754e+02
1.725460894067011566e+02 -1.908359642781245213e+01 -2.090153507509975270e+02
1.719694090845862888e+02 -2.008359642781245213e+01 -2.098323206440079787e+02
1.713927287624714211e+02 -2.108359642781245213e+01 -2.106492905370184019e+02
1.708160484403565533e+02 -2.208359642781245213e+01 -2.114662604300288535e+02
1.745164199439413437e+02 -1.708359642781245213e+01 -2.079580912870915199e+02
1.739397396218264760e+02 -1.808359642781245213e+01 -2.087750611801019431e+02
1.733630592997116082e+02 -1.908359642781245213e+01 -2.095920310731123948e+02
1.727863789775967405e+02 -2.008359642781245213e+01 -2.104090009661228464e+02
1.722096986554818727e+02 -2.108359642781245213e+01 -2.112259708591332696e+02
1.716330183333670050e+02 -2.208359642781245213e+01 -2.120429407521437213e+02
1.753333898369517669e+02 -1.708359642781245213e+01 -2.085347716092063877e+02
1.747567095148368992e+02 -1.808359642781245213e+01 -2.093517415022168109e+02
1.741800291927220314e+02 -1.908359642781245213e+01 -2.101687113952272625e+02
1.736033488706071637e+02 -2.008359642781245213e+01 -2.109856812882377142e+02
1.730266685484922959e+02 -2.108359642781245213e+01 -2.118026511812481374e+02
1.724499882263774282e+02 -2.208359642781245213e+01 -2.126196210742585890e+02
1.761503597299622186e+02 -1.708359642781245213e+01 -2.091114519313212554e+02
1.755736794078473508e+02 -1.808359642781245213e+01 -2.099284218243316786e+02
1.749969990857324831e+02 -1.908359642781245213e+01 -2.107453917173421303e+02
1.744203187636176153e+02 -2.008359642781245213e+01 -2.115623616103525819e+02
1.738436384415027476e+02 -2.108359642781245213e+01 -2.123793315033630051e+02
1.732669581193878798e+02 -2.208359642781245213e+01 -2.131963013963734568e+02
1.769673296229726702e+02 -1.708359642781245213e+01 -2.096881322534361232e+02
1.763906493008578025e+02 -1.808359642781245213e+01 -2.105051021464465464e+02
1.758139689787429347e+02 -1.908359642781245213e+01 -2.113220720394569980e+02
1.752372886566280670e+02 -2.008359642781245213e+01 -2.121390419324674497e+02
1.746606083345131992e+02 -2.108359642781245213e+01 -2.129560118254778729e+02
1.740839280123983315e+02 -2.208359642781245213e+01 -2.137729817184883245e+02
1.777842995159830934e+02 -1.708359642781245213e+01 -2.102648125755509909e+02
1.772076191938682257e+02 -1.808359642781245213e+01 -2.110817824685614141e+02
1.766309388717533579e+02 -1.908359642781245213e+01 -2.118987523615718658e+02
1.760542585496384902e+02 -2.008359642781245213e+01 -2.127157222545823174e+02
1.754775782275236224e+02 -2.108359642781245213e+01 -2.135326921475927406e+02
1.749008979054087547e+02 -2.208359642781245213e+01 -2.143496620406031923e+02
1.786012694089935451e+02 -1.708359642781245213e+01 -2.108414928976658587e+02
1.780245890868786773e+02 -1.808359642781245213e+01 -2.116584627906762819e+02
1.774479087647638096e+02 -1.908359642781245213e+01 -2.124754326836867335e+02
1.768712284426489418e+02 -2.008359642781245213e+01 -2.132924025766971852e+02
1.762945481205340741e+02 -2.108359642781245213e+01 -2.141093724697076084e+02
1.757178677984192063e+02 -2.208359642781245213e+01 -2.149263423627180600e+02
1.794182393020039967e+02 -1.708359642781245213e+01 -2.114181732197807264e+02
1.788415589798891290e+02 -1.808359642781245213e+01 -2.122351431127911496e+02
1.782648786577742612e+02 -1.908359642781245213e+01 -2.130521130058016013e+02
1.776881983356593935e+02 -2.008359642781245213e+01 -2.138690828988120529e+02
1.771115180135445257e+02 -2.108359642781245213e+01 -2.146860527918224761e+02
1.765348376914296580e+02 -2.208359642781245213e+01 -2.155030226848329278e+02
1.802352091950144199e+02 -1.708359642781245213e+01 -2.119948535418955657e+02
1.796585288728995522e+02 -1.808359642781245213e+01 -2.128118234349060174e+02
1.790818485507846844e+02 -1.908359642781245213e+01 -2.136287933279164690e+02
1.785051682286698167e+02 -2.008359642781245213e+01 -2.144457632209268922e+02
1.779284879065549489e+02 -2.108359642781245213e+01 -2.152627331139373439e+02
1.773518075844400812e+02 -2.208359642781245213e+01 -2.160797030069477955e+02
1.810521790880248716e+02 -1.708359642781245213e+01 -2.125715338640104335e+02
1.804754987659100038e+02 -1.808359642781245213e+01 -2.133885037570208851e+02
1.798988184437951361e+02 -1.908359642781245213e+01 -2.142054736500313368e+02
1.793221381216802683e+02 -2.008359642781245213e+01 -2.150224435430417600e+02
1.787454577995654006e+02 -2.108359642781245213e+01 -2.158394134360522116e+02
1.781687774774505328e+02 -2.208359642781245213e+01 -2.166563833290626633e+02
1.818691489810352948e+02 -1.708359642781245213e+01 -2.131482141861253012e+02
1.812924686589204271e+02 -1.808359642781245213e+01 -2.139651840791357529e+02
1.807157883368055593e+02 -1.908359642781245213e+01 -2.147821539721462045e+02
1.801391080146906916e+02 -2.008359642781245213e+01 -2.155991238651566277e+02
1.795624276925758238e+02 -2.108359642781245213e+01 -2.164160937581670794e+02
1.789857473704609845e+02 -2.208359642781245213e+01 -2.172330636511775310e+02
1.826861188740457465e+02 -1.708359642781245213e+01 -2.137248945082401690e+02
1.821094385519308787e+02 -1.808359642781245213e+01 -2.145418644012506206e+02
1.815327582298160110e+02 -1.908359642781245213e+01 -2.153588342942610723e+02
1.809560779077011432e+02 -2.008359642781245213e+01 -2.161758041872714955e+02
1.803793975855862755e+02 -2.108359642781245213e+01 -2.169927740802819471e+02
1.798027172634714077e+02 -2.208359642781245213e+01 -2.178097439732923988e+02
1.792260369413565400e+02 -2.308359642781245213e+01 -2.186267138663028220e+02
1.835030887670561981e+02 -1.708359642781245213e+01 -2.143015748303550367e+02
1.829264084449413303e+02 -1.808359642781245213e+01 -2.151185447233654884e+02
1.823497281228264626e+02 -1.908359642781245213e+01 -2.159355146163759400e+02
1.817730478007115948e+02 -2.008359642781245213e+01 -2.167524845093863632e+02
1.811963674785967271e+02 -2.108359642781245213e+01 -2.175694544023968149e+02
1.806196871564818593e+02 -2.208359642781245213e+01 -2.183864242954072665e+02
1.843200586600666213e+02 -1.708359642781245213e+01 -2.148782551524699045e+02
1.837433783379517536e+02 -1.808359642781245213e+01 -2.156952250454803561e+02
1.831666980158368858e+02 -1.908359642781245213e+01 -2.165121949384908078e+02
1.825900176937220181e+02 -2.008359642781245213e+01 -2.173291648315012310e+02
1.820133373716071503e+02 -2.108359642781245213e+01 -2.181461347245116826e+02
1.814366570494923110e+02 -2.208359642781245213e+01 -2.189631046175221343e+02
1.851370285530770730e+02 -1.708359642781245213e+01 -2.154549354745847722e+02
1.845603482309622052e+02 -1.808359642781245213e+01 -2.162719053675952239e+02
1.839836679088473375e+02 -1.908359642781245213e+01 -2.170888752606056755e+02
1.834069875867324697e+02 -2.008359642781245213e+01 -2.179058451536160987e+02
1.828303072646176020e+02 -2.108359642781245213e+01 -2.187228150466265504e+02
1.822536269425027342e+02 -2.208359642781245213e+01 -2.195397849396370020e+02
1.859539984460875246e+02 -1.708359642781245213e+01 -2.160316157966996400e+02
1.853773181239726568e+02 -1.808359642781245213e+01 -2.168485856897100916e+02
1.848006378018577891e+02 -1.908359642781245213e+01 -2.176655555827205433e+02
1.842239574797429214e+02 -2.008359642781245213e+01 -2.184825254757309665e+02
1.836472771576280536e+02 -2.108359642781245213e+01 -2.192994953687414181e+02
1.830705968355131859e+02 -2.208359642781245213e+01 -2.201164652617518698e+02
1.867709683390979478e+02 -1.708359642781245213e+01 -2.166082961188145077e+02
1.861942880169830801e+02 -1.808359642781245213e+01 -2.174252660118249594e+02
1.856176076948682123e+02 -1.908359642781245213e+01 -2.182422359048354110e+02
1.850409273727533446e+02 -2.008359642781245213e+01 -2.190592057978458342e+02
1.844642470506384768e+02 -2.108359642781245213e+01 -2.198761756908562859e+02
1.838875667285236375e+02 -2.208359642781245213e+01 -2.206931455838667375e+02
1.875879382321083995e+02 -1.908359642781245213e+01 -2.171849764409293755e+02
1.870112579099935317e+02 -2.008359642781245213e+01 -2.180019463339398271e+02
1.864345775878786640e+02 -2.108359642781245213e+01 -2.188189162269502788e+02
2.194497640595156440e+02 -1.808359642781245213e+01 -2.396755090034092177e+02
2.188730837374007763e+02 -1.908359642781245213e+01 -2.404924788964196409e+02
2.182964034152859085e+02 -2.008359642781245213e+01 -2.413094487894300926e+02
2.202667339525260957e+02 -1.708359642781245213e+01 -2.402521893255240855e+02
2.196900536304112279e+02 -1.808359642781245213e+01 -2.410691592185345087e+02
2.191133733082963602e+02 -1.908359642781245213e+01 -2.418861291115449603e+02
2.185366929861814924e+02 -2.008359642781245213e+01 -2.427030990045554120e+02
2.179600126640666247e+02 -2.108359642781245213e+01 -2.435200688975658352e+02
2.210837038455365189e+02 -1.708359642781245213e+01 -2.408288696476389532e+02
2.205070235234216511e+02 -1.808359642781245213e+01 -2.416458395406493764e+02
2.199303432013067834e+02 -1.908359642781245213e+01 -2.424628094336598281e+02
2.193536628791919156e+02 -2.008359642781245213e+01 -2.432797793266702797e+02
2.187769825570770479e+02 -2.108359642781245213e+01 -2.440967492196807029e+02
2.219006737385469705e+02 -1.708359642781245213e+01 -2.414055499697537925e+02
2.213239934164321028e+02 -1.808359642781245213e+01 -2.422225198627642442e+02
2.207473130943172350e+02 -1.908359642781245213e+01 -2.430394897557746958e+02
2.201706327722023673e+02 -2.008359642781245213e+01 -2.438564596487851190e+02
2.227176436315573937e+02 -1.808359642781245213e+01 -2.419822302918686603e+02
2.221409633094425260e+02 -1.908359642781245213e+01 -2.427992001848791119e+02
2.215642829873276582e+02 -2.008359642781245213e+01 -2.436161700778895636e+02
2.325212823476826998e+02 -1.708359642781245213e+01 -2.489023941572470733e+02
2.319446020255678320e+02 -1.808359642781245213e+01 -2.497193640502575249e+02
2.313679217034529643e+02 -1.908359642781245213e+01 -2.505363339432679481e+02
2.307912413813380965e+02 -2.008359642781245213e+01 -2.513533038362783998e+02
2.333382522406931514e+02 -1.708359642781245213e+01 -2.494790744793619410e+02
2.327615719185782837e+02 -1.808359642781245213e+01 -2.502960443723723927e+02
2.321848915964634159e+02 -1.908359642781245213e+01 -2.511130142653828159e+02
2.316082112743485482e+02 -2.008359642781245213e+01 -2.519299841583932675e+02
2.310315309522336804e+02 -2.108359642781245213e+01 -2.527469540514037192e+02
2.304548506301188127e+02 -2.208359642781245213e+01 -2.535639239444141424e+02
2.341552221337036030e+02 -1.608359642781245213e+01 -2.500557548014768088e+02
2.335785418115887353e+02 -1.708359642781245213e+01 -2.508727246944872604e+02
2.330018614894738676e+02 -1.808359642781245213e+01 -2.516896945874976836e+02
2.324251811673589998e+02 -1.908359642781245213e+01 -2.525066644805081353e+02
2.318485008452441321e+02 -2.008359642781245213e+01 -2.533236343735185869e+02
2.312718205231292643e+02 -2.108359642781245213e+01 -2.541406042665290101e+02
2.306951402010143966e+02 -2.208359642781245213e+01 -2.549575741595394618e+02
2.349721920267140263e+02 -1.608359642781245213e+01 -2.506324351235916765e+02
2.343955117045991585e+02 -1.708359642781245213e+01 -2.514494050166021282e+02
2.338188313824842908e+02 -1.808359642781245213e+01 -2.522663749096125514e+02
2.332421510603694230e+02 -1.908359642781245213e+01 -2.530833448026230030e+02
2.326654707382545553e+02 -2.008359642781245213e+01 -2.539003146956334547e+02
2.320887904161397159e+02 -2.108359642781245213e+01 -2.547172845886438779e+02
2.315121100940248482e+02 -2.208359642781245213e+01 -2.555342544816543295e+02
2.357891619197244779e+02 -1.608359642781245213e+01 -2.512091154457065443e+02
2.352124815976096102e+02 -1.708359642781245213e+01 -2.520260853387169959e+02
2.346358012754947424e+02 -1.808359642781245213e+01 -2.528430552317274191e+02
2.340591209533798747e+02 -1.908359642781245213e+01 -2.536600251247378708e+02
2.334824406312650069e+02 -2.008359642781245213e+01 -2.544769950177483224e+02
2.329057603091501392e+02 -2.108359642781245213e+01 -2.552939649107587456e+02
2.323290799870352714e+02 -2.208359642781245213e+01 -2.561109348037692257e+02
2.366061318127349296e+02 -1.608359642781245213e+01 -2.517857957678214120e+02
2.360294514906200618e+02 -1.708359642781245213e+01 -2.526027656608318637e+02
2.354527711685051941e+02 -1.808359642781245213e+01 -2.534197355538422869e+02
2.348760908463903263e+02 -1.908359642781245213e+01 -2.542367054468527385e+02
2.342994105242754586e+02 -2.008359642781245213e+01 -2.550536753398631902e+02
2.337227302021605908e+02 -2.108359642781245213e+01 -2.558706452328736134e+02
2.331460498800457231e+02 -2.208359642781245213e+01 -2.566876151258840650e+02
2.374231017057453528e+02 -1.608359642781245213e+01 -2.523624760899362798e+02
2.368464213836304850e+02 -1.708359642781245213e+01 -2.531794459829467314e+02
2.362697410615156173e+02 -1.808359642781245213e+01 -2.539964158759571546e+02
2.356930607394007495e+02 -1.908359642781245213e+01 -2.548133857689676063e+02
2.351163804172858818e+02 -2.008359642781245213e+01 -2.556303556619780579e+02
2.345397000951710424e+02 -2.108359642781245213e+01 -2.564473255549884811e+02
2.339630197730561747e+02 -2.208359642781245213e+01 -2.572642954479989612e+02
2.382400715987558044e+02 -1.608359642781245213e+01 -2.529391564120511475e+02
2.376633912766409367e+02 -1.708359642781245213e+01 -2.537561263050615992e+02
2.370867109545260689e+02 -1.808359642781245213e+01 -2.545730961980720224e+02
2.365100306324112012e+02 -1.908359642781245213e+01 -2.553900660910824740e+02
2.359333503102963334e+02 -2.008359642781245213e+01 -2.562070359840928973e+02
2.353566699881814657e+02 -2.108359642781245213e+01 -2.570240058771033773e+02
2.347799896660665979e+02 -2.208359642781245213e+01 -2.578409757701138005e+02
2.390570414917662561e+02 -1.608359642781245213e+01 -2.535158367341660153e+02
2.384803611696513883e+02 -1.708359642781245213e+01 -2.543328066271764669e+02
2.379036808475365206e+02 -1.808359642781245213e+01 -2.551497765201868901e+02
2.373270005254216528e+02 -1.908359642781245213e+01 -2.559667464131973418e+02
2.367503202033067851e+02 -2.008359642781245213e+01 -2.567837163062077934e+02
2.361736398811919173e+02 -2.108359642781245213e+01 -2.576006861992182166e+02
2.355969595590770496e+02 -2.208359642781245213e+01 -2.584176560922286967e+02
2.398740113847766793e+02 -1.608359642781245213e+01 -2.540925170562808830e+02
2.392973310626618115e+02 -1.708359642781245213e+01 -2.549094869492913347e+02
2.387206507405469438e+02 -1.808359642781245213e+01 -2.557264568423017579e+02
2.381439704184320760e+02 -1.908359642781245213e+01 -2.565434267353122095e+02
2.375672900963172083e+02 -2.008359642781245213e+01 -2.573603966283226328e+02
2.369906097742023690e+02 -2.108359642781245213e+01 -2.581773665213331128e+02
2.364139294520875012e+02 -2.208359642781245213e+01 -2.589943364143435360e+02
2.406909812777871309e+02 -1.608359642781245213e+01 -2.546691973783957508e+02
2.401143009556722632e+02 -1.708359642781245213e+01 -2.554861672714062024e+02
2.395376206335573954e+02 -1.808359642781245213e+01 -2.563031371644166256e+02
2.389609403114425277e+02 -1.908359642781245213e+01 -2.571201070574271057e+02
2.383842599893276599e+02 -2.008359642781245213e+01 -2.579370769504375289e+02
2.378075796672127922e+02 -2.108359642781245213e+01 -2.587540468434479521e+02
2.372308993450979244e+02 -2.208359642781245213e+01 -2.595710167364584322e+02
2.415079511707975826e+02 -1.608359642781245213e+01 -2.552458777005106185e+02
2.409312708486827148e+02 -1.708359642781245213e+01 -2.560628475935210417e+02
2.403545905265678471e+02 -1.808359642781245213e+01 -2.568798174865315218e+02
2.397779102044529793e+02 -1.908359642781245213e+01 -2.576967873795419450e+02
2.392012298823381116e+02 -2.008359642781245213e+01 -2.585137572725523682e+02
2.386245495602232438e+02 -2.108359642781245213e+01 -2.593307271655628483e+02
2.380478692381083761e+02 -2.208359642781245213e+01 -2.601476970585732715e+02
2.423249210638080058e+02 -1.608359642781245213e+01 -2.558225580226254863e+02
2.417482407416931380e+02 -1.708359642781245213e+01 -2.566395279156359379e+02
2.411715604195782703e+02 -1.808359642781245213e+01 -2.574564978086463611e+02
2.405948800974634025e+02 -1.908359642781245213e+01 -2.582734677016568412e+02
2.400181997753485348e+02 -2.008359642781245213e+01 -2.590904375946672644e+02
2.394415194532336955e+02 -2.108359642781245213e+01 -2.599074074876776876e+02
2.388648391311188277e+02 -2.208359642781245213e+01 -2.607243773806881677e+02
2.431418909568184574e+02 -1.608359642781245213e+01 -2.563992383447403540e+02
2.425652106347035897e+02 -1.708359642781245213e+01 -2.572162082377507772e+02
2.419885303125887219e+02 -1.808359642781245213e+01 -2.580331781307612573e+02
2.414118499904738542e+02 -1.908359642781245213e+01 -2.588501480237716805e+02
2.408351696683589864e+02 -2.008359642781245213e+01 -2.596671179167821037e+02
2.402584893462441187e+02 -2.108359642781245213e+01 -2.604840878097925838e+02
2.396818090241292509e+02 -2.208359642781245213e+01 -2.613010577028030070e+02
2.439588608498289091e+02 -1.608359642781245213e+01 -2.569759186668551934e+02
2.433821805277140413e+02 -1.708359642781245213e+01 -2.577928885598656734e+02
2.428055002055991736e+02 -1.808359642781245213e+01 -2.586098584528760966e+02
2.422288198834843058e+02 -1.908359642781245213e+01 -2.594268283458865199e+02
2.416521395613694381e+02 -2.008359642781245213e+01 -2.602437982388969999e+02
2.410754592392545703e+02 -2.108359642781245213e+01 -2.610607681319074231e+02
2.404987789171397026e+02 -2.208359642781245213e+01 -2.618777380249178464e+02
2.447758307428393323e+02 -1.608359642781245213e+01 -2.575525989889700895e+02
2.441991504207244645e+02 -1.708359642781245213e+01 -2.583695688819805127e+02
2.436224700986095968e+02 -1.808359642781245213e+01 -2.591865387749909928e+02
2.430457897764947290e+02 -1.908359642781245213e+01 -2.600035086680014160e+02
2.424691094543798613e+02 -2.008359642781245213e+01 -2.608204785610118392e+02
2.418924291322650220e+02 -2.108359642781245213e+01 -2.616374484540223193e+02
2.413157488101501542e+02 -2.208359642781245213e+01 -2.624544183470327425e+02
2.455928006358497839e+02 -1.608359642781245213e+01 -2.581292793110849288e+02
2.450161203137349162e+02 -1.708359642781245213e+01 -2.589462492040954089e+02
2.444394399916200484e+02 -1.808359642781245213e+01 -2.597632190971058321e+02
2.438627596695051807e+02 -1.908359642781245213e+01 -2.605801889901162554e+02
2.432860793473903129e+02 -2.008359642781245213e+01 -2.613971588831267354e+02
2.427093990252754452e+02 -2.108359642781245213e+01 -2.622141287761371586e+02
2.421327187031605774e+02 -2.208359642781245213e+01 -2.630310986691475819e+02
2.464097705288602356e+02 -1.608359642781245213e+01 -2.587059596331998250e+02
2.458330902067453678e+02 -1.708359642781245213e+01 -2.595229295262102482e+02
2.452564098846305001e+02 -1.808359642781245213e+01 -2.603398994192207283e+02
2.446797295625156323e+02 -1.908359642781245213e+01 -2.611568693122311515e+02
2.441030492404007646e+02 -2.008359642781245213e+01 -2.619738392052415747e+02
2.435263689182858968e+02 -2.108359642781245213e+01 -2.627908090982520548e+02
2.429496885961710291e+02 -2.208359642781245213e+01 -2.636077789912624780e+02
2.472267404218706588e+02 -1.608359642781245213e+01 -2.592826399553146643e+02
2.466500600997557910e+02 -1.708359642781245213e+01 -2.600996098483251444e+02
2.460733797776409233e+02 -1.808359642781245213e+01 -2.609165797413355676e+02
2.454966994555260555e+02 -1.908359642781245213e+01 -2.617335496343459909e+02
2.449200191334111878e+02 -2.008359642781245213e+01 -2.625505195273564709e+02
2.443433388112963485e+02 -2.108359642781245213e+01 -2.633674894203668941e+02
2.437666584891814807e+02 -2.208359642781245213e+01 -2.641844593133773174e+02
2.480437103148811104e+02 -1.608359642781245213e+01 -2.598593202774295605e+02
2.474670299927662427e+02 -1.708359642781245213e+01 -2.606762901704399837e+02
2.468903496706513749e+02 -1.808359642781245213e+01 -2.614932600634504638e+02
2.463136693485365072e+02 -1.908359642781245213e+01 -2.623102299564608870e+02
2.457369890264216394e+02 -2.008359642781245213e+01 -2.631271998494713102e+02
2.451603087043067717e+02 -2.108359642781245213e+01 -2.639441697424817903e+02
2.445836283821919039e+02 -2.208359642781245213e+01 -2.647611396354922135e+02
2.488606802078915621e+02 -1.508359642781245213e+01 -2.604360005995443998e+02
2.482839998857766943e+02 -1.608359642781245213e+01 -2.612529704925548799e+02
2.477073195636618266e+02 -1.708359642781245213e+01 -2.620699403855653031e+02
2.471306392415469588e+02 -1.808359642781245213e+01 -2.628869102785757264e+02
2.465539589194320911e+02 -1.908359642781245213e+01 -2.637038801715862064e+02
2.459772785973172233e+02 -2.008359642781245213e+01 -2.645208500645966296e+02
2.454005982752023556e+02 -2.108359642781245213e+01 -2.653378199576070529e+02
2.448239179530874878e+02 -2.208359642781245213e+01 -2.661547898506175329e+02
2.496776501009019853e+02 -1.508359642781245213e+01 -2.610126809216592960e+02
2.491009697787871175e+02 -1.608359642781245213e+01 -2.618296508146697192e+02
2.485242894566722498e+02 -1.708359642781245213e+01 -2.626466207076801993e+02
2.479476091345573820e+02 -1.808359642781245213e+01 -2.634635906006906225e+02
2.473709288124425143e+02 -1.908359642781245213e+01 -2.642805604937010457e+02
2.467942484903276750e+02 -2.008359642781245213e+01 -2.650975303867115258e+02
2.462175681682128072e+02 -2.108359642781245213e+01 -2.659145002797219490e+02
2.456408878460979395e+02 -2.208359642781245213e+01 -2.667314701727323722e+02
2.504946199939124369e+02 -1.608359642781245213e+01 -2.615893612437741353e+02
2.499179396717975692e+02 -1.708359642781245213e+01 -2.624063311367846154e+02
2.493412593496827014e+02 -1.808359642781245213e+01 -2.632233010297950386e+02
2.487645790275678337e+02 -1.908359642781245213e+01 -2.640402709228054619e+02
2.481878987054529659e+02 -2.008359642781245213e+01 -2.648572408158159419e+02
2.476112183833380982e+02 -2.108359642781245213e+01 -2.656742107088263651e+02
2.470345380612232304e+02 -2.208359642781245213e+01 -2.664911806018367884e+02
2.513115898869228886e+02 -1.608359642781245213e+01 -2.621660415658890315e+02
2.507349095648080208e+02 -1.708359642781245213e+01 -2.629830114588994547e+02
2.501582292426931531e+02 -1.808359642781245213e+01 -2.637999813519099348e+02
2.495815489205782853e+02 -1.908359642781245213e+01 -2.646169512449203580e+02
2.490048685984634176e+02 -2.008359642781245213e+01 -2.654339211379307812e+02
2.484281882763485498e+02 -2.108359642781245213e+01 -2.662508910309412613e+02
2.478515079542336821e+02 -2.208359642781245213e+01 -2.670678609239516845e+02
2.521285597799333118e+02 -1.608359642781245213e+01 -2.627427218880038708e+02
2.515518794578184441e+02 -1.708359642781245213e+01 -2.635596917810143509e+02
2.509751991357035763e+02 -1.808359642781245213e+01 -2.643766616740247741e+02
2.503985188135887086e+02 -1.908359642781245213e+01 -2.651936315670351973e+02
2.498218384914738408e+02 -2.008359642781245213e+01 -2.660106014600456774e+02
2.492451581693590015e+02 -2.108359642781245213e+01 -2.668275713530561006e+02
2.486684778472441337e+02 -2.208359642781245213e+01 -2.676445412460665239e+02
2.529455296729437634e+02 -1.608359642781245213e+01 -2.633194022101187670e+02
2.523688493508288957e+02 -1.708359642781245213e+01 -2.641363721031291902e+02
2.517921690287140279e+02 -1.808359642781245213e+01 -2.649533419961396135e+02
2.512154887065991602e+02 -1.908359642781245213e+01 -2.657703118891500935e+02
2.506388083844842924e+02 -2.008359642781245213e+01 -2.665872817821605167e+02
2.500621280623694247e+02 -2.108359642781245213e+01 -2.674042516751709400e+02
2.494854477402545569e+02 -2.208359642781245213e+01 -2.682212215681814200e+02
2.537624995659542151e+02 -1.608359642781245213e+01 -2.638960825322336063e+02
2.531858192438393473e+02 -1.708359642781245213e+01 -2.647130524252440864e+02
2.526091389217244796e+02 -1.808359642781245213e+01 -2.655300223182545096e+02
2.520324585996096118e+02 -1.908359642781245213e+01 -2.663469922112649328e+02
2.514557782774947441e+02 -2.008359642781245213e+01 -2.671639621042754129e+02
2.508790979553798763e+02 -2.108359642781245213e+01 -2.679809319972858361e+02
2.503024176332650086e+02 -2.208359642781245213e+01 -2.687979018902962594e+02
2.545794694589646383e+02 -1.608359642781245213e+01 -2.644727628543485025e+02
2.540027891368497706e+02 -1.708359642781245213e+01 -2.652897327473589257e+02
2.534261088147349028e+02 -1.808359642781245213e+01 -2.661067026403693490e+02
2.528494284926200351e+02 -1.908359642781245213e+01 -2.669236725333798290e+02
2.522727481705051673e+02 -2.008359642781245213e+01 -2.677406424263902522e+02
2.516960678483902996e+02 -2.108359642781245213e+01 -2.685576123194006755e+02
2.511193875262754318e+02 -2.208359642781245213e+01 -2.693745822124111555e+02
2.553964393519750899e+02 -1.608359642781245213e+01 -2.650494431764633418e+02
2.548197590298602222e+02 -1.708359642781245213e+01 -2.658664130694738219e+02
2.542430787077453544e+02 -1.808359642781245213e+01 -2.666833829624842451e+02
2.536663983856304867e+02 -1.908359642781245213e+01 -2.675003528554946683e+02
2.530897180635156190e+02 -2.008359642781245213e+01 -2.683173227485051484e+02
2.525130377414007512e+02 -2.108359642781245213e+01 -2.691342926415155716e+02
2.519363574192858835e+02 -2.208359642781245213e+01 -2.699512625345259949e+02
2.562134092449855416e+02 -1.608359642781245213e+01 -2.656261234985782380e+02
2.556367289228706738e+02 -1.708359642781245213e+01 -2.664430933915886612e+02
2.550600486007558061e+02 -1.808359642781245213e+01 -2.672600632845990845e+02
2.544833682786409383e+02 -1.908359642781245213e+01 -2.680770331776095645e+02
2.539066879565260706e+02 -2.008359642781245213e+01 -2.688940030706199877e+02
2.533300076344112028e+02 -2.108359642781245213e+01 -2.697109729636304110e+02
2.527533273122963351e+02 -2.208359642781245213e+01 -2.705279428566408910e+02
2.570303791379959648e+02 -1.608359642781245213e+01 -2.662028038206930773e+02
2.564536988158811255e+02 -1.708359642781245213e+01 -2.670197737137035574e+02
2.558770184937662293e+02 -1.808359642781245213e+01 -2.678367436067139806e+02
2.553003381716513616e+02 -1.908359642781245213e+01 -2.686537134997244038e+02
2.547236578495364938e+02 -2.008359642781245213e+01 -2.694706833927348839e+02
2.541469775274216261e+02 -2.108359642781245213e+01 -2.702876532857453071e+02
2.535702972053067583e+02 -2.208359642781245213e+01 -2.711046231787557304e+02
2.578473490310063880e+02 -1.608359642781245213e+01 -2.667794841428079735e+02
2.572706687088915487e+02 -1.708359642781245213e+01 -2.675964540358183967e+02
2.566939883867766525e+02 -1.808359642781245213e+01 -2.684134239288288200e+02
2.561173080646618132e+02 -1.908359642781245213e+01 -2.692303938218393000e+02
2.555406277425469455e+02 -2.008359642781245213e+01 -2.700473637148497232e+02
2.549639474204320777e+02 -2.108359642781245213e+01 -2.708643336078601465e+02
2.543872670983172100e+02 -2.208359642781245213e+01 -2.716813035008706265e+02
2.586643189240168681e+02 -1.608359642781245213e+01 -2.673561644649228128e+02
2.580876386019019719e+02 -1.708359642781245213e+01 -2.681731343579332929e+02
2.575109582797871326e+02 -1.808359642781245213e+01 -2.689901042509437161e+02
2.569342779576722364e+02 -1.908359642781245213e+01 -2.698070741439541393e+02
2.563575976355573971e+02 -2.008359642781245213e+01 -2.706240440369646194e+02
2.557809173134425293e+02 -2.108359642781245213e+01 -2.714410139299750426e+02
2.552042369913276616e+02 -2.208359642781245213e+01 -2.722579838229854658e+02
2.594812888170272913e+02 -1.508359642781245213e+01 -2.679328447870377090e+02
2.589046084949124520e+02 -1.608359642781245213e+01 -2.687498146800481322e+02
2.583279281727975558e+02 -1.708359642781245213e+01 -2.695667845730585555e+02
2.577512478506827165e+02 -1.808359642781245213e+01 -2.703837544660690355e+02
2.571745675285678203e+02 -1.908359642781245213e+01 -2.712007243590794587e+02
2.565978872064529810e+02 -2.008359642781245213e+01 -2.720176942520898820e+02
2.560212068843380848e+02 -2.108359642781245213e+01 -2.728346641451003620e+02
2.554445265622232171e+02 -2.208359642781245213e+01 -2.736516340381107852e+02
2.602982587100377145e+02 -1.508359642781245213e+01 -2.685095251091525483e+02
2.597215783879228752e+02 -1.608359642781245213e+01 -2.693264950021630284e+02
2.591448980658079790e+02 -1.708359642781245213e+01 -2.701434648951734516e+02
2.585682177436931397e+02 -1.808359642781245213e+01 -2.709604347881838748e+02
2.579915374215782435e+02 -1.908359642781245213e+01 -2.717774046811943549e+02
2.574148570994634042e+02 -2.008359642781245213e+01 -2.725943745742047781e+02
2.568381767773485649e+02 -2.108359642781245213e+01 -2.734113444672152013e+02
2.562614964552336687e+02 -2.208359642781245213e+01 -2.742283143602256814e+02
2.611152286030481946e+02 -1.608359642781245213e+01 -2.690862054312674445e+02
2.605385482809332984e+02 -1.708359642781245213e+01 -2.699031753242778677e+02
2.599618679588184591e+02 -1.808359642781245213e+01 -2.707201452172882910e+02
2.593851876367035629e+02 -1.908359642781245213e+01 -2.715371151102987710e+02
2.588085073145887236e+02 -2.008359642781245213e+01 -2.723540850033091942e+02
2.582318269924738274e+02 -2.108359642781245213e+01 -2.731710548963196175e+02
2.576551466703589881e+02 -2.208359642781245213e+01 -2.739880247893300975e+02
2.619321984960586178e+02 -1.608359642781245213e+01 -2.696628857533822838e+02
2.613555181739437785e+02 -1.708359642781245213e+01 -2.704798556463927639e+02
2.607788378518288823e+02 -1.808359642781245213e+01 -2.712968255394031871e+02
2.602021575297140430e+02 -1.908359642781245213e+01 -2.721137954324136103e+02
2.596254772075991468e+02 -2.008359642781245213e+01 -2.729307653254240904e+02
2.590487968854843075e+02 -2.108359642781245213e+01 -2.737477352184345136e+02
2.584721165633694113e+02 -2.208359642781245213e+01 -2.745647051114449368e+02
2.627491683890690410e+02 -1.608359642781245213e+01 -2.702395660754971800e+02
2.621724880669542017e+02 -1.708359642781245213e+01 -2.710565359685076032e+02
2.615958077448393055e+02 -1.808359642781245213e+01 -2.718735058615180264e+02
2.610191274227244662e+02 -1.908359642781245213e+01 -2.726904757545285065e+02
2.604424471006095700e+02 -2.008359642781245213e+01 -2.735074456475389297e+02
2.598657667784947307e+02 -2.108359642781245213e+01 -2.743244155405493530e+02
2.592890864563798914e+02 -2.208359642781245213e+01 -2.751413854335598330e+02
2.635661382820795211e+02 -1.608359642781245213e+01 -2.708162463976120193e+02
2.629894579599646249e+02 -1.708359642781245213e+01 -2.716332162906224994e+02
2.624127776378497856e+02 -1.808359642781245213e+01 -2.724501861836329226e+02
2.618360973157348894e+02 -1.908359642781245213e+01 -2.732671560766433458e+02
2.612594169936200501e+02 -2.008359642781245213e+01 -2.740841259696537691e+02
2.606827366715051539e+02 -2.108359642781245213e+01 -2.749010958626642491e+02
2.601060563493903146e+02 -2.208359642781245213e+01 -2.757180657556746723e+02
2.643831081750899443e+02 -1.608359642781245213e+01 -2.713929267197269155e+02
2.638064278529751050e+02 -1.708359642781245213e+01 -2.722098966127373387e+02
2.632297475308602088e+02 -1.808359642781245213e+01 -2.730268665057477619e+02
2.626530672087453695e+02 -1.908359642781245213e+01 -2.738438363987582420e+02
2.620763868866304733e+02 -2.008359642781245213e+01 -2.746608062917686652e+02
2.614997065645156340e+02 -2.108359642781245213e+01 -2.754777761847790885e+02
2.652000780681003675e+02 -1.608359642781245213e+01 -2.719696070418417548e+02
2.646233977459855282e+02 -1.708359642781245213e+01 -2.727865769348522349e+02
2.640467174238706320e+02 -1.808359642781245213e+01 -2.736035468278626581e+02
2.634700371017557927e+02 -1.908359642781245213e+01 -2.744205167208730813e+02
2.628933567796408965e+02 -2.008359642781245213e+01 -2.752374866138835046e+02
2.623166764575260572e+02 -2.108359642781245213e+01 -2.760544565068939846e+02
2.660170479611108476e+02 -1.608359642781245213e+01 -2.725462873639566510e+02
2.654403676389959514e+02 -1.708359642781245213e+01 -2.733632572569670742e+02
2.648636873168811121e+02 -1.808359642781245213e+01 -2.741802271499774974e+02
2.642870069947662159e+02 -1.908359642781245213e+01 -2.749971970429879775e+02
2.637103266726513766e+02 -2.008359642781245213e+01 -2.758141669359984007e+02
2.631336463505364804e+02 -2.108359642781245213e+01 -2.766311368290088240e+02
2.668340178541212708e+02 -1.608359642781245213e+01 -2.731229676860714903e+02
2.662573375320064315e+02 -1.708359642781245213e+01 -2.739399375790819704e+02
2.656806572098915353e+02 -1.808359642781245213e+01 -2.747569074720923936e+02
2.651039768877766960e+02 -1.908359642781245213e+01 -2.755738773651028168e+02
2.645272965656617998e+02 -2.008359642781245213e+01 -2.763908472581132401e+02
2.639506162435469605e+02 -2.108359642781245213e+01 -2.772078171511237201e+02
2.676509877471316941e+02 -1.608359642781245213e+01 -2.736996480081863865e+02
2.670743074250168547e+02 -1.708359642781245213e+01 -2.745166179011968097e+02
2.664976271029019586e+02 -1.808359642781245213e+01 -2.753335877942072329e+02
2.659209467807871192e+02 -1.908359642781245213e+01 -2.761505576872177130e+02
2.653442664586722231e+02 -2.008359642781245213e+01 -2.769675275802281362e+02
2.647675861365573837e+02 -2.108359642781245213e+01 -2.777844974732385595e+02
2.684679576401421741e+02 -1.608359642781245213e+01 -2.742763283303012258e+02
2.678912773180272779e+02 -1.708359642781245213e+01 -2.750932982233117059e+02
2.673145969959124386e+02 -1.808359642781245213e+01 -2.759102681163221291e+02
2.667379166737975424e+02 -1.908359642781245213e+01 -2.767272380093325523e+02
2.661612363516827031e+02 -2.008359642781245213e+01 -2.775442079023429756e+02
2.655845560295678069e+02 -2.108359642781245213e+01 -2.783611777953534556e+02
2.692849275331525973e+02 -1.608359642781245213e+01 -2.748530086524161220e+02
2.687082472110377580e+02 -1.708359642781245213e+01 -2.756699785454265452e+02
2.681315668889228618e+02 -1.808359642781245213e+01 -2.764869484384369684e+02
2.675548865668080225e+02 -1.908359642781245213e+01 -2.773039183314474485e+02
2.669782062446931263e+02 -2.008359642781245213e+01 -2.781208882244578717e+02
2.664015259225782870e+02 -2.108359642781245213e+01 -2.789378581174682949e+02
2.701018974261630206e+02 -1.608359642781245213e+01 -2.754296889745309613e+02
2.695252171040481812e+02 -1.708359642781245213e+01 -2.762466588675414414e+02
2.689485367819332851e+02 -1.808359642781245213e+01 -2.770636287605518646e+02
2.683718564598184457e+02 -1.908359642781245213e+01 -2.778805986535622878e+02
2.677951761377035496e+02 -2.008359642781245213e+01 -2.786975685465727111e+02
2.672184958155887102e+02 -2.108359642781245213e+01 -2.795145384395831911e+02
2.709188673191735006e+02 -1.608359642781245213e+01 -2.760063692966458575e+02
2.703421869970586044e+02 -1.708359642781245213e+01 -2.768233391896562807e+02
2.697655066749437651e+02 -1.808359642781245213e+01 -2.776403090826667039e+02
2.691888263528288689e+02 -1.908359642781245213e+01 -2.784572789756771840e+02
2.686121460307140296e+02 -2.008359642781245213e+01 -2.792742488686876072e+02
2.680354657085991334e+02 -2.108359642781245213e+01 -2.800912187616980304e+02
2.674587853864842941e+02 -2.208359642781245213e+01 -2.809081886547085105e+02
2.717358372121839238e+02 -1.608359642781245213e+01 -2.765830496187606968e+02
2.711591568900690845e+02 -1.708359642781245213e+01 -2.774000195117711769e+02
2.705824765679541883e+02 -1.808359642781245213e+01 -2.782169894047816001e+02
2.700057962458393490e+02 -1.908359642781245213e+01 -2.790339592977920233e+02
2.694291159237244528e+02 -2.008359642781245213e+01 -2.798509291908024466e+02
2.688524356016096135e+02 -2.108359642781245213e+01 -2.806678990838129266e+02
2.682757552794947173e+02 -2.208359642781245213e+01 -2.814848689768233498e+02
2.725528071051943471e+02 -1.508359642781245213e+01 -2.771597299408755930e+02
2.719761267830795077e+02 -1.608359642781245213e+01 -2.779766998338860162e+02
2.713994464609646116e+02 -1.708359642781245213e+01 -2.787936697268964394e+02
2.708227661388497722e+02 -1.808359642781245213e+01 -2.796106396199069195e+02
2.702460858167348761e+02 -1.908359642781245213e+01 -2.804276095129173427e+02
2.696694054946200367e+02 -2.008359642781245213e+01 -2.812445794059277659e+02
2.690927251725051974e+02 -2.108359642781245213e+01 -2.820615492989382460e+02
2.685160448503903012e+02 -2.208359642781245213e+01 -2.828785191919486692e+02
2.733697769982048271e+02 -1.508359642781245213e+01 -2.777364102629904323e+02
2.727930966760899310e+02 -1.608359642781245213e+01 -2.785533801560009124e+02
2.722164163539750916e+02 -1.708359642781245213e+01 -2.793703500490113356e+02
2.716397360318601955e+02 -1.808359642781245213e+01 -2.801873199420217588e+02
2.710630557097453561e+02 -1.908359642781245213e+01 -2.810042898350321821e+02
2.704863753876304600e+02 -2.008359642781245213e+01 -2.818212597280426621e+02
2.699096950655156206e+02 -2.108359642781245213e+01 -2.826382296210530853e+02
2.693330147434007245e+02 -2.208359642781245213e+01 -2.834551995140635086e+02
2.741867468912152503e+02 -1.508359642781245213e+01 -2.783130905851053285e+02
2.736100665691004110e+02 -1.608359642781245213e+01 -2.791300604781157517e+02
2.730333862469855148e+02 -1.708359642781245213e+01 -2.799470303711261749e+02
2.724567059248706755e+02 -1.808359642781245213e+01 -2.807640002641366550e+02
2.718800256027557793e+02 -1.908359642781245213e+01 -2.815809701571470782e+02
2.713033452806409400e+02 -2.008359642781245213e+01 -2.823979400501575014e+02
2.707266649585260438e+02 -2.108359642781245213e+01 -2.832149099431679815e+02
2.701499846364112045e+02 -2.208359642781245213e+01 -2.840318798361784047e+02
2.750037167842256736e+02 -1.608359642781245213e+01 -2.788897709072201678e+02
2.744270364621108342e+02 -1.708359642781245213e+01 -2.797067408002305910e+02
2.738503561399959381e+02 -1.808359642781245213e+01 -2.805237106932410711e+02
2.732736758178810987e+02 -1.908359642781245213e+01 -2.813406805862514943e+02
2.726969954957662026e+02 -2.008359642781245213e+01 -2.821576504792619176e+02
2.721203151736513632e+02 -2.108359642781245213e+01 -2.829746203722723976e+02
2.715436348515364671e+02 -2.208359642781245213e+01 -2.837915902652828208e+02
2.758206866772361536e+02 -1.608359642781245213e+01 -2.794664512293350640e+02
2.752440063551212575e+02 -1.708359642781245213e+01 -2.802834211223454872e+02
2.746673260330064181e+02 -1.808359642781245213e+01 -2.811003910153559104e+02
2.740906457108915220e+02 -1.908359642781245213e+01 -2.819173609083663905e+02
2.735139653887766826e+02 -2.008359642781245213e+01 -2.827343308013768137e+02
2.729372850666617865e+02 -2.108359642781245213e+01 -2.835513006943872369e+02
2.766376565702465768e+02 -1.608359642781245213e+01 -2.800431315514499033e+02
2.760609762481317375e+02 -1.708359642781245213e+01 -2.808601014444603265e+02
2.754842959260168413e+02 -1.808359642781245213e+01 -2.816770713374708066e+02
2.749076156039020020e+02 -1.908359642781245213e+01 -2.824940412304812298e+02
2.743309352817871059e+02 -2.008359642781245213e+01 -2.833110111234916531e+02
2.737542549596722665e+02 -2.108359642781245213e+01 -2.841279810165021331e+02
2.774546264632570001e+02 -1.608359642781245213e+01 -2.806198118735647995e+02
2.768779461411421607e+02 -1.708359642781245213e+01 -2.814367817665752227e+02
2.763012658190272646e+02 -1.808359642781245213e+01 -2.822537516595856459e+02
2.757245854969124252e+02 -1.908359642781245213e+01 -2.830707215525961260e+02
2.751479051747975291e+02 -2.008359642781245213e+01 -2.838876914456065492e+02
2.782715963562674801e+02 -1.708359642781245213e+01 -2.811964921956796388e+02
2.776949160341525840e+02 -1.808359642781245213e+01 -2.820134620886900620e+02
2.771182357120377446e+02 -1.908359642781245213e+01 -2.828304319817005421e+02
2.765415553899228485e+02 -2.008359642781245213e+01 -2.836474018747109653e+02
2.790885662492779034e+02 -1.608359642781245213e+01 -2.817731725177945350e+02
2.785118859271630640e+02 -1.708359642781245213e+01 -2.825901424108049582e+02
2.779352056050481679e+02 -1.808359642781245213e+01 -2.834071123038153814e+02
2.773585252829333285e+02 -1.908359642781245213e+01 -2.842240821968258615e+02
2.767818449608184324e+02 -2.008359642781245213e+01 -2.850410520898362847e+02
2.799055361422883266e+02 -1.608359642781245213e+01 -2.823498528399093743e+02
2.793288558201734872e+02 -1.708359642781245213e+01 -2.831668227329197975e+02
2.787521754980585911e+02 -1.808359642781245213e+01 -2.839837926259302776e+02
2.781754951759437517e+02 -1.908359642781245213e+01 -2.848007625189407008e+02
2.775988148538288556e+02 -2.008359642781245213e+01 -2.856177324119511240e+02
2.770221345317140162e+02 -2.108359642781245213e+01 -2.864347023049616041e+02
2.807225060352988066e+02 -1.608359642781245213e+01 -2.829265331620242705e+02
2.801458257131839105e+02 -1.708359642781245213e+01 -2.837435030550346937e+02
2.795691453910690711e+02 -1.808359642781245213e+01 -2.845604729480451169e+02
2.789924650689541750e+02 -1.908359642781245213e+01 -2.853774428410555970e+02
2.784157847468393356e+02 -2.008359642781245213e+01 -2.861944127340660202e+02
2.778391044247244395e+02 -2.108359642781245213e+01 -2.870113826270764434e+02
2.815394759283092299e+02 -1.508359642781245213e+01 -2.835032134841391098e+02
2.809627956061943905e+02 -1.608359642781245213e+01 -2.843201833771495330e+02
2.803861152840794944e+02 -1.708359642781245213e+01 -2.851371532701600131e+02
2.798094349619646550e+02 -1.808359642781245213e+01 -2.859541231631704363e+02
2.792327546398497589e+02 -1.908359642781245213e+01 -2.867710930561808595e+02
2.786560743177349195e+02 -2.008359642781245213e+01 -2.875880629491913396e+02
2.780793939956200234e+02 -2.108359642781245213e+01 -2.884050328422017628e+02
2.775027136735051840e+02 -2.208359642781245213e+01 -2.892220027352121861e+02
2.823564458213196531e+02 -1.508359642781245213e+01 -2.840798938062540060e+02
2.817797654992048138e+02 -1.608359642781245213e+01 -2.848968636992644292e+02
2.812030851770899176e+02 -1.708359642781245213e+01 -2.857138335922748524e+02
2.806264048549750783e+02 -1.808359642781245213e+01 -2.865308034852853325e+02
2.800497245328601821e+02 -1.908359642781245213e+01 -2.873477733782957557e+02
2.794730442107453428e+02 -2.008359642781245213e+01 -2.881647432713061789e+02
2.788963638886304466e+02 -2.108359642781245213e+01 -2.889817131643166590e+02
2.783196835665156073e+02 -2.208359642781245213e+01 -2.897986830573270822e+02
2.831734157143301331e+02 -1.508359642781245213e+01 -2.846565741283688453e+02
2.825967353922152370e+02 -1.608359642781245213e+01 -2.854735440213792685e+02
2.820200550701003976e+02 -1.708359642781245213e+01 -2.862905139143897486e+02
2.814433747479855015e+02 -1.808359642781245213e+01 -2.871074838074001718e+02
2.808666944258706621e+02 -1.908359642781245213e+01 -2.879244537004105950e+02
2.802900141037557660e+02 -2.008359642781245213e+01 -2.887414235934210751e+02
2.797133337816409266e+02 -2.108359642781245213e+01 -2.895583934864314983e+02
2.791366534595260305e+02 -2.208359642781245213e+01 -2.903753633794419216e+02
2.839903856073405564e+02 -1.508359642781245213e+01 -2.852332544504837415e+02
2.834137052852257170e+02 -1.608359642781245213e+01 -2.860502243434941647e+02
2.828370249631108209e+02 -1.708359642781245213e+01 -2.868671942365045879e+02
2.822603446409959815e+02 -1.808359642781245213e+01 -2.876841641295150680e+02
2.816836643188810854e+02 -1.908359642781245213e+01 -2.885011340225254912e+02
2.811069839967662460e+02 -2.008359642781245213e+01 -2.893181039155359144e+02
2.805303036746513499e+02 -2.108359642781245213e+01 -2.901350738085463945e+02
2.799536233525365105e+02 -2.208359642781245213e+01 -2.909520437015568177e+02
2.848073555003509796e+02 -1.508359642781245213e+01 -2.858099347725985808e+02
2.842306751782361403e+02 -1.608359642781245213e+01 -2.866269046656090040e+02
2.836539948561212441e+02 -1.708359642781245213e+01 -2.874438745586194841e+02
2.830773145340064048e+02 -1.808359642781245213e+01 -2.882608444516299073e+02
2.825006342118915086e+02 -1.908359642781245213e+01 -2.890778143446403305e+02
2.819239538897766693e+02 -2.008359642781245213e+01 -2.898947842376508106e+02
2.813472735676617731e+02 -2.108359642781245213e+01 -2.907117541306612338e+02
2.807705932455469338e+02 -2.208359642781245213e+01 -2.915287240236716571e+02
