5.307507771836654342e+01 2.015507297500391530e+02 2.300000000000000000e+02
6.034838017687901157e+01 1.971804813192292158e+02 2.310000000000000000e+02
5.913616310046026570e+01 1.979088560576975340e+02 2.310000000000000000e+02
5.792394602404151982e+01 1.986372307961658521e+02 2.310000000000000000e+02
5.671172894762278105e+01 1.993656055346341986e+02 2.310000000000000000e+02
5.549951187120403517e+01 2.000939802731025168e+02 2.310000000000000000e+02
5.428729479478528930e+01 2.008223550115708349e+02 2.310000000000000000e+02
5.307507771836654342e+01 2.015507297500391530e+02 2.310000000000000000e+02
6.034838017687901157e+01 1.971804813192292158e+02 2.320000000000000000e+02
5.913616310046026570e+01 1.979088560576975340e+02 2.320000000000000000e+02
5.792394602404151982e+01 1.986372307961658521e+02 2.320000000000000000e+02
5.671172894762278105e+01 1.993656055346341986e+02 2.320000000000000000e+02
5.549951187120403517e+01 2.000939802731025168e+02 2.320000000000000000e+02
5.428729479478528930e+01 2.008223550115708349e+02 2.320000000000000000e+02
5.307507771836654342e+01 2.015507297500391530e+02 2.320000000000000000e+02
6.034838017687901157e+01 1.971804813192292158e+02 2.330000000000000000e+02
5.913616310046026570e+01 1.979088560576975340e+02 2.330000000000000000e+02
5.792394602404151982e+01 1.986372307961658521e+02 2.330000000000000000e+02
5.671172894762278105e+01 1.993656055346341986e+02 2.330000000000000000e+02
5.549951187120403517e+01 2.000939802731025168e+02 2.330000000000000000e+02
5.428729479478528930e+01 2.008223550115708349e+02 2.330000000000000000e+02
5.307507771836654342e+01 2.015507297500391530e+02 2.330000000000000000e+02
6.034838017687901157e+01 1.971804813192292158e+02 2.340000000000000000e+02
5.913616310046026570e+01 1.979088560576975340e+02 2.340000000000000000e+02
5.792394602404151982e+01 1.986372307961658521e+02 2.340000000000000000e+02
5.671172894762278105e+01 1.993656055346341986e+02 2.340000000000000000e+02
5.549951187120403517e+01 2.000939802731025168e+02 2.340000000000000000e+02
5.428729479478528930e+01 2.008223550115708349e+02 2.340000000000000000e+02
5.307507771836654342e+01 2.015507297500391530e+02 2.340000000000000000e+02
6.034838017687901157e+01 1.971804813192292158e+02 2.350000000000000000e+02
5.913616310046026570e+01 1.979088560576975340e+02 2.350000000000000000e+02
5.792394602404151982e+01 1.986372307961658521e+02 2.350000000000000000e+02
5.671172894762278105e+01 1.993656055346341986e+02 2.350000000000000000e+02
5.549951187120403517e+01 2.000939802731025168e+02 2.350000000000000000e+02
5.428729479478528930e+01 2.008223550115708349e+02 2.350000000000000000e+02
5.307507771836654342e+01 2.015507297500391530e+02 2.350000000000000000e+02
6.034838017687901157e+01 1.971804813192292158e+02 2.360000000000000000e+02
5.913616310046026570e+01 1.979088560576975340e+02 2.360000000000000000e+02
5.792394602404151982e+01 1.986372307961658521e+02 2.360000000000000000e+02
5.671172894762278105e+01 1.993656055346341986e+02 2.360000000000000000e+02
5.549951187120403517e+01 2.000939802731025168e+02 2.360000000000000000e+02
5.428729479478528930e+01 2.008223550115708349e+02 2.360000000000000000e+02
5.307507771836654342e+01 2.015507297500391530e+02 2.360000000000000000e+02
6.034838017687901157e+01 1.971804813192292158e+02 2.370000000000000000e+02
5.913616310046026570e+01 1.979088560576975340e+02 2.370000000000000000e+02
5.792394602404151982e+01 1.986372307961658521e+02 2.370000000000000000e+02
5.671172894762278105e+01 1.993656055346341986e+02 2.370000000000000000e+02
5.549951187120403517e+01 2.000939802731025168e+02 2.370000000000000000e+02
5.428729479478528930e+01 2.008223550115708349e+02 2.370000000000000000e+02
5.307507771836654342e+01 2.015507297500391530e+02 2.370000000000000000e+02
6.010645900790379415e+01 1.981507772266727443e+02 2.380000000000000000e+02
5.889424193148505537e+01 1.988791519651410908e+02 2.380000000000000000e+02
5.768202485506630950e+01 1.996075267036094090e+02 2.380000000000000000e+02
5.646980777864756362e+01 2.003359014420777271e+02 2.380000000000000000e+02
5.525759070222882485e+01 2.010642761805460452e+02 2.380000000000000000e+02
6.010645900790379415e+01 1.981507772266727443e+02 2.390000000000000000e+02
5.889424193148505537e+01 1.988791519651410908e+02 2.390000000000000000e+02
5.768202485506630950e+01 1.996075267036094090e+02 2.390000000000000000e+02
5.646980777864756362e+01 2.003359014420777271e+02 2.390000000000000000e+02
5.525759070222882485e+01 2.010642761805460452e+02 2.390000000000000000e+02
5.962261666995337350e+01 2.000913690415598296e+02 3.220000000000000000e+02
6.010645900790379415e+01 1.981507772266727443e+02 3.230000000000000000e+02
5.889424193148505537e+01 1.988791519651410908e+02 3.230000000000000000e+02
5.768202485506630950e+01 1.996075267036094090e+02 3.230000000000000000e+02
5.646980777864756362e+01 2.003359014420777271e+02 3.230000000000000000e+02
6.034838017687901157e+01 1.971804813192292158e+02 3.240000000000000000e+02
5.913616310046026570e+01 1.979088560576975340e+02 3.240000000000000000e+02
5.792394602404151982e+01 1.986372307961658521e+02 3.240000000000000000e+02
5.671172894762278105e+01 1.993656055346341986e+02 3.240000000000000000e+02
5.549951187120403517e+01 2.000939802731025168e+02 3.240000000000000000e+02
5.428729479478528930e+01 2.008223550115708349e+02 3.240000000000000000e+02
6.034838017687901157e+01 1.971804813192292158e+02 3.250000000000000000e+02
5.913616310046026570e+01 1.979088560576975340e+02 3.250000000000000000e+02
5.792394602404151982e+01 1.986372307961658521e+02 3.250000000000000000e+02
5.671172894762278105e+01 1.993656055346341986e+02 3.250000000000000000e+02
5.549951187120403517e+01 2.000939802731025168e+02 3.250000000000000000e+02
5.428729479478528930e+01 2.008223550115708349e+02 3.250000000000000000e+02
6.059030134585422189e+01 1.962101854117856874e+02 3.260000000000000000e+02
5.937808426943547602e+01 1.969385601502540055e+02 3.260000000000000000e+02
5.816586719301673725e+01 1.976669348887223236e+02 3.260000000000000000e+02
5.695365011659799137e+01 1.983953096271906418e+02 3.260000000000000000e+02
5.574143304017924549e+01 1.991236843656589599e+02 3.260000000000000000e+02
5.452921596376049962e+01 1.998520591041273065e+02 3.260000000000000000e+02
5.331699888734176085e+01 2.005804338425956246e+02 3.260000000000000000e+02
6.059030134585422189e+01 1.962101854117856874e+02 3.270000000000000000e+02
5.937808426943547602e+01 1.969385601502540055e+02 3.270000000000000000e+02
5.816586719301673725e+01 1.976669348887223236e+02 3.270000000000000000e+02
5.695365011659799137e+01 1.983953096271906418e+02 3.270000000000000000e+02
5.574143304017924549e+01 1.991236843656589599e+02 3.270000000000000000e+02
5.452921596376049962e+01 1.998520591041273065e+02 3.270000000000000000e+02
5.331699888734176085e+01 2.005804338425956246e+02 3.270000000000000000e+02
6.059030134585422189e+01 1.962101854117856874e+02 3.280000000000000000e+02
5.937808426943547602e+01 1.969385601502540055e+02 3.280000000000000000e+02
5.816586719301673725e+01 1.976669348887223236e+02 3.280000000000000000e+02
5.695365011659799137e+01 1.983953096271906418e+02 3.280000000000000000e+02
5.574143304017924549e+01 1.991236843656589599e+02 3.280000000000000000e+02
5.452921596376049962e+01 1.998520591041273065e+02 3.280000000000000000e+02
5.331699888734176085e+01 2.005804338425956246e+02 3.280000000000000000e+02
6.059030134585422189e+01 1.962101854117856874e+02 3.290000000000000000e+02
5.937808426943547602e+01 1.969385601502540055e+02 3.290000000000000000e+02
5.816586719301673725e+01 1.976669348887223236e+02 3.290000000000000000e+02
5.695365011659799137e+01 1.983953096271906418e+02 3.290000000000000000e+02
5.574143304017924549e+01 1.991236843656589599e+02 3.290000000000000000e+02
5.452921596376049962e+01 1.998520591041273065e+02 3.290000000000000000e+02
5.331699888734176085e+01 2.005804338425956246e+02 3.290000000000000000e+02
6.059030134585422189e+01 1.962101854117856874e+02 3.300000000000000000e+02
5.937808426943547602e+01 1.969385601502540055e+02 3.300000000000000000e+02
5.816586719301673725e+01 1.976669348887223236e+02 3.300000000000000000e+02
5.695365011659799137e+01 1.983953096271906418e+02 3.300000000000000000e+02
5.574143304017924549e+01 1.991236843656589599e+02 3.300000000000000000e+02
5.452921596376049962e+01 1.998520591041273065e+02 3.300000000000000000e+02
5.331699888734176085e+01 2.005804338425956246e+02 3.300000000000000000e+02
6.059030134585422189e+01 1.962101854117856874e+02 3.310000000000000000e+02
5.937808426943547602e+01 1.969385601502540055e+02 3.310000000000000000e+02
5.816586719301673725e+01 1.976669348887223236e+02 3.310000000000000000e+02
5.695365011659799137e+01 1.983953096271906418e+02 3.310000000000000000e+02
5.574143304017924549e+01 1.991236843656589599e+02 3.310000000000000000e+02
5.452921596376049962e+01 1.998520591041273065e+02 3.310000000000000000e+02
5.331699888734176085e+01 2.005804338425956246e+02 3.310000000000000000e+02
6.059030134585422189e+01 1.962101854117856874e+02 3.320000000000000000e+02
5.937808426943547602e+01 1.969385601502540055e+02 3.320000000000000000e+02
5.816586719301673725e+01 1.976669348887223236e+02 3.320000000000000000e+02
5.695365011659799137e+01 1.983953096271906418e+02 3.320000000000000000e+02
5.574143304017924549e+01 1.991236843656589599e+02 3.320000000000000000e+02
5.452921596376049962e+01 1.998520591041273065e+02 3.320000000000000000e+02
5.331699888734176085e+01 2.005804338425956246e+02 3.320000000000000000e+02
6.059030134585422189e+01 1.962101854117856874e+02 3.330000000000000000e+02
5.937808426943547602e+01 1.969385601502540055e+02 3.330000000000000000e+02
5.816586719301673725e+01 1.976669348887223236e+02 3.330000000000000000e+02
5.695365011659799137e+01 1.983953096271906418e+02 3.330000000000000000e+02
5.574143304017924549e+01 1.991236843656589599e+02 3.330000000000000000e+02
5.452921596376049962e+01 1.998520591041273065e+02 3.330000000000000000e+02
5.331699888734176085e+01 2.005804338425956246e+02 3.330000000000000000e+02
6.059030134585422189e+01 1.962101854117856874e+02 3.340000000000000000e+02
5.937808426943547602e+01 1.969385601502540055e+02 3.340000000000000000e+02
5.816586719301673725e+01 1.976669348887223236e+02 3.340000000000000000e+02
5.695365011659799137e+01 1.983953096271906418e+02 3.340000000000000000e+02
5.574143304017924549e+01 1.991236843656589599e+02 3.340000000000000000e+02
5.452921596376049962e+01 1.998520591041273065e+02 3.340000000000000000e+02
5.331699888734176085e+01 2.005804338425956246e+02 3.340000000000000000e+02
6.059030134585422189e+01 1.962101854117856874e+02 3.350000000000000000e+02
5.937808426943547602e+01 1.969385601502540055e+02 3.350000000000000000e+02
5.816586719301673725e+01 1.976669348887223236e+02 3.350000000000000000e+02
5.695365011659799137e+01 1.983953096271906418e+02 3.350000000000000000e+02
5.574143304017924549e+01 1.991236843656589599e+02 3.350000000000000000e+02
5.452921596376049962e+01 1.998520591041273065e+02 3.350000000000000000e+02
5.331699888734176085e+01 2.005804338425956246e+02 3.350000000000000000e+02
6.059030134585422189e+01 1.962101854117856874e+02 3.360000000000000000e+02
5.937808426943547602e+01 1.969385601502540055e+02 3.360000000000000000e+02
5.816586719301673725e+01 1.976669348887223236e+02 3.360000000000000000e+02
5.695365011659799137e+01 1.983953096271906418e+02 3.360000000000000000e+02
5.574143304017924549e+01 1.991236843656589599e+02 3.360000000000000000e+02
5.452921596376049962e+01 1.998520591041273065e+02 3.360000000000000000e+02
5.331699888734176085e+01 2.005804338425956246e+02 3.360000000000000000e+02
6.059030134585422189e+01 1.962101854117856874e+02 3.370000000000000000e+02
5.937808426943547602e+01 1.969385601502540055e+02 3.370000000000000000e+02
5.816586719301673725e+01 1.976669348887223236e+02 3.370000000000000000e+02
5.695365011659799137e+01 1.983953096271906418e+02 3.370000000000000000e+02
5.574143304017924549e+01 1.991236843656589599e+02 3.370000000000000000e+02
5.452921596376049962e+01 1.998520591041273065e+02 3.370000000000000000e+02
5.331699888734176085e+01 2.005804338425956246e+02 3.370000000000000000e+02
6.059030134585422189e+01 1.962101854117856874e+02 3.380000000000000000e+02
5.937808426943547602e+01 1.969385601502540055e+02 3.380000000000000000e+02
5.816586719301673725e+01 1.976669348887223236e+02 3.380000000000000000e+02
5.695365011659799137e+01 1.983953096271906418e+02 3.380000000000000000e+02
5.574143304017924549e+01 1.991236843656589599e+02 3.380000000000000000e+02
5.452921596376049962e+01 1.998520591041273065e+02 3.380000000000000000e+02
5.331699888734176085e+01 2.005804338425956246e+02 3.380000000000000000e+02
6.059030134585422189e+01 1.962101854117856874e+02 3.390000000000000000e+02
5.937808426943547602e+01 1.969385601502540055e+02 3.390000000000000000e+02
5.816586719301673725e+01 1.976669348887223236e+02 3.390000000000000000e+02
5.695365011659799137e+01 1.983953096271906418e+02 3.390000000000000000e+02
5.574143304017924549e+01 1.991236843656589599e+02 3.390000000000000000e+02
5.452921596376049962e+01 1.998520591041273065e+02 3.390000000000000000e+02
5.331699888734176085e+01 2.005804338425956246e+02 3.390000000000000000e+02
6.059030134585422189e+01 1.962101854117856874e+02 3.400000000000000000e+02
5.937808426943547602e+01 1.969385601502540055e+02 3.400000000000000000e+02
5.816586719301673725e+01 1.976669348887223236e+02 3.400000000000000000e+02
5.695365011659799137e+01 1.983953096271906418e+02 3.400000000000000000e+02
5.574143304017924549e+01 1.991236843656589599e+02 3.400000000000000000e+02
5.452921596376049962e+01 1.998520591041273065e+02 3.400000000000000000e+02
5.331699888734176085e+01 2.005804338425956246e+02 3.400000000000000000e+02
6.059030134585422189e+01 1.962101854117856874e+02 3.410000000000000000e+02
5.937808426943547602e+01 1.969385601502540055e+02 3.410000000000000000e+02
5.816586719301673725e+01 1.976669348887223236e+02 3.410000000000000000e+02
5.695365011659799137e+01 1.983953096271906418e+02 3.410000000000000000e+02
5.574143304017924549e+01 1.991236843656589599e+02 3.410000000000000000e+02
5.452921596376049962e+01 1.998520591041273065e+02 3.410000000000000000e+02
5.331699888734176085e+01 2.005804338425956246e+02 3.410000000000000000e+02
6.059030134585422189e+01 1.962101854117856874e+02 3.420000000000000000e+02
5.937808426943547602e+01 1.969385601502540055e+02 3.420000000000000000e+02
5.816586719301673725e+01 1.976669348887223236e+02 3.420000000000000000e+02
5.695365011659799137e+01 1.983953096271906418e+02 3.420000000000000000e+02
5.574143304017924549e+01 1.991236843656589599e+02 3.420000000000000000e+02
5.452921596376049962e+01 1.998520591041273065e+02 3.420000000000000000e+02
5.331699888734176085e+01 2.005804338425956246e+02 3.420000000000000000e+02
6.059030134585422189e+01 1.962101854117856874e+02 3.430000000000000000e+02
5.937808426943547602e+01 1.969385601502540055e+02 3.430000000000000000e+02
5.816586719301673725e+01 1.976669348887223236e+02 3.430000000000000000e+02
5.695365011659799137e+01 1.983953096271906418e+02 3.430000000000000000e+02
5.574143304017924549e+01 1.991236843656589599e+02 3.430000000000000000e+02
5.452921596376049962e+01 1.998520591041273065e+02 3.430000000000000000e+02
5.331699888734176085e+01 2.005804338425956246e+02 3.430000000000000000e+02
6.059030134585422189e+01 1.962101854117856874e+02 3.440000000000000000e+02
5.937808426943547602e+01 1.969385601502540055e+02 3.440000000000000000e+02
5.816586719301673725e+01 1.976669348887223236e+02 3.440000000000000000e+02
5.695365011659799137e+01 1.983953096271906418e+02 3.440000000000000000e+02
5.574143304017924549e+01 1.991236843656589599e+02 3.440000000000000000e+02
5.452921596376049962e+01 1.998520591041273065e+02 3.440000000000000000e+02
5.331699888734176085e+01 2.005804338425956246e+02 3.440000000000000000e+02
6.059030134585422189e+01 1.962101854117856874e+02 3.450000000000000000e+02
5.937808426943547602e+01 1.969385601502540055e+02 3.450000000000000000e+02
5.816586719301673725e+01 1.976669348887223236e+02 3.450000000000000000e+02
5.695365011659799137e+01 1.983953096271906418e+02 3.450000000000000000e+02
5.574143304017924549e+01 1.991236843656589599e+02 3.450000000000000000e+02
5.452921596376049962e+01 1.998520591041273065e+02 3.450000000000000000e+02
5.331699888734176085e+01 2.005804338425956246e+02 3.450000000000000000e+02
6.059030134585422189e+01 1.962101854117856874e+02 3.460000000000000000e+02
5.937808426943547602e+01 1.969385601502540055e+02 3.460000000000000000e+02
5.816586719301673725e+01 1.976669348887223236e+02 3.460000000000000000e+02
5.695365011659799137e+01 1.983953096271906418e+02 3.460000000000000000e+02
5.574143304017924549e+01 1.991236843656589599e+02 3.460000000000000000e+02
5.452921596376049962e+01 1.998520591041273065e+02 3.460000000000000000e+02
5.331699888734176085e+01 2.005804338425956246e+02 3.460000000000000000e+02
6.059030134585422189e+01 1.962101854117856874e+02 3.470000000000000000e+02
5.937808426943547602e+01 1.969385601502540055e+02 3.470000000000000000e+02
5.816586719301673725e+01 1.976669348887223236e+02 3.470000000000000000e+02
5.695365011659799137e+01 1.983953096271906418e+02 3.470000000000000000e+02
5.574143304017924549e+01 1.991236843656589599e+02 3.470000000000000000e+02
5.452921596376049962e+01 1.998520591041273065e+02 3.470000000000000000e+02
5.331699888734176085e+01 2.005804338425956246e+02 3.470000000000000000e+02
6.059030134585422189e+01 1.962101854117856874e+02 3.480000000000000000e+02
5.937808426943547602e+01 1.969385601502540055e+02 3.480000000000000000e+02
5.816586719301673725e+01 1.976669348887223236e+02 3.480000000000000000e+02
5.695365011659799137e+01 1.983953096271906418e+02 3.480000000000000000e+02
5.574143304017924549e+01 1.991236843656589599e+02 3.480000000000000000e+02
5.452921596376049962e+01 1.998520591041273065e+02 3.480000000000000000e+02
5.331699888734176085e+01 2.005804338425956246e+02 3.480000000000000000e+02
6.059030134585422189e+01 1.962101854117856874e+02 3.490000000000000000e+02
5.937808426943547602e+01 1.969385601502540055e+02 3.490000000000000000e+02
5.816586719301673725e+01 1.976669348887223236e+02 3.490000000000000000e+02
5.695365011659799137e+01 1.983953096271906418e+02 3.490000000000000000e+02
5.574143304017924549e+01 1.991236843656589599e+02 3.490000000000000000e+02
5.452921596376049962e+01 1.998520591041273065e+02 3.490000000000000000e+02
5.331699888734176085e+01 2.005804338425956246e+02 3.490000000000000000e+02
6.059030134585422189e+01 1.962101854117856874e+02 3.500000000000000000e+02
5.937808426943547602e+01 1.969385601502540055e+02 3.500000000000000000e+02
5.816586719301673725e+01 1.976669348887223236e+02 3.500000000000000000e+02
5.695365011659799137e+01 1.983953096271906418e+02 3.500000000000000000e+02
5.574143304017924549e+01 1.991236843656589599e+02 3.500000000000000000e+02
5.452921596376049962e+01 1.998520591041273065e+02 3.500000000000000000e+02
5.331699888734176085e+01 2.005804338425956246e+02 3.500000000000000000e+02
6.059030134585422189e+01 1.962101854117856874e+02 3.510000000000000000e+02
5.937808426943547602e+01 1.969385601502540055e+02 3.510000000000000000e+02
5.816586719301673725e+01 1.976669348887223236e+02 3.510000000000000000e+02
5.695365011659799137e+01 1.983953096271906418e+02 3.510000000000000000e+02
5.574143304017924549e+01 1.991236843656589599e+02 3.510000000000000000e+02
5.452921596376049962e+01 1.998520591041273065e+02 3.510000000000000000e+02
5.331699888734176085e+01 2.005804338425956246e+02 3.510000000000000000e+02
6.059030134585422189e+01 1.962101854117856874e+02 3.520000000000000000e+02
5.937808426943547602e+01 1.969385601502540055e+02 3.520000000000000000e+02
5.816586719301673725e+01 1.976669348887223236e+02 3.520000000000000000e+02
5.695365011659799137e+01 1.983953096271906418e+02 3.520000000000000000e+02
5.574143304017924549e+01 1.991236843656589599e+02 3.520000000000000000e+02
5.452921596376049962e+01 1.998520591041273065e+02 3.520000000000000000e+02
5.331699888734176085e+01 2.005804338425956246e+02 3.520000000000000000e+02
6.059030134585422189e+01 1.962101854117856874e+02 3.530000000000000000e+02
5.937808426943547602e+01 1.969385601502540055e+02 3.530000000000000000e+02
5.816586719301673725e+01 1.976669348887223236e+02 3.530000000000000000e+02
5.695365011659799137e+01 1.983953096271906418e+02 3.530000000000000000e+02
5.574143304017924549e+01 1.991236843656589599e+02 3.530000000000000000e+02
5.452921596376049962e+01 1.998520591041273065e+02 3.530000000000000000e+02
5.331699888734176085e+01 2.005804338425956246e+02 3.530000000000000000e+02
6.059030134585422189e+01 1.962101854117856874e+02 3.540000000000000000e+02
5.937808426943547602e+01 1.969385601502540055e+02 3.540000000000000000e+02
5.816586719301673725e+01 1.976669348887223236e+02 3.540000000000000000e+02
5.695365011659799137e+01 1.983953096271906418e+02 3.540000000000000000e+02
5.574143304017924549e+01 1.991236843656589599e+02 3.540000000000000000e+02
5.452921596376049962e+01 1.998520591041273065e+02 3.540000000000000000e+02
5.331699888734176085e+01 2.005804338425956246e+02 3.540000000000000000e+02
6.059030134585422189e+01 1.962101854117856874e+02 3.550000000000000000e+02
5.937808426943547602e+01 1.969385601502540055e+02 3.550000000000000000e+02
5.816586719301673725e+01 1.976669348887223236e+02 3.550000000000000000e+02
5.695365011659799137e+01 1.983953096271906418e+02 3.550000000000000000e+02
5.574143304017924549e+01 1.991236843656589599e+02 3.550000000000000000e+02
5.452921596376049962e+01 1.998520591041273065e+02 3.550000000000000000e+02
5.331699888734176085e+01 2.005804338425956246e+02 3.550000000000000000e+02
6.059030134585422189e+01 1.962101854117856874e+02 3.560000000000000000e+02
5.937808426943547602e+01 1.969385601502540055e+02 3.560000000000000000e+02
5.816586719301673725e+01 1.976669348887223236e+02 3.560000000000000000e+02
5.695365011659799137e+01 1.983953096271906418e+02 3.560000000000000000e+02
5.574143304017924549e+01 1.991236843656589599e+02 3.560000000000000000e+02
5.452921596376049962e+01 1.998520591041273065e+02 3.560000000000000000e+02
5.331699888734176085e+01 2.005804338425956246e+02 3.560000000000000000e+02
6.059030134585422189e+01 1.962101854117856874e+02 3.570000000000000000e+02
5.937808426943547602e+01 1.969385601502540055e+02 3.570000000000000000e+02
5.816586719301673725e+01 1.976669348887223236e+02 3.570000000000000000e+02
5.695365011659799137e+01 1.983953096271906418e+02 3.570000000000000000e+02
5.574143304017924549e+01 1.991236843656589599e+02 3.570000000000000000e+02
5.452921596376049962e+01 1.998520591041273065e+02 3.570000000000000000e+02
5.331699888734176085e+01 2.005804338425956246e+02 3.570000000000000000e+02
6.059030134585422189e+01 1.962101854117856874e+02 3.580000000000000000e+02
5.937808426943547602e+01 1.969385601502540055e+02 3.580000000000000000e+02
5.816586719301673725e+01 1.976669348887223236e+02 3.580000000000000000e+02
5.695365011659799137e+01 1.983953096271906418e+02 3.580000000000000000e+02
5.574143304017924549e+01 1.991236843656589599e+02 3.580000000000000000e+02
5.452921596376049962e+01 1.998520591041273065e+02 3.580000000000000000e+02
5.331699888734176085e+01 2.005804338425956246e+02 3.580000000000000000e+02
6.059030134585422189e+01 1.962101854117856874e+02 3.590000000000000000e+02
5.937808426943547602e+01 1.969385601502540055e+02 3.590000000000000000e+02
5.816586719301673725e+01 1.976669348887223236e+02 3.590000000000000000e+02
5.695365011659799137e+01 1.983953096271906418e+02 3.590000000000000000e+02
5.574143304017924549e+01 1.991236843656589599e+02 3.590000000000000000e+02
5.452921596376049962e+01 1.998520591041273065e+02 3.590000000000000000e+02
5.331699888734176085e+01 2.005804338425956246e+02 3.590000000000000000e+02
6.059030134585422189e+01 1.962101854117856874e+02 3.600000000000000000e+02
5.937808426943547602e+01 1.969385601502540055e+02 3.600000000000000000e+02
5.816586719301673725e+01 1.976669348887223236e+02 3.600000000000000000e+02
5.695365011659799137e+01 1.983953096271906418e+02 3.600000000000000000e+02
5.574143304017924549e+01 1.991236843656589599e+02 3.600000000000000000e+02
5.452921596376049962e+01 1.998520591041273065e+02 3.600000000000000000e+02
5.331699888734176085e+01 2.005804338425956246e+02 3.600000000000000000e+02
6.059030134585422189e+01 1.962101854117856874e+02 3.610000000000000000e+02
5.937808426943547602e+01 1.969385601502540055e+02 3.610000000000000000e+02
5.816586719301673725e+01 1.976669348887223236e+02 3.610000000000000000e+02
5.695365011659799137e+01 1.983953096271906418e+02 3.610000000000000000e+02
5.574143304017924549e+01 1.991236843656589599e+02 3.610000000000000000e+02
5.452921596376049962e+01 1.998520591041273065e+02 3.610000000000000000e+02
5.331699888734176085e+01 2.005804338425956246e+02 3.610000000000000000e+02
6.059030134585422189e+01 1.962101854117856874e+02 3.620000000000000000e+02
5.937808426943547602e+01 1.969385601502540055e+02 3.620000000000000000e+02
5.816586719301673725e+01 1.976669348887223236e+02 3.620000000000000000e+02
5.695365011659799137e+01 1.983953096271906418e+02 3.620000000000000000e+02
5.574143304017924549e+01 1.991236843656589599e+02 3.620000000000000000e+02
5.452921596376049962e+01 1.998520591041273065e+02 3.620000000000000000e+02
5.331699888734176085e+01 2.005804338425956246e+02 3.620000000000000000e+02
6.059030134585422189e+01 1.962101854117856874e+02 3.630000000000000000e+02
5.937808426943547602e+01 1.969385601502540055e+02 3.630000000000000000e+02
5.816586719301673725e+01 1.976669348887223236e+02 3.630000000000000000e+02
5.695365011659799137e+01 1.983953096271906418e+02 3.630000000000000000e+02
5.574143304017924549e+01 1.991236843656589599e+02 3.630000000000000000e+02
5.452921596376049962e+01 1.998520591041273065e+02 3.630000000000000000e+02
5.331699888734176085e+01 2.005804338425956246e+02 3.630000000000000000e+02
6.059030134585422189e+01 1.962101854117856874e+02 3.640000000000000000e+02
5.937808426943547602e+01 1.969385601502540055e+02 3.640000000000000000e+02
5.816586719301673725e+01 1.976669348887223236e+02 3.640000000000000000e+02
5.695365011659799137e+01 1.983953096271906418e+02 3.640000000000000000e+02
5.574143304017924549e+01 1.991236843656589599e+02 3.640000000000000000e+02
5.452921596376049962e+01 1.998520591041273065e+02 3.640000000000000000e+02
5.331699888734176085e+01 2.005804338425956246e+02 3.640000000000000000e+02
6.034838017687901157e+01 1.971804813192292158e+02 3.650000000000000000e+02
5.913616310046026570e+01 1.979088560576975340e+02 3.650000000000000000e+02
5.792394602404151982e+01 1.986372307961658521e+02 3.650000000000000000e+02
5.671172894762278105e+01 1.993656055346341986e+02 3.650000000000000000e+02
5.549951187120403517e+01 2.000939802731025168e+02 3.650000000000000000e+02
5.428729479478528930e+01 2.008223550115708349e+02 3.650000000000000000e+02
6.034838017687901157e+01 1.971804813192292158e+02 3.660000000000000000e+02
5.913616310046026570e+01 1.979088560576975340e+02 3.660000000000000000e+02
5.792394602404151982e+01 1.986372307961658521e+02 3.660000000000000000e+02
5.671172894762278105e+01 1.993656055346341986e+02 3.660000000000000000e+02
5.549951187120403517e+01 2.000939802731025168e+02 3.660000000000000000e+02
5.428729479478528930e+01 2.008223550115708349e+02 3.660000000000000000e+02
6.034838017687901157e+01 1.971804813192292158e+02 3.670000000000000000e+02
5.913616310046026570e+01 1.979088560576975340e+02 3.670000000000000000e+02
5.792394602404151982e+01 1.986372307961658521e+02 3.670000000000000000e+02
5.671172894762278105e+01 1.993656055346341986e+02 3.670000000000000000e+02
5.549951187120403517e+01 2.000939802731025168e+02 3.670000000000000000e+02
5.428729479478528930e+01 2.008223550115708349e+02 3.670000000000000000e+02
6.034838017687901157e+01 1.971804813192292158e+02 3.680000000000000000e+02
5.913616310046026570e+01 1.979088560576975340e+02 3.680000000000000000e+02
5.792394602404151982e+01 1.986372307961658521e+02 3.680000000000000000e+02
5.671172894762278105e+01 1.993656055346341986e+02 3.680000000000000000e+02
5.549951187120403517e+01 2.000939802731025168e+02 3.680000000000000000e+02
5.428729479478528930e+01 2.008223550115708349e+02 3.680000000000000000e+02
6.034838017687901157e+01 1.971804813192292158e+02 3.690000000000000000e+02
5.913616310046026570e+01 1.979088560576975340e+02 3.690000000000000000e+02
5.792394602404151982e+01 1.986372307961658521e+02 3.690000000000000000e+02
5.671172894762278105e+01 1.993656055346341986e+02 3.690000000000000000e+02
5.549951187120403517e+01 2.000939802731025168e+02 3.690000000000000000e+02
5.428729479478528930e+01 2.008223550115708349e+02 3.690000000000000000e+02
6.059030134585422189e+01 1.962101854117856874e+02 3.700000000000000000e+02
5.937808426943547602e+01 1.969385601502540055e+02 3.700000000000000000e+02
5.816586719301673725e+01 1.976669348887223236e+02 3.700000000000000000e+02
5.695365011659799137e+01 1.983953096271906418e+02 3.700000000000000000e+02
5.574143304017924549e+01 1.991236843656589599e+02 3.700000000000000000e+02
5.452921596376049962e+01 1.998520591041273065e+02 3.700000000000000000e+02
5.331699888734176085e+01 2.005804338425956246e+02 3.700000000000000000e+02
6.059030134585422189e+01 1.962101854117856874e+02 3.710000000000000000e+02
5.937808426943547602e+01 1.969385601502540055e+02 3.710000000000000000e+02
5.816586719301673725e+01 1.976669348887223236e+02 3.710000000000000000e+02
5.695365011659799137e+01 1.983953096271906418e+02 3.710000000000000000e+02
5.574143304017924549e+01 1.991236843656589599e+02 3.710000000000000000e+02
5.452921596376049962e+01 1.998520591041273065e+02 3.710000000000000000e+02
5.331699888734176085e+01 2.005804338425956246e+02 3.710000000000000000e+02
6.059030134585422189e+01 1.962101854117856874e+02 3.720000000000000000e+02
5.937808426943547602e+01 1.969385601502540055e+02 3.720000000000000000e+02
5.816586719301673725e+01 1.976669348887223236e+02 3.720000000000000000e+02
5.695365011659799137e+01 1.983953096271906418e+02 3.720000000000000000e+02
5.574143304017924549e+01 1.991236843656589599e+02 3.720000000000000000e+02
5.452921596376049962e+01 1.998520591041273065e+02 3.720000000000000000e+02
5.331699888734176085e+01 2.005804338425956246e+02 3.720000000000000000e+02
6.059030134585422189e+01 1.962101854117856874e+02 3.730000000000000000e+02
5.937808426943547602e+01 1.969385601502540055e+02 3.730000000000000000e+02
5.816586719301673725e+01 1.976669348887223236e+02 3.730000000000000000e+02
5.695365011659799137e+01 1.983953096271906418e+02 3.730000000000000000e+02
5.574143304017924549e+01 1.991236843656589599e+02 3.730000000000000000e+02
5.452921596376049962e+01 1.998520591041273065e+02 3.730000000000000000e+02
5.331699888734176085e+01 2.005804338425956246e+02 3.730000000000000000e+02
6.059030134585422189e+01 1.962101854117856874e+02 3.740000000000000000e+02
5.937808426943547602e+01 1.969385601502540055e+02 3.740000000000000000e+02
5.816586719301673725e+01 1.976669348887223236e+02 3.740000000000000000e+02
5.695365011659799137e+01 1.983953096271906418e+02 3.740000000000000000e+02
5.574143304017924549e+01 1.991236843656589599e+02 3.740000000000000000e+02
5.452921596376049962e+01 1.998520591041273065e+02 3.740000000000000000e+02
5.331699888734176085e+01 2.005804338425956246e+02 3.740000000000000000e+02
6.059030134585422189e+01 1.962101854117856874e+02 3.750000000000000000e+02
5.937808426943547602e+01 1.969385601502540055e+02 3.750000000000000000e+02
5.816586719301673725e+01 1.976669348887223236e+02 3.750000000000000000e+02
5.695365011659799137e+01 1.983953096271906418e+02 3.750000000000000000e+02
5.574143304017924549e+01 1.991236843656589599e+02 3.750000000000000000e+02
5.452921596376049962e+01 1.998520591041273065e+02 3.750000000000000000e+02
5.331699888734176085e+01 2.005804338425956246e+02 3.750000000000000000e+02
6.034838017687901157e+01 1.971804813192292158e+02 3.760000000000000000e+02
5.913616310046026570e+01 1.979088560576975340e+02 3.760000000000000000e+02
5.792394602404151982e+01 1.986372307961658521e+02 3.760000000000000000e+02
5.671172894762278105e+01 1.993656055346341986e+02 3.760000000000000000e+02
5.549951187120403517e+01 2.000939802731025168e+02 3.760000000000000000e+02
5.428729479478528930e+01 2.008223550115708349e+02 3.760000000000000000e+02
6.034838017687901157e+01 1.971804813192292158e+02 3.770000000000000000e+02
5.913616310046026570e+01 1.979088560576975340e+02 3.770000000000000000e+02
5.792394602404151982e+01 1.986372307961658521e+02 3.770000000000000000e+02
5.671172894762278105e+01 1.993656055346341986e+02 3.770000000000000000e+02
5.549951187120403517e+01 2.000939802731025168e+02 3.770000000000000000e+02
5.428729479478528930e+01 2.008223550115708349e+02 3.770000000000000000e+02
6.059030134585422189e+01 1.962101854117856874e+02 3.780000000000000000e+02
5.937808426943547602e+01 1.969385601502540055e+02 3.780000000000000000e+02
5.816586719301673725e+01 1.976669348887223236e+02 3.780000000000000000e+02
5.695365011659799137e+01 1.983953096271906418e+02 3.780000000000000000e+02
5.574143304017924549e+01 1.991236843656589599e+02 3.780000000000000000e+02
5.452921596376049962e+01 1.998520591041273065e+02 3.780000000000000000e+02
5.331699888734176085e+01 2.005804338425956246e+02 3.780000000000000000e+02
6.059030134585422189e+01 1.962101854117856874e+02 3.790000000000000000e+02
5.937808426943547602e+01 1.969385601502540055e+02 3.790000000000000000e+02
5.816586719301673725e+01 1.976669348887223236e+02 3.790000000000000000e+02
5.695365011659799137e+01 1.983953096271906418e+02 3.790000000000000000e+02
5.574143304017924549e+01 1.991236843656589599e+02 3.790000000000000000e+02
5.452921596376049962e+01 1.998520591041273065e+02 3.790000000000000000e+02
5.331699888734176085e+01 2.005804338425956246e+02 3.790000000000000000e+02
6.059030134585422189e+01 1.962101854117856874e+02 3.800000000000000000e+02
5.937808426943547602e+01 1.969385601502540055e+02 3.800000000000000000e+02
5.816586719301673725e+01 1.976669348887223236e+02 3.800000000000000000e+02
5.695365011659799137e+01 1.983953096271906418e+02 3.800000000000000000e+02
5.574143304017924549e+01 1.991236843656589599e+02 3.800000000000000000e+02
5.452921596376049962e+01 1.998520591041273065e+02 3.800000000000000000e+02
5.331699888734176085e+01 2.005804338425956246e+02 3.800000000000000000e+02
6.059030134585422189e+01 1.962101854117856874e+02 3.810000000000000000e+02
5.937808426943547602e+01 1.969385601502540055e+02 3.810000000000000000e+02
5.816586719301673725e+01 1.976669348887223236e+02 3.810000000000000000e+02
5.695365011659799137e+01 1.983953096271906418e+02 3.810000000000000000e+02
5.574143304017924549e+01 1.991236843656589599e+02 3.810000000000000000e+02
5.452921596376049962e+01 1.998520591041273065e+02 3.810000000000000000e+02
5.331699888734176085e+01 2.005804338425956246e+02 3.810000000000000000e+02
6.059030134585422189e+01 1.962101854117856874e+02 3.820000000000000000e+02
5.937808426943547602e+01 1.969385601502540055e+02 3.820000000000000000e+02
5.816586719301673725e+01 1.976669348887223236e+02 3.820000000000000000e+02
5.695365011659799137e+01 1.983953096271906418e+02 3.820000000000000000e+02
5.574143304017924549e+01 1.991236843656589599e+02 3.820000000000000000e+02
5.452921596376049962e+01 1.998520591041273065e+02 3.820000000000000000e+02
5.331699888734176085e+01 2.005804338425956246e+02 3.820000000000000000e+02
6.059030134585422189e+01 1.962101854117856874e+02 3.830000000000000000e+02
5.937808426943547602e+01 1.969385601502540055e+02 3.830000000000000000e+02
5.816586719301673725e+01 1.976669348887223236e+02 3.830000000000000000e+02
5.695365011659799137e+01 1.983953096271906418e+02 3.830000000000000000e+02
5.574143304017924549e+01 1.991236843656589599e+02 3.830000000000000000e+02
5.452921596376049962e+01 1.998520591041273065e+02 3.830000000000000000e+02
5.331699888734176085e+01 2.005804338425956246e+02 3.830000000000000000e+02
6.059030134585422189e+01 1.962101854117856874e+02 3.840000000000000000e+02
5.937808426943547602e+01 1.969385601502540055e+02 3.840000000000000000e+02
5.816586719301673725e+01 1.976669348887223236e+02 3.840000000000000000e+02
5.695365011659799137e+01 1.983953096271906418e+02 3.840000000000000000e+02
5.574143304017924549e+01 1.991236843656589599e+02 3.840000000000000000e+02
5.452921596376049962e+01 1.998520591041273065e+02 3.840000000000000000e+02
5.331699888734176085e+01 2.005804338425956246e+02 3.840000000000000000e+02
6.059030134585422189e+01 1.962101854117856874e+02 3.850000000000000000e+02
5.937808426943547602e+01 1.969385601502540055e+02 3.850000000000000000e+02
5.816586719301673725e+01 1.976669348887223236e+02 3.850000000000000000e+02
5.695365011659799137e+01 1.983953096271906418e+02 3.850000000000000000e+02
5.574143304017924549e+01 1.991236843656589599e+02 3.850000000000000000e+02
5.452921596376049962e+01 1.998520591041273065e+02 3.850000000000000000e+02
5.331699888734176085e+01 2.005804338425956246e+02 3.850000000000000000e+02
6.059030134585422189e+01 1.962101854117856874e+02 3.860000000000000000e+02
5.937808426943547602e+01 1.969385601502540055e+02 3.860000000000000000e+02
5.816586719301673725e+01 1.976669348887223236e+02 3.860000000000000000e+02
5.695365011659799137e+01 1.983953096271906418e+02 3.860000000000000000e+02
5.574143304017924549e+01 1.991236843656589599e+02 3.860000000000000000e+02
5.452921596376049962e+01 1.998520591041273065e+02 3.860000000000000000e+02
5.331699888734176085e+01 2.005804338425956246e+02 3.860000000000000000e+02
6.083222251482943221e+01 1.952398895043421589e+02 3.870000000000000000e+02
5.962000543841068634e+01 1.959682642428104771e+02 3.870000000000000000e+02
5.840778836199194757e+01 1.966966389812787952e+02 3.870000000000000000e+02
5.719557128557320169e+01 1.974250137197471133e+02 3.870000000000000000e+02
5.598335420915445582e+01 1.981533884582154315e+02 3.870000000000000000e+02
5.477113713273571705e+01 1.988817631966837496e+02 3.870000000000000000e+02
5.355892005631697117e+01 1.996101379351520961e+02 3.870000000000000000e+02
5.234670297989822529e+01 2.003385126736204143e+02 3.870000000000000000e+02
6.083222251482943221e+01 1.952398895043421589e+02 3.880000000000000000e+02
5.962000543841068634e+01 1.959682642428104771e+02 3.880000000000000000e+02
5.840778836199194757e+01 1.966966389812787952e+02 3.880000000000000000e+02
5.719557128557320169e+01 1.974250137197471133e+02 3.880000000000000000e+02
5.598335420915445582e+01 1.981533884582154315e+02 3.880000000000000000e+02
5.477113713273571705e+01 1.988817631966837496e+02 3.880000000000000000e+02
5.355892005631697117e+01 1.996101379351520961e+02 3.880000000000000000e+02
5.234670297989822529e+01 2.003385126736204143e+02 3.880000000000000000e+02
6.059030134585422189e+01 1.962101854117856874e+02 3.890000000000000000e+02
5.937808426943547602e+01 1.969385601502540055e+02 3.890000000000000000e+02
5.816586719301673725e+01 1.976669348887223236e+02 3.890000000000000000e+02
5.695365011659799137e+01 1.983953096271906418e+02 3.890000000000000000e+02
5.574143304017924549e+01 1.991236843656589599e+02 3.890000000000000000e+02
5.452921596376049962e+01 1.998520591041273065e+02 3.890000000000000000e+02
5.331699888734176085e+01 2.005804338425956246e+02 3.890000000000000000e+02
6.059030134585422189e+01 1.962101854117856874e+02 3.900000000000000000e+02
5.937808426943547602e+01 1.969385601502540055e+02 3.900000000000000000e+02
5.816586719301673725e+01 1.976669348887223236e+02 3.900000000000000000e+02
5.695365011659799137e+01 1.983953096271906418e+02 3.900000000000000000e+02
5.574143304017924549e+01 1.991236843656589599e+02 3.900000000000000000e+02
5.452921596376049962e+01 1.998520591041273065e+02 3.900000000000000000e+02
5.331699888734176085e+01 2.005804338425956246e+02 3.900000000000000000e+02
6.059030134585422189e+01 1.962101854117856874e+02 3.910000000000000000e+02
5.937808426943547602e+01 1.969385601502540055e+02 3.910000000000000000e+02
5.816586719301673725e+01 1.976669348887223236e+02 3.910000000000000000e+02
5.695365011659799137e+01 1.983953096271906418e+02 3.910000000000000000e+02
5.574143304017924549e+01 1.991236843656589599e+02 3.910000000000000000e+02
5.452921596376049962e+01 1.998520591041273065e+02 3.910000000000000000e+02
5.331699888734176085e+01 2.005804338425956246e+02 3.910000000000000000e+02
6.083222251482943221e+01 1.952398895043421589e+02 3.920000000000000000e+02
5.962000543841068634e+01 1.959682642428104771e+02 3.920000000000000000e+02
5.840778836199194757e+01 1.966966389812787952e+02 3.920000000000000000e+02
5.719557128557320169e+01 1.974250137197471133e+02 3.920000000000000000e+02
5.598335420915445582e+01 1.981533884582154315e+02 3.920000000000000000e+02
5.477113713273571705e+01 1.988817631966837496e+02 3.920000000000000000e+02
5.355892005631697117e+01 1.996101379351520961e+02 3.920000000000000000e+02
5.234670297989822529e+01 2.003385126736204143e+02 3.920000000000000000e+02
6.083222251482943221e+01 1.952398895043421589e+02 3.930000000000000000e+02
5.962000543841068634e+01 1.959682642428104771e+02 3.930000000000000000e+02
5.840778836199194757e+01 1.966966389812787952e+02 3.930000000000000000e+02
5.719557128557320169e+01 1.974250137197471133e+02 3.930000000000000000e+02
5.598335420915445582e+01 1.981533884582154315e+02 3.930000000000000000e+02
5.477113713273571705e+01 1.988817631966837496e+02 3.930000000000000000e+02
5.355892005631697117e+01 1.996101379351520961e+02 3.930000000000000000e+02
5.234670297989822529e+01 2.003385126736204143e+02 3.930000000000000000e+02
6.083222251482943221e+01 1.952398895043421589e+02 3.940000000000000000e+02
5.962000543841068634e+01 1.959682642428104771e+02 3.940000000000000000e+02
5.840778836199194757e+01 1.966966389812787952e+02 3.940000000000000000e+02
5.719557128557320169e+01 1.974250137197471133e+02 3.940000000000000000e+02
5.598335420915445582e+01 1.981533884582154315e+02 3.940000000000000000e+02
5.477113713273571705e+01 1.988817631966837496e+02 3.940000000000000000e+02
5.355892005631697117e+01 1.996101379351520961e+02 3.940000000000000000e+02
5.234670297989822529e+01 2.003385126736204143e+02 3.940000000000000000e+02
6.083222251482943221e+01 1.952398895043421589e+02 3.950000000000000000e+02
5.962000543841068634e+01 1.959682642428104771e+02 3.950000000000000000e+02
5.840778836199194757e+01 1.966966389812787952e+02 3.950000000000000000e+02
5.719557128557320169e+01 1.974250137197471133e+02 3.950000000000000000e+02
5.598335420915445582e+01 1.981533884582154315e+02 3.950000000000000000e+02
5.477113713273571705e+01 1.988817631966837496e+02 3.950000000000000000e+02
5.355892005631697117e+01 1.996101379351520961e+02 3.950000000000000000e+02
5.234670297989822529e+01 2.003385126736204143e+02 3.950000000000000000e+02
6.083222251482943221e+01 1.952398895043421589e+02 3.960000000000000000e+02
5.962000543841068634e+01 1.959682642428104771e+02 3.960000000000000000e+02
5.840778836199194757e+01 1.966966389812787952e+02 3.960000000000000000e+02
5.719557128557320169e+01 1.974250137197471133e+02 3.960000000000000000e+02
5.598335420915445582e+01 1.981533884582154315e+02 3.960000000000000000e+02
5.477113713273571705e+01 1.988817631966837496e+02 3.960000000000000000e+02
5.355892005631697117e+01 1.996101379351520961e+02 3.960000000000000000e+02
5.234670297989822529e+01 2.003385126736204143e+02 3.960000000000000000e+02
6.083222251482943221e+01 1.952398895043421589e+02 3.970000000000000000e+02
5.962000543841068634e+01 1.959682642428104771e+02 3.970000000000000000e+02
5.840778836199194757e+01 1.966966389812787952e+02 3.970000000000000000e+02
5.719557128557320169e+01 1.974250137197471133e+02 3.970000000000000000e+02
5.598335420915445582e+01 1.981533884582154315e+02 3.970000000000000000e+02
5.477113713273571705e+01 1.988817631966837496e+02 3.970000000000000000e+02
5.355892005631697117e+01 1.996101379351520961e+02 3.970000000000000000e+02
5.234670297989822529e+01 2.003385126736204143e+02 3.970000000000000000e+02
6.083222251482943221e+01 1.952398895043421589e+02 3.980000000000000000e+02
5.962000543841068634e+01 1.959682642428104771e+02 3.980000000000000000e+02
5.840778836199194757e+01 1.966966389812787952e+02 3.980000000000000000e+02
5.719557128557320169e+01 1.974250137197471133e+02 3.980000000000000000e+02
5.598335420915445582e+01 1.981533884582154315e+02 3.980000000000000000e+02
5.477113713273571705e+01 1.988817631966837496e+02 3.980000000000000000e+02
5.355892005631697117e+01 1.996101379351520961e+02 3.980000000000000000e+02
5.234670297989822529e+01 2.003385126736204143e+02 3.980000000000000000e+02
6.083222251482943221e+01 1.952398895043421589e+02 3.990000000000000000e+02
5.962000543841068634e+01 1.959682642428104771e+02 3.990000000000000000e+02
5.840778836199194757e+01 1.966966389812787952e+02 3.990000000000000000e+02
5.719557128557320169e+01 1.974250137197471133e+02 3.990000000000000000e+02
5.598335420915445582e+01 1.981533884582154315e+02 3.990000000000000000e+02
5.477113713273571705e+01 1.988817631966837496e+02 3.990000000000000000e+02
5.355892005631697117e+01 1.996101379351520961e+02 3.990000000000000000e+02
5.234670297989822529e+01 2.003385126736204143e+02 3.990000000000000000e+02
6.083222251482943221e+01 1.952398895043421589e+02 4.000000000000000000e+02
5.962000543841068634e+01 1.959682642428104771e+02 4.000000000000000000e+02
5.840778836199194757e+01 1.966966389812787952e+02 4.000000000000000000e+02
5.719557128557320169e+01 1.974250137197471133e+02 4.000000000000000000e+02
5.598335420915445582e+01 1.981533884582154315e+02 4.000000000000000000e+02
5.477113713273571705e+01 1.988817631966837496e+02 4.000000000000000000e+02
5.355892005631697117e+01 1.996101379351520961e+02 4.000000000000000000e+02
5.234670297989822529e+01 2.003385126736204143e+02 4.000000000000000000e+02
6.083222251482943221e+01 1.952398895043421589e+02 4.010000000000000000e+02
5.962000543841068634e+01 1.959682642428104771e+02 4.010000000000000000e+02
5.840778836199194757e+01 1.966966389812787952e+02 4.010000000000000000e+02
5.719557128557320169e+01 1.974250137197471133e+02 4.010000000000000000e+02
5.598335420915445582e+01 1.981533884582154315e+02 4.010000000000000000e+02
5.477113713273571705e+01 1.988817631966837496e+02 4.010000000000000000e+02
5.355892005631697117e+01 1.996101379351520961e+02 4.010000000000000000e+02
5.234670297989822529e+01 2.003385126736204143e+02 4.010000000000000000e+02
6.083222251482943221e+01 1.952398895043421589e+02 4.020000000000000000e+02
5.962000543841068634e+01 1.959682642428104771e+02 4.020000000000000000e+02
5.840778836199194757e+01 1.966966389812787952e+02 4.020000000000000000e+02
5.719557128557320169e+01 1.974250137197471133e+02 4.020000000000000000e+02
5.598335420915445582e+01 1.981533884582154315e+02 4.020000000000000000e+02
5.477113713273571705e+01 1.988817631966837496e+02 4.020000000000000000e+02
5.355892005631697117e+01 1.996101379351520961e+02 4.020000000000000000e+02
5.234670297989822529e+01 2.003385126736204143e+02 4.020000000000000000e+02
6.083222251482943221e+01 1.952398895043421589e+02 4.030000000000000000e+02
5.962000543841068634e+01 1.959682642428104771e+02 4.030000000000000000e+02
5.840778836199194757e+01 1.966966389812787952e+02 4.030000000000000000e+02
5.719557128557320169e+01 1.974250137197471133e+02 4.030000000000000000e+02
5.598335420915445582e+01 1.981533884582154315e+02 4.030000000000000000e+02
5.477113713273571705e+01 1.988817631966837496e+02 4.030000000000000000e+02
5.355892005631697117e+01 1.996101379351520961e+02 4.030000000000000000e+02
5.234670297989822529e+01 2.003385126736204143e+02 4.030000000000000000e+02
6.083222251482943221e+01 1.952398895043421589e+02 4.040000000000000000e+02
5.962000543841068634e+01 1.959682642428104771e+02 4.040000000000000000e+02
5.840778836199194757e+01 1.966966389812787952e+02 4.040000000000000000e+02
5.719557128557320169e+01 1.974250137197471133e+02 4.040000000000000000e+02
5.598335420915445582e+01 1.981533884582154315e+02 4.040000000000000000e+02
5.477113713273571705e+01 1.988817631966837496e+02 4.040000000000000000e+02
5.355892005631697117e+01 1.996101379351520961e+02 4.040000000000000000e+02
5.234670297989822529e+01 2.003385126736204143e+02 4.040000000000000000e+02
6.083222251482943221e+01 1.952398895043421589e+02 4.050000000000000000e+02
5.962000543841068634e+01 1.959682642428104771e+02 4.050000000000000000e+02
