-1.753104517220567971e+02 3.765000000000000000e+02 -2.298566237563876768e+02
-1.767041019371820880e+02 3.765000000000000000e+02 -2.300969133272832323e+02
-1.780977521523074074e+02 3.765000000000000000e+02 -2.303372028981788162e+02
-1.794914023674327268e+02 3.765000000000000000e+02 -2.305774924690744001e+02
-1.739168015069314777e+02 3.775000000000000000e+02 -2.296163341854920930e+02
-1.753104517220567971e+02 3.775000000000000000e+02 -2.298566237563876768e+02
-1.767041019371820880e+02 3.775000000000000000e+02 -2.300969133272832323e+02
-1.780977521523074074e+02 3.775000000000000000e+02 -2.303372028981788162e+02
-1.794914023674327268e+02 3.775000000000000000e+02 -2.305774924690744001e+02
-1.739168015069314777e+02 3.785000000000000000e+02 -2.296163341854920930e+02
-1.753104517220567971e+02 3.785000000000000000e+02 -2.298566237563876768e+02
-1.767041019371820880e+02 3.785000000000000000e+02 -2.300969133272832323e+02
-1.780977521523074074e+02 3.785000000000000000e+02 -2.303372028981788162e+02
-1.794914023674327268e+02 3.785000000000000000e+02 -2.305774924690744001e+02
-1.725231512918061583e+02 3.795000000000000000e+02 -2.293760446145965091e+02
-1.739168015069314777e+02 3.795000000000000000e+02 -2.296163341854920930e+02
-1.753104517220567971e+02 3.795000000000000000e+02 -2.298566237563876768e+02
-1.767041019371820880e+02 3.795000000000000000e+02 -2.300969133272832323e+02
-1.780977521523074074e+02 3.795000000000000000e+02 -2.303372028981788162e+02
-1.794914023674327268e+02 3.795000000000000000e+02 -2.305774924690744001e+02
-1.808850525825580178e+02 3.795000000000000000e+02 -2.308177820399699556e+02
-1.725231512918061583e+02 3.805000000000000000e+02 -2.293760446145965091e+02
-1.739168015069314777e+02 3.805000000000000000e+02 -2.296163341854920930e+02
-1.753104517220567971e+02 3.805000000000000000e+02 -2.298566237563876768e+02
-1.767041019371820880e+02 3.805000000000000000e+02 -2.300969133272832323e+02
-1.780977521523074074e+02 3.805000000000000000e+02 -2.303372028981788162e+02
-1.794914023674327268e+02 3.805000000000000000e+02 -2.305774924690744001e+02
-1.808850525825580178e+02 3.805000000000000000e+02 -2.308177820399699556e+02
-1.725231512918061583e+02 3.815000000000000000e+02 -2.293760446145965091e+02
-1.739168015069314777e+02 3.815000000000000000e+02 -2.296163341854920930e+02
-1.753104517220567971e+02 3.815000000000000000e+02 -2.298566237563876768e+02
-1.767041019371820880e+02 3.815000000000000000e+02 -2.300969133272832323e+02
-1.780977521523074074e+02 3.815000000000000000e+02 -2.303372028981788162e+02
-1.794914023674327268e+02 3.815000000000000000e+02 -2.305774924690744001e+02
-1.808850525825580178e+02 3.815000000000000000e+02 -2.308177820399699556e+02
-1.739168015069314777e+02 3.825000000000000000e+02 -2.296163341854920930e+02
-1.753104517220567971e+02 3.825000000000000000e+02 -2.298566237563876768e+02
-1.767041019371820880e+02 3.825000000000000000e+02 -2.300969133272832323e+02
-1.780977521523074074e+02 3.825000000000000000e+02 -2.303372028981788162e+02
-1.794914023674327268e+02 3.825000000000000000e+02 -2.305774924690744001e+02
-1.808850525825580178e+02 3.825000000000000000e+02 -2.308177820399699556e+02
-1.739168015069314777e+02 3.835000000000000000e+02 -2.296163341854920930e+02
-1.753104517220567971e+02 3.835000000000000000e+02 -2.298566237563876768e+02
-1.767041019371820880e+02 3.835000000000000000e+02 -2.300969133272832323e+02
-1.780977521523074074e+02 3.835000000000000000e+02 -2.303372028981788162e+02
-1.794914023674327268e+02 3.835000000000000000e+02 -2.305774924690744001e+02
-1.808850525825580178e+02 3.835000000000000000e+02 -2.308177820399699556e+02
-1.739168015069314777e+02 3.845000000000000000e+02 -2.296163341854920930e+02
-1.753104517220567971e+02 3.845000000000000000e+02 -2.298566237563876768e+02
-1.767041019371820880e+02 3.845000000000000000e+02 -2.300969133272832323e+02
-1.780977521523074074e+02 3.845000000000000000e+02 -2.303372028981788162e+02
-1.794914023674327268e+02 3.845000000000000000e+02 -2.305774924690744001e+02
-1.739168015069314777e+02 3.855000000000000000e+02 -2.296163341854920930e+02
-1.753104517220567971e+02 3.855000000000000000e+02 -2.298566237563876768e+02
-1.767041019371820880e+02 3.855000000000000000e+02 -2.300969133272832323e+02
-1.780977521523074074e+02 3.855000000000000000e+02 -2.303372028981788162e+02
-1.794914023674327268e+02 3.855000000000000000e+02 -2.305774924690744001e+02
-1.739168015069314777e+02 3.865000000000000000e+02 -2.296163341854920930e+02
-1.753104517220567971e+02 3.865000000000000000e+02 -2.298566237563876768e+02
-1.767041019371820880e+02 3.865000000000000000e+02 -2.300969133272832323e+02
-1.780977521523074074e+02 3.865000000000000000e+02 -2.303372028981788162e+02
-1.794914023674327268e+02 3.865000000000000000e+02 -2.305774924690744001e+02
-1.739168015069314777e+02 3.875000000000000000e+02 -2.296163341854920930e+02
-1.753104517220567971e+02 3.875000000000000000e+02 -2.298566237563876768e+02
-1.767041019371820880e+02 3.875000000000000000e+02 -2.300969133272832323e+02
-1.780977521523074074e+02 3.875000000000000000e+02 -2.303372028981788162e+02
-1.794914023674327268e+02 3.875000000000000000e+02 -2.305774924690744001e+02
-1.808850525825580178e+02 3.875000000000000000e+02 -2.308177820399699556e+02
-1.725231512918061583e+02 3.885000000000000000e+02 -2.293760446145965091e+02
-1.739168015069314777e+02 3.885000000000000000e+02 -2.296163341854920930e+02
-1.753104517220567971e+02 3.885000000000000000e+02 -2.298566237563876768e+02
-1.767041019371820880e+02 3.885000000000000000e+02 -2.300969133272832323e+02
-1.780977521523074074e+02 3.885000000000000000e+02 -2.303372028981788162e+02
-1.794914023674327268e+02 3.885000000000000000e+02 -2.305774924690744001e+02
-1.808850525825580178e+02 3.885000000000000000e+02 -2.308177820399699556e+02
-1.725231512918061583e+02 3.895000000000000000e+02 -2.293760446145965091e+02
-1.739168015069314777e+02 3.895000000000000000e+02 -2.296163341854920930e+02
-1.753104517220567971e+02 3.895000000000000000e+02 -2.298566237563876768e+02
-1.767041019371820880e+02 3.895000000000000000e+02 -2.300969133272832323e+02
-1.780977521523074074e+02 3.895000000000000000e+02 -2.303372028981788162e+02
-1.794914023674327268e+02 3.895000000000000000e+02 -2.305774924690744001e+02
-1.808850525825580178e+02 3.895000000000000000e+02 -2.308177820399699556e+02
-1.822787027976833372e+02 3.895000000000000000e+02 -2.310580716108655395e+02
-1.725231512918061583e+02 3.905000000000000000e+02 -2.293760446145965091e+02
-1.739168015069314777e+02 3.905000000000000000e+02 -2.296163341854920930e+02
-1.753104517220567971e+02 3.905000000000000000e+02 -2.298566237563876768e+02
-1.767041019371820880e+02 3.905000000000000000e+02 -2.300969133272832323e+02
-1.780977521523074074e+02 3.905000000000000000e+02 -2.303372028981788162e+02
-1.794914023674327268e+02 3.905000000000000000e+02 -2.305774924690744001e+02
-1.808850525825580178e+02 3.905000000000000000e+02 -2.308177820399699556e+02
-1.822787027976833372e+02 3.905000000000000000e+02 -2.310580716108655395e+02
-1.725231512918061583e+02 3.915000000000000000e+02 -2.293760446145965091e+02
-1.739168015069314777e+02 3.915000000000000000e+02 -2.296163341854920930e+02
-1.753104517220567971e+02 3.915000000000000000e+02 -2.298566237563876768e+02
-1.767041019371820880e+02 3.915000000000000000e+02 -2.300969133272832323e+02
-1.780977521523074074e+02 3.915000000000000000e+02 -2.303372028981788162e+02
-1.794914023674327268e+02 3.915000000000000000e+02 -2.305774924690744001e+02
-1.808850525825580178e+02 3.915000000000000000e+02 -2.308177820399699556e+02
-1.822787027976833372e+02 3.915000000000000000e+02 -2.310580716108655395e+02
-1.725231512918061583e+02 3.925000000000000000e+02 -2.293760446145965091e+02
-1.739168015069314777e+02 3.925000000000000000e+02 -2.296163341854920930e+02
-1.753104517220567971e+02 3.925000000000000000e+02 -2.298566237563876768e+02
-1.767041019371820880e+02 3.925000000000000000e+02 -2.300969133272832323e+02
-1.780977521523074074e+02 3.925000000000000000e+02 -2.303372028981788162e+02
-1.794914023674327268e+02 3.925000000000000000e+02 -2.305774924690744001e+02
-1.808850525825580178e+02 3.925000000000000000e+02 -2.308177820399699556e+02
-1.822787027976833372e+02 3.925000000000000000e+02 -2.310580716108655395e+02
-1.725231512918061583e+02 3.935000000000000000e+02 -2.293760446145965091e+02
-1.739168015069314777e+02 3.935000000000000000e+02 -2.296163341854920930e+02
-1.753104517220567971e+02 3.935000000000000000e+02 -2.298566237563876768e+02
-1.767041019371820880e+02 3.935000000000000000e+02 -2.300969133272832323e+02
-1.780977521523074074e+02 3.935000000000000000e+02 -2.303372028981788162e+02
-1.794914023674327268e+02 3.935000000000000000e+02 -2.305774924690744001e+02
-1.808850525825580178e+02 3.935000000000000000e+02 -2.308177820399699556e+02
-1.822787027976833372e+02 3.935000000000000000e+02 -2.310580716108655395e+02
-1.725231512918061583e+02 3.945000000000000000e+02 -2.293760446145965091e+02
-1.739168015069314777e+02 3.945000000000000000e+02 -2.296163341854920930e+02
-1.753104517220567971e+02 3.945000000000000000e+02 -2.298566237563876768e+02
-1.767041019371820880e+02 3.945000000000000000e+02 -2.300969133272832323e+02
-1.780977521523074074e+02 3.945000000000000000e+02 -2.303372028981788162e+02
-1.794914023674327268e+02 3.945000000000000000e+02 -2.305774924690744001e+02
-1.808850525825580178e+02 3.945000000000000000e+02 -2.308177820399699556e+02
-1.822787027976833372e+02 3.945000000000000000e+02 -2.310580716108655395e+02
-1.725231512918061583e+02 3.955000000000000000e+02 -2.293760446145965091e+02
-1.739168015069314777e+02 3.955000000000000000e+02 -2.296163341854920930e+02
-1.753104517220567971e+02 3.955000000000000000e+02 -2.298566237563876768e+02
-1.767041019371820880e+02 3.955000000000000000e+02 -2.300969133272832323e+02
-1.780977521523074074e+02 3.955000000000000000e+02 -2.303372028981788162e+02
-1.794914023674327268e+02 3.955000000000000000e+02 -2.305774924690744001e+02
-1.808850525825580178e+02 3.955000000000000000e+02 -2.308177820399699556e+02
-1.822787027976833372e+02 3.955000000000000000e+02 -2.310580716108655395e+02
-1.725231512918061583e+02 3.965000000000000000e+02 -2.293760446145965091e+02
-1.739168015069314777e+02 3.965000000000000000e+02 -2.296163341854920930e+02
-1.753104517220567971e+02 3.965000000000000000e+02 -2.298566237563876768e+02
-1.767041019371820880e+02 3.965000000000000000e+02 -2.300969133272832323e+02
-1.780977521523074074e+02 3.965000000000000000e+02 -2.303372028981788162e+02
-1.794914023674327268e+02 3.965000000000000000e+02 -2.305774924690744001e+02
-1.808850525825580178e+02 3.965000000000000000e+02 -2.308177820399699556e+02
-1.822787027976833372e+02 3.965000000000000000e+02 -2.310580716108655395e+02
-1.725231512918061583e+02 3.975000000000000000e+02 -2.293760446145965091e+02
-1.739168015069314777e+02 3.975000000000000000e+02 -2.296163341854920930e+02
-1.753104517220567971e+02 3.975000000000000000e+02 -2.298566237563876768e+02
-1.767041019371820880e+02 3.975000000000000000e+02 -2.300969133272832323e+02
-1.780977521523074074e+02 3.975000000000000000e+02 -2.303372028981788162e+02
-1.794914023674327268e+02 3.975000000000000000e+02 -2.305774924690744001e+02
-1.808850525825580178e+02 3.975000000000000000e+02 -2.308177820399699556e+02
-1.822787027976833372e+02 3.975000000000000000e+02 -2.310580716108655395e+02
-1.725231512918061583e+02 3.985000000000000000e+02 -2.293760446145965091e+02
-1.739168015069314777e+02 3.985000000000000000e+02 -2.296163341854920930e+02
-1.753104517220567971e+02 3.985000000000000000e+02 -2.298566237563876768e+02
-1.767041019371820880e+02 3.985000000000000000e+02 -2.300969133272832323e+02
-1.780977521523074074e+02 3.985000000000000000e+02 -2.303372028981788162e+02
-1.794914023674327268e+02 3.985000000000000000e+02 -2.305774924690744001e+02
-1.808850525825580178e+02 3.985000000000000000e+02 -2.308177820399699556e+02
-1.822787027976833372e+02 3.985000000000000000e+02 -2.310580716108655395e+02
-1.725231512918061583e+02 3.995000000000000000e+02 -2.293760446145965091e+02
-1.739168015069314777e+02 3.995000000000000000e+02 -2.296163341854920930e+02
-1.753104517220567971e+02 3.995000000000000000e+02 -2.298566237563876768e+02
-1.767041019371820880e+02 3.995000000000000000e+02 -2.300969133272832323e+02
-1.780977521523074074e+02 3.995000000000000000e+02 -2.303372028981788162e+02
-1.794914023674327268e+02 3.995000000000000000e+02 -2.305774924690744001e+02
-1.808850525825580178e+02 3.995000000000000000e+02 -2.308177820399699556e+02
-1.822787027976833372e+02 3.995000000000000000e+02 -2.310580716108655395e+02
-1.725231512918061583e+02 4.005000000000000000e+02 -2.293760446145965091e+02
-1.739168015069314777e+02 4.005000000000000000e+02 -2.296163341854920930e+02
-1.753104517220567971e+02 4.005000000000000000e+02 -2.298566237563876768e+02
-1.767041019371820880e+02 4.005000000000000000e+02 -2.300969133272832323e+02
-1.780977521523074074e+02 4.005000000000000000e+02 -2.303372028981788162e+02
-1.794914023674327268e+02 4.005000000000000000e+02 -2.305774924690744001e+02
-1.808850525825580178e+02 4.005000000000000000e+02 -2.308177820399699556e+02
-1.822787027976833372e+02 4.005000000000000000e+02 -2.310580716108655395e+02
-1.725231512918061583e+02 4.015000000000000000e+02 -2.293760446145965091e+02
-1.739168015069314777e+02 4.015000000000000000e+02 -2.296163341854920930e+02
-1.753104517220567971e+02 4.015000000000000000e+02 -2.298566237563876768e+02
-1.767041019371820880e+02 4.015000000000000000e+02 -2.300969133272832323e+02
-1.780977521523074074e+02 4.015000000000000000e+02 -2.303372028981788162e+02
-1.794914023674327268e+02 4.015000000000000000e+02 -2.305774924690744001e+02
-1.808850525825580178e+02 4.015000000000000000e+02 -2.308177820399699556e+02
-1.822787027976833372e+02 4.015000000000000000e+02 -2.310580716108655395e+02
-1.725231512918061583e+02 4.025000000000000000e+02 -2.293760446145965091e+02
-1.739168015069314777e+02 4.025000000000000000e+02 -2.296163341854920930e+02
-1.753104517220567971e+02 4.025000000000000000e+02 -2.298566237563876768e+02
-1.767041019371820880e+02 4.025000000000000000e+02 -2.300969133272832323e+02
-1.780977521523074074e+02 4.025000000000000000e+02 -2.303372028981788162e+02
-1.794914023674327268e+02 4.025000000000000000e+02 -2.305774924690744001e+02
-1.808850525825580178e+02 4.025000000000000000e+02 -2.308177820399699556e+02
-1.822787027976833372e+02 4.025000000000000000e+02 -2.310580716108655395e+02
-1.725231512918061583e+02 4.035000000000000000e+02 -2.293760446145965091e+02
-1.739168015069314777e+02 4.035000000000000000e+02 -2.296163341854920930e+02
-1.753104517220567971e+02 4.035000000000000000e+02 -2.298566237563876768e+02
-1.767041019371820880e+02 4.035000000000000000e+02 -2.300969133272832323e+02
-1.780977521523074074e+02 4.035000000000000000e+02 -2.303372028981788162e+02
-1.794914023674327268e+02 4.035000000000000000e+02 -2.305774924690744001e+02
-1.808850525825580178e+02 4.035000000000000000e+02 -2.308177820399699556e+02
-1.822787027976833372e+02 4.035000000000000000e+02 -2.310580716108655395e+02
-1.725231512918061583e+02 4.045000000000000000e+02 -2.293760446145965091e+02
-1.739168015069314777e+02 4.045000000000000000e+02 -2.296163341854920930e+02
-1.753104517220567971e+02 4.045000000000000000e+02 -2.298566237563876768e+02
-1.767041019371820880e+02 4.045000000000000000e+02 -2.300969133272832323e+02
-1.780977521523074074e+02 4.045000000000000000e+02 -2.303372028981788162e+02
-1.794914023674327268e+02 4.045000000000000000e+02 -2.305774924690744001e+02
-1.808850525825580178e+02 4.045000000000000000e+02 -2.308177820399699556e+02
-1.822787027976833372e+02 4.045000000000000000e+02 -2.310580716108655395e+02
-1.725231512918061583e+02 4.055000000000000000e+02 -2.293760446145965091e+02
-1.739168015069314777e+02 4.055000000000000000e+02 -2.296163341854920930e+02
-1.753104517220567971e+02 4.055000000000000000e+02 -2.298566237563876768e+02
-1.767041019371820880e+02 4.055000000000000000e+02 -2.300969133272832323e+02
-1.780977521523074074e+02 4.055000000000000000e+02 -2.303372028981788162e+02
-1.794914023674327268e+02 4.055000000000000000e+02 -2.305774924690744001e+02
-1.808850525825580178e+02 4.055000000000000000e+02 -2.308177820399699556e+02
-1.822787027976833372e+02 4.055000000000000000e+02 -2.310580716108655395e+02
-1.725231512918061583e+02 4.065000000000000000e+02 -2.293760446145965091e+02
-1.739168015069314777e+02 4.065000000000000000e+02 -2.296163341854920930e+02
-1.753104517220567971e+02 4.065000000000000000e+02 -2.298566237563876768e+02
-1.767041019371820880e+02 4.065000000000000000e+02 -2.300969133272832323e+02
-1.780977521523074074e+02 4.065000000000000000e+02 -2.303372028981788162e+02
-1.794914023674327268e+02 4.065000000000000000e+02 -2.305774924690744001e+02
-1.808850525825580178e+02 4.065000000000000000e+02 -2.308177820399699556e+02
-1.822787027976833372e+02 4.065000000000000000e+02 -2.310580716108655395e+02
-1.725231512918061583e+02 4.075000000000000000e+02 -2.293760446145965091e+02
-1.739168015069314777e+02 4.075000000000000000e+02 -2.296163341854920930e+02
-1.753104517220567971e+02 4.075000000000000000e+02 -2.298566237563876768e+02
-1.767041019371820880e+02 4.075000000000000000e+02 -2.300969133272832323e+02
-1.780977521523074074e+02 4.075000000000000000e+02 -2.303372028981788162e+02
-1.794914023674327268e+02 4.075000000000000000e+02 -2.305774924690744001e+02
-1.808850525825580178e+02 4.075000000000000000e+02 -2.308177820399699556e+02
-1.725231512918061583e+02 4.085000000000000000e+02 -2.293760446145965091e+02
-1.739168015069314777e+02 4.085000000000000000e+02 -2.296163341854920930e+02
-1.753104517220567971e+02 4.085000000000000000e+02 -2.298566237563876768e+02
-1.767041019371820880e+02 4.085000000000000000e+02 -2.300969133272832323e+02
-1.780977521523074074e+02 4.085000000000000000e+02 -2.303372028981788162e+02
-1.794914023674327268e+02 4.085000000000000000e+02 -2.305774924690744001e+02
-1.808850525825580178e+02 4.085000000000000000e+02 -2.308177820399699556e+02
-1.822787027976833372e+02 4.085000000000000000e+02 -2.310580716108655395e+02
-1.725231512918061583e+02 4.095000000000000000e+02 -2.293760446145965091e+02
-1.739168015069314777e+02 4.095000000000000000e+02 -2.296163341854920930e+02
-1.753104517220567971e+02 4.095000000000000000e+02 -2.298566237563876768e+02
-1.767041019371820880e+02 4.095000000000000000e+02 -2.300969133272832323e+02
-1.780977521523074074e+02 4.095000000000000000e+02 -2.303372028981788162e+02
-1.794914023674327268e+02 4.095000000000000000e+02 -2.305774924690744001e+02
-1.808850525825580178e+02 4.095000000000000000e+02 -2.308177820399699556e+02
-1.822787027976833372e+02 4.095000000000000000e+02 -2.310580716108655395e+02
-1.725231512918061583e+02 4.105000000000000000e+02 -2.293760446145965091e+02
-1.739168015069314777e+02 4.105000000000000000e+02 -2.296163341854920930e+02
-1.753104517220567971e+02 4.105000000000000000e+02 -2.298566237563876768e+02
-1.767041019371820880e+02 4.105000000000000000e+02 -2.300969133272832323e+02
-1.780977521523074074e+02 4.105000000000000000e+02 -2.303372028981788162e+02
-1.794914023674327268e+02 4.105000000000000000e+02 -2.305774924690744001e+02
-1.808850525825580178e+02 4.105000000000000000e+02 -2.308177820399699556e+02
-1.822787027976833372e+02 4.105000000000000000e+02 -2.310580716108655395e+02
-1.725231512918061583e+02 4.115000000000000000e+02 -2.293760446145965091e+02
-1.739168015069314777e+02 4.115000000000000000e+02 -2.296163341854920930e+02
-1.753104517220567971e+02 4.115000000000000000e+02 -2.298566237563876768e+02
-1.767041019371820880e+02 4.115000000000000000e+02 -2.300969133272832323e+02
-1.780977521523074074e+02 4.115000000000000000e+02 -2.303372028981788162e+02
-1.794914023674327268e+02 4.115000000000000000e+02 -2.305774924690744001e+02
-1.808850525825580178e+02 4.115000000000000000e+02 -2.308177820399699556e+02
-1.822787027976833372e+02 4.115000000000000000e+02 -2.310580716108655395e+02
-1.725231512918061583e+02 4.125000000000000000e+02 -2.293760446145965091e+02
-1.739168015069314777e+02 4.125000000000000000e+02 -2.296163341854920930e+02
-1.753104517220567971e+02 4.125000000000000000e+02 -2.298566237563876768e+02
-1.767041019371820880e+02 4.125000000000000000e+02 -2.300969133272832323e+02
-1.780977521523074074e+02 4.125000000000000000e+02 -2.303372028981788162e+02
-1.794914023674327268e+02 4.125000000000000000e+02 -2.305774924690744001e+02
-1.808850525825580178e+02 4.125000000000000000e+02 -2.308177820399699556e+02
-1.822787027976833372e+02 4.125000000000000000e+02 -2.310580716108655395e+02
-1.725231512918061583e+02 4.135000000000000000e+02 -2.293760446145965091e+02
-1.739168015069314777e+02 4.135000000000000000e+02 -2.296163341854920930e+02
-1.753104517220567971e+02 4.135000000000000000e+02 -2.298566237563876768e+02
-1.767041019371820880e+02 4.135000000000000000e+02 -2.300969133272832323e+02
-1.780977521523074074e+02 4.135000000000000000e+02 -2.303372028981788162e+02
-1.794914023674327268e+02 4.135000000000000000e+02 -2.305774924690744001e+02
-1.808850525825580178e+02 4.135000000000000000e+02 -2.308177820399699556e+02
-1.725231512918061583e+02 4.145000000000000000e+02 -2.293760446145965091e+02
-1.739168015069314777e+02 4.145000000000000000e+02 -2.296163341854920930e+02
-1.753104517220567971e+02 4.145000000000000000e+02 -2.298566237563876768e+02
-1.767041019371820880e+02 4.145000000000000000e+02 -2.300969133272832323e+02
-1.780977521523074074e+02 4.145000000000000000e+02 -2.303372028981788162e+02
-1.794914023674327268e+02 4.145000000000000000e+02 -2.305774924690744001e+02
-1.808850525825580178e+02 4.145000000000000000e+02 -2.308177820399699556e+02
-1.725231512918061583e+02 4.155000000000000000e+02 -2.293760446145965091e+02
-1.739168015069314777e+02 4.155000000000000000e+02 -2.296163341854920930e+02
-1.753104517220567971e+02 4.155000000000000000e+02 -2.298566237563876768e+02
-1.767041019371820880e+02 4.155000000000000000e+02 -2.300969133272832323e+02
-1.780977521523074074e+02 4.155000000000000000e+02 -2.303372028981788162e+02
-1.794914023674327268e+02 4.155000000000000000e+02 -2.305774924690744001e+02
-1.808850525825580178e+02 4.155000000000000000e+02 -2.308177820399699556e+02
-1.725231512918061583e+02 4.165000000000000000e+02 -2.293760446145965091e+02
-1.739168015069314777e+02 4.165000000000000000e+02 -2.296163341854920930e+02
-1.753104517220567971e+02 4.165000000000000000e+02 -2.298566237563876768e+02
-1.767041019371820880e+02 4.165000000000000000e+02 -2.300969133272832323e+02
-1.780977521523074074e+02 4.165000000000000000e+02 -2.303372028981788162e+02
-1.794914023674327268e+02 4.165000000000000000e+02 -2.305774924690744001e+02
-1.808850525825580178e+02 4.165000000000000000e+02 -2.308177820399699556e+02
-1.822787027976833372e+02 4.165000000000000000e+02 -2.310580716108655395e+02
-1.725231512918061583e+02 4.175000000000000000e+02 -2.293760446145965091e+02
-1.739168015069314777e+02 4.175000000000000000e+02 -2.296163341854920930e+02
-1.753104517220567971e+02 4.175000000000000000e+02 -2.298566237563876768e+02
-1.767041019371820880e+02 4.175000000000000000e+02 -2.300969133272832323e+02
-1.780977521523074074e+02 4.175000000000000000e+02 -2.303372028981788162e+02
-1.794914023674327268e+02 4.175000000000000000e+02 -2.305774924690744001e+02
-1.808850525825580178e+02 4.175000000000000000e+02 -2.308177820399699556e+02
-1.822787027976833372e+02 4.175000000000000000e+02 -2.310580716108655395e+02
-1.725231512918061583e+02 4.185000000000000000e+02 -2.293760446145965091e+02
-1.739168015069314777e+02 4.185000000000000000e+02 -2.296163341854920930e+02
-1.753104517220567971e+02 4.185000000000000000e+02 -2.298566237563876768e+02
-1.767041019371820880e+02 4.185000000000000000e+02 -2.300969133272832323e+02
-1.780977521523074074e+02 4.185000000000000000e+02 -2.303372028981788162e+02
-1.794914023674327268e+02 4.185000000000000000e+02 -2.305774924690744001e+02
-1.808850525825580178e+02 4.185000000000000000e+02 -2.308177820399699556e+02
-1.822787027976833372e+02 4.185000000000000000e+02 -2.310580716108655395e+02
-1.725231512918061583e+02 4.195000000000000000e+02 -2.293760446145965091e+02
-1.739168015069314777e+02 4.195000000000000000e+02 -2.296163341854920930e+02
-1.753104517220567971e+02 4.195000000000000000e+02 -2.298566237563876768e+02
-1.767041019371820880e+02 4.195000000000000000e+02 -2.300969133272832323e+02
-1.780977521523074074e+02 4.195000000000000000e+02 -2.303372028981788162e+02
-1.794914023674327268e+02 4.195000000000000000e+02 -2.305774924690744001e+02
-1.808850525825580178e+02 4.195000000000000000e+02 -2.308177820399699556e+02
-1.725231512918061583e+02 4.205000000000000000e+02 -2.293760446145965091e+02
-1.739168015069314777e+02 4.205000000000000000e+02 -2.296163341854920930e+02
-1.753104517220567971e+02 4.205000000000000000e+02 -2.298566237563876768e+02
-1.767041019371820880e+02 4.205000000000000000e+02 -2.300969133272832323e+02
-1.780977521523074074e+02 4.205000000000000000e+02 -2.303372028981788162e+02
-1.794914023674327268e+02 4.205000000000000000e+02 -2.305774924690744001e+02
-1.808850525825580178e+02 4.205000000000000000e+02 -2.308177820399699556e+02
-1.711295010766808673e+02 4.215000000000000000e+02 -2.291357550437009536e+02
-1.725231512918061583e+02 4.215000000000000000e+02 -2.293760446145965091e+02
-1.739168015069314777e+02 4.215000000000000000e+02 -2.296163341854920930e+02
-1.753104517220567971e+02 4.215000000000000000e+02 -2.298566237563876768e+02
-1.767041019371820880e+02 4.215000000000000000e+02 -2.300969133272832323e+02
-1.780977521523074074e+02 4.215000000000000000e+02 -2.303372028981788162e+02
-1.794914023674327268e+02 4.215000000000000000e+02 -2.305774924690744001e+02
-1.808850525825580178e+02 4.215000000000000000e+02 -2.308177820399699556e+02
-1.711295010766808673e+02 4.225000000000000000e+02 -2.291357550437009536e+02
-1.725231512918061583e+02 4.225000000000000000e+02 -2.293760446145965091e+02
-1.739168015069314777e+02 4.225000000000000000e+02 -2.296163341854920930e+02
-1.753104517220567971e+02 4.225000000000000000e+02 -2.298566237563876768e+02
-1.767041019371820880e+02 4.225000000000000000e+02 -2.300969133272832323e+02
-1.780977521523074074e+02 4.225000000000000000e+02 -2.303372028981788162e+02
-1.794914023674327268e+02 4.225000000000000000e+02 -2.305774924690744001e+02
-1.808850525825580178e+02 4.225000000000000000e+02 -2.308177820399699556e+02
-1.711295010766808673e+02 4.235000000000000000e+02 -2.291357550437009536e+02
-1.725231512918061583e+02 4.235000000000000000e+02 -2.293760446145965091e+02
-1.739168015069314777e+02 4.235000000000000000e+02 -2.296163341854920930e+02
-1.753104517220567971e+02 4.235000000000000000e+02 -2.298566237563876768e+02
-1.767041019371820880e+02 4.235000000000000000e+02 -2.300969133272832323e+02
-1.780977521523074074e+02 4.235000000000000000e+02 -2.303372028981788162e+02
-1.794914023674327268e+02 4.235000000000000000e+02 -2.305774924690744001e+02
-1.808850525825580178e+02 4.235000000000000000e+02 -2.308177820399699556e+02
-1.711295010766808673e+02 4.245000000000000000e+02 -2.291357550437009536e+02
-1.725231512918061583e+02 4.245000000000000000e+02 -2.293760446145965091e+02
-1.739168015069314777e+02 4.245000000000000000e+02 -2.296163341854920930e+02
-1.753104517220567971e+02 4.245000000000000000e+02 -2.298566237563876768e+02
-1.767041019371820880e+02 4.245000000000000000e+02 -2.300969133272832323e+02
-1.780977521523074074e+02 4.245000000000000000e+02 -2.303372028981788162e+02
-1.794914023674327268e+02 4.245000000000000000e+02 -2.305774924690744001e+02
-1.808850525825580178e+02 4.245000000000000000e+02 -2.308177820399699556e+02
-1.711295010766808673e+02 4.255000000000000000e+02 -2.291357550437009536e+02
-1.725231512918061583e+02 4.255000000000000000e+02 -2.293760446145965091e+02
-1.739168015069314777e+02 4.255000000000000000e+02 -2.296163341854920930e+02
-1.753104517220567971e+02 4.255000000000000000e+02 -2.298566237563876768e+02
-1.767041019371820880e+02 4.255000000000000000e+02 -2.300969133272832323e+02
-1.780977521523074074e+02 4.255000000000000000e+02 -2.303372028981788162e+02
-1.794914023674327268e+02 4.255000000000000000e+02 -2.305774924690744001e+02
-1.808850525825580178e+02 4.255000000000000000e+02 -2.308177820399699556e+02
-1.711295010766808673e+02 4.265000000000000000e+02 -2.291357550437009536e+02
-1.725231512918061583e+02 4.265000000000000000e+02 -2.293760446145965091e+02
-1.739168015069314777e+02 4.265000000000000000e+02 -2.296163341854920930e+02
-1.753104517220567971e+02 4.265000000000000000e+02 -2.298566237563876768e+02
-1.767041019371820880e+02 4.265000000000000000e+02 -2.300969133272832323e+02
-1.780977521523074074e+02 4.265000000000000000e+02 -2.303372028981788162e+02
-1.794914023674327268e+02 4.265000000000000000e+02 -2.305774924690744001e+02
-1.808850525825580178e+02 4.265000000000000000e+02 -2.308177820399699556e+02
-1.711295010766808673e+02 4.275000000000000000e+02 -2.291357550437009536e+02
-1.725231512918061583e+02 4.275000000000000000e+02 -2.293760446145965091e+02
-1.739168015069314777e+02 4.275000000000000000e+02 -2.296163341854920930e+02
-1.753104517220567971e+02 4.275000000000000000e+02 -2.298566237563876768e+02
-1.767041019371820880e+02 4.275000000000000000e+02 -2.300969133272832323e+02
-1.780977521523074074e+02 4.275000000000000000e+02 -2.303372028981788162e+02
-1.794914023674327268e+02 4.275000000000000000e+02 -2.305774924690744001e+02
-1.808850525825580178e+02 4.275000000000000000e+02 -2.308177820399699556e+02
-1.711295010766808673e+02 4.285000000000000000e+02 -2.291357550437009536e+02
-1.725231512918061583e+02 4.285000000000000000e+02 -2.293760446145965091e+02
-1.739168015069314777e+02 4.285000000000000000e+02 -2.296163341854920930e+02
-1.753104517220567971e+02 4.285000000000000000e+02 -2.298566237563876768e+02
-1.767041019371820880e+02 4.285000000000000000e+02 -2.300969133272832323e+02
-1.780977521523074074e+02 4.285000000000000000e+02 -2.303372028981788162e+02
-1.794914023674327268e+02 4.285000000000000000e+02 -2.305774924690744001e+02
-1.808850525825580178e+02 4.285000000000000000e+02 -2.308177820399699556e+02
-1.711295010766808673e+02 4.295000000000000000e+02 -2.291357550437009536e+02
-1.725231512918061583e+02 4.295000000000000000e+02 -2.293760446145965091e+02
-1.739168015069314777e+02 4.295000000000000000e+02 -2.296163341854920930e+02
-1.753104517220567971e+02 4.295000000000000000e+02 -2.298566237563876768e+02
-1.767041019371820880e+02 4.295000000000000000e+02 -2.300969133272832323e+02
-1.780977521523074074e+02 4.295000000000000000e+02 -2.303372028981788162e+02
-1.794914023674327268e+02 4.295000000000000000e+02 -2.305774924690744001e+02
-1.808850525825580178e+02 4.295000000000000000e+02 -2.308177820399699556e+02
-1.711295010766808673e+02 4.305000000000000000e+02 -2.291357550437009536e+02
-1.725231512918061583e+02 4.305000000000000000e+02 -2.293760446145965091e+02
-1.739168015069314777e+02 4.305000000000000000e+02 -2.296163341854920930e+02
-1.753104517220567971e+02 4.305000000000000000e+02 -2.298566237563876768e+02
-1.767041019371820880e+02 4.305000000000000000e+02 -2.300969133272832323e+02
-1.780977521523074074e+02 4.305000000000000000e+02 -2.303372028981788162e+02
-1.794914023674327268e+02 4.305000000000000000e+02 -2.305774924690744001e+02
-1.808850525825580178e+02 4.305000000000000000e+02 -2.308177820399699556e+02
-1.711295010766808673e+02 4.315000000000000000e+02 -2.291357550437009536e+02
-1.725231512918061583e+02 4.315000000000000000e+02 -2.293760446145965091e+02
-1.739168015069314777e+02 4.315000000000000000e+02 -2.296163341854920930e+02
-1.753104517220567971e+02 4.315000000000000000e+02 -2.298566237563876768e+02
-1.767041019371820880e+02 4.315000000000000000e+02 -2.300969133272832323e+02
-1.780977521523074074e+02 4.315000000000000000e+02 -2.303372028981788162e+02
-1.794914023674327268e+02 4.315000000000000000e+02 -2.305774924690744001e+02
-1.711295010766808673e+02 4.325000000000000000e+02 -2.291357550437009536e+02
-1.725231512918061583e+02 4.325000000000000000e+02 -2.293760446145965091e+02
-1.739168015069314777e+02 4.325000000000000000e+02 -2.296163341854920930e+02
-1.753104517220567971e+02 4.325000000000000000e+02 -2.298566237563876768e+02
-1.767041019371820880e+02 4.325000000000000000e+02 -2.300969133272832323e+02
-1.780977521523074074e+02 4.325000000000000000e+02 -2.303372028981788162e+02
-1.794914023674327268e+02 4.325000000000000000e+02 -2.305774924690744001e+02
-1.697358508615555479e+02 4.335000000000000000e+02 -2.288954654728053697e+02
-1.711295010766808673e+02 4.335000000000000000e+02 -2.291357550437009536e+02
-1.725231512918061583e+02 4.335000000000000000e+02 -2.293760446145965091e+02
-1.739168015069314777e+02 4.335000000000000000e+02 -2.296163341854920930e+02
-1.753104517220567971e+02 4.335000000000000000e+02 -2.298566237563876768e+02
-1.767041019371820880e+02 4.335000000000000000e+02 -2.300969133272832323e+02
-1.780977521523074074e+02 4.335000000000000000e+02 -2.303372028981788162e+02
-1.794914023674327268e+02 4.335000000000000000e+02 -2.305774924690744001e+02
-1.697358508615555479e+02 4.345000000000000000e+02 -2.288954654728053697e+02
-1.711295010766808673e+02 4.345000000000000000e+02 -2.291357550437009536e+02
-1.725231512918061583e+02 4.345000000000000000e+02 -2.293760446145965091e+02
-1.739168015069314777e+02 4.345000000000000000e+02 -2.296163341854920930e+02
-1.753104517220567971e+02 4.345000000000000000e+02 -2.298566237563876768e+02
-1.767041019371820880e+02 4.345000000000000000e+02 -2.300969133272832323e+02
-1.780977521523074074e+02 4.345000000000000000e+02 -2.303372028981788162e+02
-1.794914023674327268e+02 4.345000000000000000e+02 -2.305774924690744001e+02
-1.697358508615555479e+02 4.355000000000000000e+02 -2.288954654728053697e+02
-1.711295010766808673e+02 4.355000000000000000e+02 -2.291357550437009536e+02
-1.725231512918061583e+02 4.355000000000000000e+02 -2.293760446145965091e+02
-1.739168015069314777e+02 4.355000000000000000e+02 -2.296163341854920930e+02
-1.753104517220567971e+02 4.355000000000000000e+02 -2.298566237563876768e+02
-1.767041019371820880e+02 4.355000000000000000e+02 -2.300969133272832323e+02
-1.780977521523074074e+02 4.355000000000000000e+02 -2.303372028981788162e+02
-1.794914023674327268e+02 4.355000000000000000e+02 -2.305774924690744001e+02
-1.697358508615555479e+02 4.365000000000000000e+02 -2.288954654728053697e+02
-1.711295010766808673e+02 4.365000000000000000e+02 -2.291357550437009536e+02
-1.725231512918061583e+02 4.365000000000000000e+02 -2.293760446145965091e+02
-1.739168015069314777e+02 4.365000000000000000e+02 -2.296163341854920930e+02
-1.753104517220567971e+02 4.365000000000000000e+02 -2.298566237563876768e+02
-1.767041019371820880e+02 4.365000000000000000e+02 -2.300969133272832323e+02
-1.780977521523074074e+02 4.365000000000000000e+02 -2.303372028981788162e+02
-1.794914023674327268e+02 4.365000000000000000e+02 -2.305774924690744001e+02
-1.697358508615555479e+02 4.375000000000000000e+02 -2.288954654728053697e+02
-1.711295010766808673e+02 4.375000000000000000e+02 -2.291357550437009536e+02
-1.725231512918061583e+02 4.375000000000000000e+02 -2.293760446145965091e+02
-1.739168015069314777e+02 4.375000000000000000e+02 -2.296163341854920930e+02
-1.753104517220567971e+02 4.375000000000000000e+02 -2.298566237563876768e+02
-1.767041019371820880e+02 4.375000000000000000e+02 -2.300969133272832323e+02
-1.780977521523074074e+02 4.375000000000000000e+02 -2.303372028981788162e+02
-1.697358508615555479e+02 4.385000000000000000e+02 -2.288954654728053697e+02
-1.711295010766808673e+02 4.385000000000000000e+02 -2.291357550437009536e+02
-1.725231512918061583e+02 4.385000000000000000e+02 -2.293760446145965091e+02
-1.739168015069314777e+02 4.385000000000000000e+02 -2.296163341854920930e+02
-1.753104517220567971e+02 4.385000000000000000e+02 -2.298566237563876768e+02
-1.767041019371820880e+02 4.385000000000000000e+02 -2.300969133272832323e+02
-1.780977521523074074e+02 4.385000000000000000e+02 -2.303372028981788162e+02
-1.683422006464302569e+02 4.395000000000000000e+02 -2.286551759019097858e+02
-1.697358508615555479e+02 4.395000000000000000e+02 -2.288954654728053697e+02
-1.711295010766808673e+02 4.395000000000000000e+02 -2.291357550437009536e+02
-1.725231512918061583e+02 4.395000000000000000e+02 -2.293760446145965091e+02
-1.739168015069314777e+02 4.395000000000000000e+02 -2.296163341854920930e+02
-1.753104517220567971e+02 4.395000000000000000e+02 -2.298566237563876768e+02
-1.767041019371820880e+02 4.395000000000000000e+02 -2.300969133272832323e+02
-1.780977521523074074e+02 4.395000000000000000e+02 -2.303372028981788162e+02
-1.683422006464302569e+02 4.405000000000000000e+02 -2.286551759019097858e+02
-1.697358508615555479e+02 4.405000000000000000e+02 -2.288954654728053697e+02
-1.711295010766808673e+02 4.405000000000000000e+02 -2.291357550437009536e+02
-1.725231512918061583e+02 4.405000000000000000e+02 -2.293760446145965091e+02
-1.739168015069314777e+02 4.405000000000000000e+02 -2.296163341854920930e+02
-1.753104517220567971e+02 4.405000000000000000e+02 -2.298566237563876768e+02
-1.767041019371820880e+02 4.405000000000000000e+02 -2.300969133272832323e+02
-1.780977521523074074e+02 4.405000000000000000e+02 -2.303372028981788162e+02
-1.683422006464302569e+02 4.415000000000000000e+02 -2.286551759019097858e+02
-1.697358508615555479e+02 4.415000000000000000e+02 -2.288954654728053697e+02
-1.711295010766808673e+02 4.415000000000000000e+02 -2.291357550437009536e+02
-1.725231512918061583e+02 4.415000000000000000e+02 -2.293760446145965091e+02
-1.739168015069314777e+02 4.415000000000000000e+02 -2.296163341854920930e+02
-1.753104517220567971e+02 4.415000000000000000e+02 -2.298566237563876768e+02
-1.767041019371820880e+02 4.415000000000000000e+02 -2.300969133272832323e+02
-1.780977521523074074e+02 4.415000000000000000e+02 -2.303372028981788162e+02
-1.683422006464302569e+02 4.425000000000000000e+02 -2.286551759019097858e+02
-1.697358508615555479e+02 4.425000000000000000e+02 -2.288954654728053697e+02
-1.711295010766808673e+02 4.425000000000000000e+02 -2.291357550437009536e+02
-1.725231512918061583e+02 4.425000000000000000e+02 -2.293760446145965091e+02
-1.739168015069314777e+02 4.425000000000000000e+02 -2.296163341854920930e+02
-1.753104517220567971e+02 4.425000000000000000e+02 -2.298566237563876768e+02
-1.767041019371820880e+02 4.425000000000000000e+02 -2.300969133272832323e+02
-1.780977521523074074e+02 4.425000000000000000e+02 -2.303372028981788162e+02
-1.669485504313049660e+02 4.435000000000000000e+02 -2.284148863310142019e+02
-1.683422006464302569e+02 4.435000000000000000e+02 -2.286551759019097858e+02
-1.697358508615555479e+02 4.435000000000000000e+02 -2.288954654728053697e+02
-1.711295010766808673e+02 4.435000000000000000e+02 -2.291357550437009536e+02
-1.725231512918061583e+02 4.435000000000000000e+02 -2.293760446145965091e+02
-1.739168015069314777e+02 4.435000000000000000e+02 -2.296163341854920930e+02
-1.753104517220567971e+02 4.435000000000000000e+02 -2.298566237563876768e+02
-1.767041019371820880e+02 4.435000000000000000e+02 -2.300969133272832323e+02
-1.669485504313049660e+02 4.445000000000000000e+02 -2.284148863310142019e+02
-1.683422006464302569e+02 4.445000000000000000e+02 -2.286551759019097858e+02
-1.697358508615555479e+02 4.445000000000000000e+02 -2.288954654728053697e+02
-1.711295010766808673e+02 4.445000000000000000e+02 -2.291357550437009536e+02
-1.725231512918061583e+02 4.445000000000000000e+02 -2.293760446145965091e+02
-1.739168015069314777e+02 4.445000000000000000e+02 -2.296163341854920930e+02
-1.753104517220567971e+02 4.445000000000000000e+02 -2.298566237563876768e+02
-1.767041019371820880e+02 4.445000000000000000e+02 -2.300969133272832323e+02
-1.669485504313049660e+02 4.455000000000000000e+02 -2.284148863310142019e+02
-1.683422006464302569e+02 4.455000000000000000e+02 -2.286551759019097858e+02
-1.697358508615555479e+02 4.455000000000000000e+02 -2.288954654728053697e+02
-1.711295010766808673e+02 4.455000000000000000e+02 -2.291357550437009536e+02
-1.725231512918061583e+02 4.455000000000000000e+02 -2.293760446145965091e+02
-1.739168015069314777e+02 4.455000000000000000e+02 -2.296163341854920930e+02
-1.753104517220567971e+02 4.455000000000000000e+02 -2.298566237563876768e+02
-1.767041019371820880e+02 4.455000000000000000e+02 -2.300969133272832323e+02
-1.655549002161796466e+02 4.465000000000000000e+02 -2.281745967601186180e+02
-1.669485504313049660e+02 4.465000000000000000e+02 -2.284148863310142019e+02
-1.683422006464302569e+02 4.465000000000000000e+02 -2.286551759019097858e+02
-1.697358508615555479e+02 4.465000000000000000e+02 -2.288954654728053697e+02
-1.711295010766808673e+02 4.465000000000000000e+02 -2.291357550437009536e+02
-1.725231512918061583e+02 4.465000000000000000e+02 -2.293760446145965091e+02
-1.739168015069314777e+02 4.465000000000000000e+02 -2.296163341854920930e+02
-1.753104517220567971e+02 4.465000000000000000e+02 -2.298566237563876768e+02
-1.655549002161796466e+02 4.475000000000000000e+02 -2.281745967601186180e+02
-1.669485504313049660e+02 4.475000000000000000e+02 -2.284148863310142019e+02
-1.683422006464302569e+02 4.475000000000000000e+02 -2.286551759019097858e+02
-1.697358508615555479e+02 4.475000000000000000e+02 -2.288954654728053697e+02
-1.711295010766808673e+02 4.475000000000000000e+02 -2.291357550437009536e+02
-1.725231512918061583e+02 4.475000000000000000e+02 -2.293760446145965091e+02
-1.739168015069314777e+02 4.475000000000000000e+02 -2.296163341854920930e+02
-1.753104517220567971e+02 4.475000000000000000e+02 -2.298566237563876768e+02
-1.655549002161796466e+02 4.485000000000000000e+02 -2.281745967601186180e+02
-1.669485504313049660e+02 4.485000000000000000e+02 -2.284148863310142019e+02
-1.683422006464302569e+02 4.485000000000000000e+02 -2.286551759019097858e+02
-1.697358508615555479e+02 4.485000000000000000e+02 -2.288954654728053697e+02
-1.711295010766808673e+02 4.485000000000000000e+02 -2.291357550437009536e+02
-1.725231512918061583e+02 4.485000000000000000e+02 -2.293760446145965091e+02
-1.739168015069314777e+02 4.485000000000000000e+02 -2.296163341854920930e+02
-1.753104517220567971e+02 4.485000000000000000e+02 -2.298566237563876768e+02
-1.641612500010543272e+02 4.495000000000000000e+02 -2.279343071892230626e+02
-1.655549002161796466e+02 4.495000000000000000e+02 -2.281745967601186180e+02
-1.669485504313049660e+02 4.495000000000000000e+02 -2.284148863310142019e+02
-1.683422006464302569e+02 4.495000000000000000e+02 -2.286551759019097858e+02
-1.697358508615555479e+02 4.495000000000000000e+02 -2.288954654728053697e+02
-1.711295010766808673e+02 4.495000000000000000e+02 -2.291357550437009536e+02
-1.725231512918061583e+02 4.495000000000000000e+02 -2.293760446145965091e+02
-1.739168015069314777e+02 4.495000000000000000e+02 -2.296163341854920930e+02
-1.753104517220567971e+02 4.495000000000000000e+02 -2.298566237563876768e+02
-1.641612500010543272e+02 4.505000000000000000e+02 -2.279343071892230626e+02
-1.655549002161796466e+02 4.505000000000000000e+02 -2.281745967601186180e+02
-1.669485504313049660e+02 4.505000000000000000e+02 -2.284148863310142019e+02
-1.683422006464302569e+02 4.505000000000000000e+02 -2.286551759019097858e+02
-1.697358508615555479e+02 4.505000000000000000e+02 -2.288954654728053697e+02
-1.711295010766808673e+02 4.505000000000000000e+02 -2.291357550437009536e+02
-1.725231512918061583e+02 4.505000000000000000e+02 -2.293760446145965091e+02
-1.739168015069314777e+02 4.505000000000000000e+02 -2.296163341854920930e+02
-1.627675997859290362e+02 4.515000000000000000e+02 -2.276940176183274787e+02
-1.641612500010543272e+02 4.515000000000000000e+02 -2.279343071892230626e+02
-1.655549002161796466e+02 4.515000000000000000e+02 -2.281745967601186180e+02
-1.669485504313049660e+02 4.515000000000000000e+02 -2.284148863310142019e+02
-1.683422006464302569e+02 4.515000000000000000e+02 -2.286551759019097858e+02
-1.697358508615555479e+02 4.515000000000000000e+02 -2.288954654728053697e+02
-1.711295010766808673e+02 4.515000000000000000e+02 -2.291357550437009536e+02
-1.725231512918061583e+02 4.515000000000000000e+02 -2.293760446145965091e+02
-1.739168015069314777e+02 4.515000000000000000e+02 -2.296163341854920930e+02
-1.627675997859290362e+02 4.525000000000000000e+02 -2.276940176183274787e+02
-1.641612500010543272e+02 4.525000000000000000e+02 -2.279343071892230626e+02
-1.655549002161796466e+02 4.525000000000000000e+02 -2.281745967601186180e+02
-1.669485504313049660e+02 4.525000000000000000e+02 -2.284148863310142019e+02
-1.683422006464302569e+02 4.525000000000000000e+02 -2.286551759019097858e+02
-1.697358508615555479e+02 4.525000000000000000e+02 -2.288954654728053697e+02
-1.711295010766808673e+02 4.525000000000000000e+02 -2.291357550437009536e+02
-1.725231512918061583e+02 4.525000000000000000e+02 -2.293760446145965091e+02
-1.627675997859290362e+02 4.535000000000000000e+02 -2.276940176183274787e+02
-1.641612500010543272e+02 4.535000000000000000e+02 -2.279343071892230626e+02
-1.655549002161796466e+02 4.535000000000000000e+02 -2.281745967601186180e+02
-1.669485504313049660e+02 4.535000000000000000e+02 -2.284148863310142019e+02
-1.683422006464302569e+02 4.535000000000000000e+02 -2.286551759019097858e+02
-1.697358508615555479e+02 4.535000000000000000e+02 -2.288954654728053697e+02
-1.711295010766808673e+02 4.535000000000000000e+02 -2.291357550437009536e+02
-1.725231512918061583e+02 4.535000000000000000e+02 -2.293760446145965091e+02
-1.627675997859290362e+02 4.545000000000000000e+02 -2.276940176183274787e+02
-1.641612500010543272e+02 4.545000000000000000e+02 -2.279343071892230626e+02
-1.655549002161796466e+02 4.545000000000000000e+02 -2.281745967601186180e+02
-1.669485504313049660e+02 4.545000000000000000e+02 -2.284148863310142019e+02
-1.683422006464302569e+02 4.545000000000000000e+02 -2.286551759019097858e+02
-1.697358508615555479e+02 4.545000000000000000e+02 -2.288954654728053697e+02
-1.711295010766808673e+02 4.545000000000000000e+02 -2.291357550437009536e+02
-1.641612500010543272e+02 4.555000000000000000e+02 -2.279343071892230626e+02
-1.655549002161796466e+02 4.555000000000000000e+02 -2.281745967601186180e+02
-1.669485504313049660e+02 4.555000000000000000e+02 -2.284148863310142019e+02
-1.683422006464302569e+02 4.555000000000000000e+02 -2.286551759019097858e+02
-1.697358508615555479e+02 4.555000000000000000e+02 -2.288954654728053697e+02
-2.575358144144500443e+02 4.625000000000000000e+02 -2.440337084392265865e+02
-2.561421641993247249e+02 4.635000000000000000e+02 -2.437934188683310310e+02
-2.575358144144500443e+02 4.635000000000000000e+02 -2.440337084392265865e+02
-2.561421641993247249e+02 4.645000000000000000e+02 -2.437934188683310310e+02
-2.575358144144500443e+02 4.645000000000000000e+02 -2.440337084392265865e+02
-2.561421641993247249e+02 4.655000000000000000e+02 -2.437934188683310310e+02
-2.575358144144500443e+02 4.655000000000000000e+02 -2.440337084392265865e+02
-2.561421641993247249e+02 4.665000000000000000e+02 -2.437934188683310310e+02
-2.575358144144500443e+02 4.665000000000000000e+02 -2.440337084392265865e+02
-2.547485139841994055e+02 4.675000000000000000e+02 -2.435531292974354187e+02
-2.561421641993247249e+02 4.675000000000000000e+02 -2.437934188683310310e+02
-2.575358144144500443e+02 4.675000000000000000e+02 -2.440337084392265865e+02
-2.547485139841994055e+02 4.685000000000000000e+02 -2.435531292974354187e+02
-2.561421641993247249e+02 4.685000000000000000e+02 -2.437934188683310310e+02
-2.575358144144500443e+02 4.685000000000000000e+02 -2.440337084392265865e+02
-2.547485139841994055e+02 4.695000000000000000e+02 -2.435531292974354187e+02
-2.561421641993247249e+02 4.695000000000000000e+02 -2.437934188683310310e+02
-2.575358144144500443e+02 4.695000000000000000e+02 -2.440337084392265865e+02
-2.547485139841994055e+02 4.705000000000000000e+02 -2.435531292974354187e+02
-2.561421641993247249e+02 4.705000000000000000e+02 -2.437934188683310310e+02
-2.575358144144500443e+02 4.705000000000000000e+02 -2.440337084392265865e+02
-2.547485139841994055e+02 4.715000000000000000e+02 -2.435531292974354187e+02
-2.561421641993247249e+02 4.715000000000000000e+02 -2.437934188683310310e+02
-2.575358144144500443e+02 4.715000000000000000e+02 -2.440337084392265865e+02
